ply
format ascii 1.0
element face 0
property list uchar int vertex_indices
element vertex 1291
property float x
property float y
property float z
property uchar diffuse_red
property uchar diffuse_green
property uchar diffuse_blue
end_header
-0.84302 -0.25451 -0.78295 79 82 89
-0.83686 -0.25678 -0.78091 81 82 88
-0.80470 -0.27037 -0.75207 65 68 83
-0.81300 -0.27457 -0.75458 81 79 81
-0.80691 -0.27681 -0.75256 79 76 79
-0.79849 -0.27279 -0.74861 62 65 77
-0.79461 -0.28147 -0.74708 71 74 70
-0.79234 -0.27514 -0.74567 54 64 77
-0.78846 -0.28382 -0.74413 72 72 76
-0.78621 -0.27745 -0.74313 53 62 83
-0.78007 -0.27979 -0.74030 47 62 84
-0.77406 -0.28188 -0.73953 49 58 83
-0.77018 -0.29056 -0.73800 74 71 75
-0.76807 -0.28394 -0.73915 51 58 86
-0.76204 -0.28605 -0.73829 52 56 86
-0.75815 -0.29474 -0.73675 67 67 73
-0.75591 -0.28837 -0.73566 54 59 86
-0.75202 -0.29705 -0.73413 64 67 70
-0.74985 -0.29052 -0.73446 55 61 77
-0.73759 -0.29516 -0.72905 63 65 78
-0.73980 -0.30160 -0.72953 70 75 88
-0.73371 -0.30385 -0.72751 76 77 84
-0.73153 -0.29732 -0.72781 72 64 76
-0.72554 -0.29924 -0.72882 77 69 81
-0.71948 -0.30136 -0.72806 87 81 86
-0.71353 -0.30301 -0.73167 93 97 106
-0.70154 -0.30638 -0.73874 100 105 96
-0.69554 -0.30782 -0.74473 78 83 83
-0.69160 -0.31664 -0.74318 45 38 60
-0.68942 -0.30972 -0.74649 68 59 79
-0.68547 -0.31855 -0.74493 46 47 57
-0.43917 -0.39418 -0.74437 67 67 133
-0.44329 -0.38498 -0.74600 67 64 117
-0.44563 -0.39180 -0.74651 66 63 121
-0.43683 -0.38736 -0.74386 68 65 125
-0.44151 -0.40099 -0.74489 71 73 145
-0.43038 -0.38973 -0.74171 66 70 135
-0.43228 -0.39632 -0.74617 69 72 145
-0.40877 -0.40686 -0.71878 111 108 165
0.33686 -0.68477 -0.43779 254 254 254
0.33285 -0.67580 -0.43937 254 254 254
0.33056 -0.68245 -0.43988 254 254 254
0.32828 -0.68911 -0.44038 254 254 254
0.34100 -0.68671 -0.43204 250 237 212
0.33864 -0.68750 -0.41550 112 86 109
0.34909 -0.69055 -0.42044 178 191 195
0.35425 -0.69266 -0.41655 244 248 247
0.35824 -0.70157 -0.41498 254 254 254
0.45305 -0.72927 -0.38155 254 253 250
0.44454 -0.73356 -0.38412 254 254 254
0.45078 -0.73586 -0.38205 254 254 253
0.45513 -0.73075 -0.37341 242 234 223
0.44777 -0.73035 -0.35166 220 202 175
0.45835 -0.73349 -0.35600 207 188 147
0.46236 -0.73534 -0.35087 208 192 159
0.46196 -0.73629 -0.33951 216 200 178
0.46586 -0.74501 -0.33797 254 251 241
0.46378 -0.73767 -0.33142 227 210 202
0.46767 -0.74636 -0.32988 254 251 246
-0.95756 -0.21872 -0.83076 63 61 66
-0.95100 -0.22136 -0.82610 55 57 67
-0.93895 -0.22561 -0.82419 46 46 62
-0.93215 -0.22851 -0.81760 56 63 65
-0.92569 -0.23109 -0.81330 57 62 66
-0.91927 -0.23363 -0.80931 52 56 54
-0.91302 -0.23599 -0.80654 48 55 50
-0.90691 -0.23822 -0.80483 46 52 51
-0.89500 -0.24230 -0.80417 49 52 54
-0.88905 -0.24433 -0.80401 48 47 52
-0.88253 -0.24700 -0.79893 44 40 46
-0.87861 -0.25578 -0.79738 22 15 28
-0.87546 -0.25034 -0.78850 35 35 37
-0.86920 -0.25275 -0.78530 33 28 34
-0.86279 -0.25535 -0.78058 32 26 45
-0.85660 -0.25770 -0.77787 29 30 48
-0.85269 -0.26642 -0.77633 31 27 38
-0.85055 -0.25985 -0.77669 43 45 58
-0.84458 -0.26190 -0.77632 55 57 65
-0.83858 -0.26397 -0.77578 70 71 78
-0.83184 -0.26708 -0.76682 80 79 79
-0.82572 -0.26933 -0.76479 81 82 81
-0.80086 -0.27899 -0.75117 76 75 72
-0.80307 -0.28543 -0.75165 79 81 82
-0.79697 -0.28768 -0.74963 77 81 84
-0.78241 -0.28598 -0.74286 69 72 75
-0.79072 -0.29017 -0.74537 81 80 83
-0.78462 -0.29242 -0.74334 79 78 86
-0.77853 -0.29466 -0.74132 79 80 83
-0.77634 -0.28819 -0.74111 72 71 71
-0.77246 -0.29688 -0.73957 82 80 84
-0.76421 -0.29256 -0.73819 71 69 74
-0.76643 -0.29900 -0.73868 76 79 81
-0.74595 -0.29925 -0.73259 68 69 71
-0.72775 -0.30571 -0.72921 81 79 95
-0.72182 -0.30743 -0.73228 100 104 100
-0.71586 -0.30914 -0.73557 96 101 108
-0.70978 -0.31119 -0.73560 75 84 86
-0.70371 -0.31314 -0.73675 57 65 65
-0.69979 -0.32191 -0.73520 42 43 57
-0.69763 -0.31507 -0.73813 46 48 56
-0.69370 -0.32385 -0.73658 47 47 55
-0.43534 -0.40351 -0.74020 77 78 157
-0.43768 -0.41032 -0.74072 81 83 162
-0.43123 -0.41269 -0.73858 88 90 168
-0.41290 -0.41435 -0.70470 138 114 135
-0.39765 -0.41811 -0.71990 247 251 249
-0.39356 -0.42726 -0.71828 253 253 253
0.33373 -0.69127 -0.43684 254 254 247
0.32515 -0.69561 -0.43944 254 254 254
0.33128 -0.69200 -0.41999 222 186 185
0.33366 -0.69359 -0.41144 142 112 90
0.34963 -0.69768 -0.42562 200 218 204
0.34828 -0.69857 -0.41094 247 252 250
0.35225 -0.70745 -0.40937 254 254 254
0.45342 -0.73743 -0.37470 254 252 247
0.44494 -0.74171 -0.37727 254 254 254
0.45116 -0.74401 -0.37520 254 254 254
0.45739 -0.74630 -0.37314 254 254 254
0.45880 -0.73955 -0.37141 254 250 234
0.46276 -0.74841 -0.36984 254 254 254
0.45750 -0.74030 -0.35850 254 250 227
0.46144 -0.74910 -0.35695 254 254 254
0.46032 -0.74287 -0.34083 254 250 235
0.46422 -0.75160 -0.33929 254 254 254
-0.97575 -0.22078 -0.82060 99 102 102
-0.97966 -0.21204 -0.82215 105 106 106
-0.98189 -0.21852 -0.82264 106 110 107
-0.97352 -0.21430 -0.82011 98 97 105
-0.96739 -0.21656 -0.81807 86 84 93
-0.97184 -0.22953 -0.81906 67 71 67
-0.97095 -0.22182 -0.82734 84 88 88
-0.96604 -0.22293 -0.83360 68 71 70
-0.96065 -0.22446 -0.83698 56 52 58
-0.95332 -0.22781 -0.82714 47 42 54
-0.94719 -0.23005 -0.82541 39 36 49
-0.94119 -0.23215 -0.82465 36 38 45
-0.93475 -0.23467 -0.82076 34 38 44
-0.93082 -0.24348 -0.81921 18 11 22
-0.92147 -0.24017 -0.80948 31 30 35
-0.91754 -0.24895 -0.80793 19 14 24
-0.91587 -0.24187 -0.81183 28 29 33
-0.91193 -0.25066 -0.81028 20 17 26
-0.90957 -0.24427 -0.80877 26 29 37
-0.90564 -0.25306 -0.80722 25 20 25
-0.90295 -0.24702 -0.80302 29 28 39
-0.89903 -0.25580 -0.80147 27 23 29
-0.89054 -0.25167 -0.79807 25 22 38
-0.88411 -0.25425 -0.79356 24 19 35
-0.87128 -0.25941 -0.78439 34 22 30
-0.86501 -0.26182 -0.78110 40 35 46
-0.85885 -0.26412 -0.77874 33 37 45
-0.84644 -0.26885 -0.77292 31 28 39
-0.84254 -0.27757 -0.77138 34 27 41
-0.84025 -0.27118 -0.77022 44 41 54
-0.83391 -0.27373 -0.76568 55 56 58
-0.82761 -0.27625 -0.76142 64 66 75
-0.81929 -0.27205 -0.75890 81 82 84
-0.82144 -0.27859 -0.75860 72 76 81
-0.81529 -0.28090 -0.75603 77 81 78
-0.80925 -0.28306 -0.75474 80 80 81
-0.76037 -0.30116 -0.73751 70 74 75
-0.75440 -0.30315 -0.73794 66 71 69
-0.74826 -0.30547 -0.73517 66 72 71
-0.74211 -0.30781 -0.73225 63 73 76
-0.73604 -0.30999 -0.73093 59 67 71
-0.72989 -0.31236 -0.72769 57 61 70
-0.72399 -0.31403 -0.73145 66 78 72
-0.71788 -0.31626 -0.72970 58 58 71
-0.71398 -0.32498 -0.72816 42 43 53
-0.71192 -0.31799 -0.73299 43 47 58
-0.70801 -0.32673 -0.73144 45 47 54
-0.70587 -0.31992 -0.73432 33 40 47
-0.70195 -0.32868 -0.73277 46 47 57
-0.47309 -0.40040 -0.71702 46 47 118
-0.47712 -0.39137 -0.71862 42 47 106
-0.47942 -0.39807 -0.71912 42 46 117
-0.47079 -0.39371 -0.71651 46 45 108
-0.46445 -0.39604 -0.71441 53 51 117
-0.46605 -0.40233 -0.72223 54 55 126
-0.46200 -0.41139 -0.72063 65 68 135
-0.45943 -0.40452 -0.72280 64 65 133
-0.45537 -0.41359 -0.72120 70 74 139
-0.45220 -0.40642 -0.72907 69 72 140
-0.44493 -0.40834 -0.73521 75 79 151
-0.42501 -0.41516 -0.73451 89 92 164
-0.41902 -0.41771 -0.72863 100 93 141
-0.41508 -0.42102 -0.70629 169 156 157
-0.40799 -0.42310 -0.70996 231 229 222
-0.40392 -0.43219 -0.70835 253 253 253
-0.40024 -0.42499 -0.71840 251 253 253
-0.39615 -0.43412 -0.71679 253 253 253
0.32743 -0.69717 -0.43049 254 249 236
0.32780 -0.69836 -0.41842 157 113 167
0.33403 -0.70065 -0.41635 164 129 143
0.33727 -0.70237 -0.40929 226 231 229
0.34123 -0.71123 -0.40773 253 254 254
0.34194 -0.70437 -0.40468 251 254 253
0.34589 -0.71320 -0.40312 254 254 254
-1.03612 -0.20457 -0.85552 38 44 51
-1.04006 -0.19576 -0.85707 50 53 61
-1.03387 -0.19803 -0.85502 49 54 56
-1.03836 -0.21110 -0.85601 30 29 41
-1.02769 -0.20031 -0.85297 50 54 55
-1.02993 -0.20685 -0.85347 42 47 56
-1.02367 -0.20919 -0.85095 45 48 64
-1.02143 -0.20266 -0.85046 50 56 59
-1.01525 -0.20494 -0.84840 53 59 58
-1.01625 -0.21249 -0.84174 47 52 61
-1.00785 -0.20825 -0.83920 64 66 65
-1.00929 -0.21543 -0.83504 55 62 64
-1.00092 -0.21120 -0.83250 76 75 81
-1.00315 -0.21769 -0.83300 68 73 80
-1.00538 -0.22419 -0.83349 40 47 58
-0.98420 -0.22493 -0.82369 91 96 98
-0.99034 -0.22267 -0.82573 90 97 99
-0.99256 -0.22915 -0.82622 47 53 66
-0.98029 -0.23367 -0.82215 40 44 43
-0.97908 -0.22629 -0.82815 81 87 83
-0.97516 -0.23507 -0.82660 36 36 41
-0.96932 -0.22853 -0.84102 54 55 57
-0.96537 -0.23737 -0.83946 36 28 40
-0.96184 -0.23198 -0.83034 43 40 49
-0.95790 -0.24079 -0.82879 32 23 30
-0.95528 -0.23461 -0.82567 35 29 43
-0.95134 -0.24340 -0.82411 28 22 28
-0.94307 -0.23902 -0.82258 20 17 31
-0.89244 -0.25853 -0.79571 24 27 28
-0.88584 -0.26128 -0.78968 27 28 33
-0.87925 -0.26405 -0.78345 32 31 36
-0.87317 -0.26625 -0.78187 50 47 44
-0.86684 -0.26875 -0.77782 59 60 55
-0.86294 -0.27746 -0.77628 67 66 65
-0.86086 -0.27084 -0.77712 57 60 53
-0.85484 -0.27298 -0.77607 51 48 46
-0.84889 -0.27502 -0.77588 38 37 45
-0.83618 -0.28012 -0.76673 35 26 35
-0.83032 -0.28205 -0.76757 40 33 54
-0.82415 -0.28437 -0.76498 42 45 59
-0.81762 -0.28719 -0.75792 47 54 57
-0.81143 -0.28956 -0.75481 53 57 67
-0.80529 -0.29186 -0.75232 58 63 73
-0.79914 -0.29418 -0.74958 62 68 79
-0.79298 -0.29653 -0.74660 67 73 75
-0.78685 -0.29883 -0.74408 69 74 75
-0.78070 -0.30117 -0.74112 68 75 76
-0.77455 -0.30352 -0.73815 72 74 83
-0.76850 -0.30569 -0.73677 65 68 78
-0.76250 -0.30777 -0.73634 52 56 60
-0.75861 -0.31646 -0.73481 26 27 31
-0.75636 -0.31009 -0.73358 42 48 47
-0.75248 -0.31877 -0.73205 28 30 43
-0.75036 -0.31216 -0.73334 42 47 52
-0.74647 -0.32085 -0.73180 35 35 39
-0.74426 -0.31441 -0.73120 42 45 45
-0.74037 -0.32310 -0.72967 34 37 47
-0.73813 -0.31673 -0.72844 34 36 47
-0.73206 -0.31891 -0.72713 34 31 41
-0.72607 -0.32088 -0.72791 35 39 44
-0.71990 -0.32330 -0.72416 34 34 43
-0.71601 -0.33199 -0.72262 49 49 53
-0.52799 -0.39028 -0.70456 31 41 95
-0.47554 -0.40719 -0.71578 51 55 130
-0.48417 -0.41154 -0.71838 43 55 142
-0.47784 -0.41387 -0.71628 50 57 137
-0.47151 -0.41620 -0.71418 54 60 138
-0.46835 -0.40904 -0.72279 58 62 133
-0.44739 -0.41519 -0.73453 75 80 146
-0.44046 -0.41733 -0.73709 76 84 153
-0.43423 -0.41978 -0.73317 80 75 155
-0.42757 -0.42205 -0.73312 81 75 151
-0.42341 -0.42527 -0.71172 138 129 167
-0.41545 -0.42706 -0.72267 214 212 215
-0.41137 -0.43620 -0.72105 253 254 253
-0.40915 -0.42946 -0.71968 248 250 247
-0.40506 -0.43859 -0.71807 253 253 253
0.31458 -0.70064 -0.42565 254 254 254
0.31060 -0.69175 -0.42722 254 254 254
0.30834 -0.69834 -0.42772 254 254 254
0.30607 -0.70494 -0.42822 254 254 254
0.32203 -0.70425 -0.41297 129 90 127
0.32514 -0.70592 -0.40567 179 168 190
0.32988 -0.70791 -0.40119 240 242 245
0.33381 -0.71672 -0.39963 254 254 254
-1.04413 -0.20914 -0.85585 45 43 50
-1.04807 -0.20034 -0.85740 51 52 60
-1.05031 -0.20687 -0.85790 59 61 66
-1.05255 -0.21339 -0.85839 63 65 70
-1.04020 -0.21794 -0.85429 36 36 42
-1.03199 -0.21353 -0.85293 28 29 44
-1.02805 -0.22233 -0.85137 23 17 30
-1.02572 -0.21588 -0.85034 31 30 47
-1.01903 -0.21856 -0.84537 32 32 43
-1.01267 -0.22099 -0.84221 34 40 45
-1.00874 -0.22978 -0.84066 13 8 22
-0.99158 -0.22705 -0.85636 46 50 61
-0.97103 -0.23557 -0.83790 38 32 48
-0.97947 -0.23983 -0.84046 28 25 37
-0.93872 -0.24821 -0.81801 28 24 29
-0.93239 -0.25063 -0.81478 29 25 31
-0.92595 -0.25317 -0.81061 33 26 34
-0.92203 -0.26194 -0.80906 44 41 40
-0.91984 -0.25539 -0.80893 34 29 34
-0.91591 -0.26417 -0.80738 45 41 40
-0.90105 -0.26252 -0.80017 40 37 34
-0.90943 -0.26675 -0.80270 43 40 39
-0.90328 -0.26902 -0.80066 43 40 38
-0.89713 -0.27128 -0.79862 43 42 38
-0.89451 -0.26518 -0.79485 40 41 36
-0.89060 -0.27393 -0.79330 47 47 42
-0.88802 -0.26781 -0.78976 43 44 40
-0.88141 -0.27058 -0.78342 50 51 48
-0.87505 -0.27310 -0.77917 62 66 58
-0.87115 -0.28181 -0.77763 71 67 78
-0.86908 -0.27519 -0.77851 70 67 68
-0.86518 -0.28390 -0.77697 71 66 74
-0.85698 -0.27954 -0.77581 65 65 61
-0.85920 -0.28601 -0.77630 71 70 72
-0.85106 -0.28156 -0.77585 61 59 57
-0.84482 -0.28396 -0.77256 53 49 51
-0.83878 -0.28611 -0.77144 47 41 43
-0.83259 -0.28845 -0.76866 40 34 43
-0.82628 -0.29094 -0.76449 28 27 38
-0.81996 -0.29346 -0.76000 25 23 28
-0.81382 -0.29575 -0.75759 26 24 37
-0.80770 -0.29803 -0.75536 28 28 41
-0.80381 -0.30673 -0.75382 31 30 33
-0.80155 -0.30033 -0.75280 35 35 44
-0.79766 -0.30903 -0.75126 26 29 34
-0.79527 -0.30285 -0.74823 34 41 42
-0.79138 -0.31154 -0.74669 28 28 24
-0.78910 -0.30520 -0.74517 38 42 33
-0.78522 -0.31389 -0.74363 34 30 40
-0.78308 -0.30732 -0.74436 43 44 48
-0.77920 -0.31602 -0.74283 36 32 46
-0.77695 -0.30963 -0.74173 45 43 61
-0.77306 -0.31832 -0.74020 40 35 48
-0.77061 -0.31229 -0.73564 45 39 59
-0.76460 -0.31440 -0.73492 35 29 37
-0.73387 -0.32631 -0.71752 41 38 50
-0.73000 -0.33495 -0.71599 51 50 56
-0.72786 -0.32839 -0.71709 46 44 50
-0.72399 -0.33704 -0.71556 51 52 55
-0.72175 -0.33073 -0.71397 47 48 49
-0.71788 -0.33938 -0.71244 53 54 54
-0.53618 -0.39427 -0.71222 28 40 87
-0.53038 -0.39700 -0.70295 38 50 101
-0.52404 -0.39919 -0.70264 40 52 112
-0.51814 -0.40177 -0.69566 39 51 123
-0.50967 -0.39749 -0.69310 23 37 130
-0.50545 -0.40617 -0.69481 35 44 140
-0.49696 -0.40188 -0.69224 37 45 134
-0.49922 -0.40847 -0.69274 38 46 142
-0.45699 -0.42000 -0.72861 61 70 135
-0.46569 -0.42440 -0.73124 49 49 129
-0.45930 -0.42675 -0.72912 49 51 125
-0.45027 -0.42221 -0.72970 64 65 131
-0.44390 -0.42458 -0.72726 60 57 131
-0.43701 -0.42674 -0.72961 80 64 142
-0.43102 -0.42926 -0.72381 133 115 170
-0.42526 -0.43184 -0.71618 208 199 216
-0.42119 -0.44094 -0.71458 254 254 253
-0.41866 -0.43412 -0.71586 247 245 247
-0.41459 -0.44323 -0.71425 253 253 253
0.30384 -0.70552 -0.41149 254 254 250
0.29541 -0.70978 -0.41404 254 254 254
0.30415 -0.70661 -0.39936 233 211 192
0.31875 -0.71060 -0.41170 149 110 88
0.31976 -0.71182 -0.40088 201 210 206
0.32575 -0.71406 -0.39852 247 251 251
0.32968 -0.72285 -0.39697 254 254 254
-1.02139 -0.22499 -0.84657 20 12 20
-1.02980 -0.22923 -0.84911 40 30 38
-1.02363 -0.23151 -0.84706 35 25 29
-1.01746 -0.23378 -0.84502 31 22 24
-1.01565 -0.22692 -0.84704 17 9 20
-1.01171 -0.23572 -0.84548 27 21 23
-0.99817 -0.23289 -0.84733 12 9 21
-1.00662 -0.23715 -0.84989 27 20 23
-1.00042 -0.23944 -0.84783 30 24 25
-0.99265 -0.23462 -0.84944 17 12 20
-0.98869 -0.24347 -0.84788 39 39 31
-0.98571 -0.23751 -0.84280 20 17 20
-0.97340 -0.24201 -0.83923 37 34 51
-0.97565 -0.24856 -0.83973 48 50 59
-0.96945 -0.25084 -0.83767 49 49 56
-0.96631 -0.24505 -0.83123 41 38 45
-0.96237 -0.25386 -0.82967 50 48 48
-0.95295 -0.25048 -0.82023 46 41 39
-0.95519 -0.25699 -0.82073 51 48 49
-0.94903 -0.25926 -0.81868 50 48 53
-0.94646 -0.25305 -0.81583 47 42 43
-0.94254 -0.26181 -0.81428 49 49 58
-0.93979 -0.25578 -0.81007 47 42 46
-0.93587 -0.26453 -0.80853 48 46 57
-0.93312 -0.25852 -0.80414 44 41 47
-0.92921 -0.26726 -0.80259 47 45 50
-0.92654 -0.26119 -0.79875 44 41 43
-0.92264 -0.26991 -0.79721 45 45 45
-0.88303 -0.27766 -0.77861 54 55 55
-0.87700 -0.27983 -0.77725 63 66 68
-0.87311 -0.28853 -0.77571 64 63 78
-0.85320 -0.28813 -0.77549 71 69 69
-0.86155 -0.29234 -0.77801 72 70 78
-0.85542 -0.29460 -0.77598 73 71 74
-0.84930 -0.29685 -0.77395 67 66 73
-0.84712 -0.29033 -0.77389 65 63 65
-0.84322 -0.29906 -0.77235 65 65 68
-0.84103 -0.29255 -0.77219 62 61 58
-0.83476 -0.29498 -0.76855 60 55 46
-0.82862 -0.29725 -0.76638 50 46 41
-0.82237 -0.29968 -0.76274 43 40 37
-0.81622 -0.30198 -0.76029 38 35 39
-0.80999 -0.30438 -0.75678 32 31 38
-0.76647 -0.32142 -0.72933 42 36 39
-0.76044 -0.32358 -0.72808 41 39 41
-0.75427 -0.32600 -0.72420 42 40 47
-0.74803 -0.32857 -0.71856 44 42 48
-0.74207 -0.33061 -0.71865 45 45 54
-0.73599 -0.33287 -0.71629 49 46 57
-0.73213 -0.34151 -0.71476 58 56 60
-0.58253 -0.38527 -0.71913 48 48 56
-0.58650 -0.37639 -0.72070 53 53 65
-0.58876 -0.38297 -0.72120 55 54 60
-0.59102 -0.38956 -0.72170 57 56 60
-0.57009 -0.38989 -0.71455 28 25 37
-0.56612 -0.39876 -0.71298 21 17 31
-0.53847 -0.40089 -0.71243 35 44 93
-0.53245 -0.40341 -0.70659 45 57 108
-0.52610 -0.40562 -0.70611 51 63 118
-0.52021 -0.40819 -0.69894 55 67 126
-0.51397 -0.41049 -0.69692 52 66 137
-0.50741 -0.41256 -0.69919 50 59 146
-0.50098 -0.41474 -0.69947 47 50 145
-0.49246 -0.41044 -0.69690 41 49 142
-0.49473 -0.41705 -0.69740 44 49 143
-0.45361 -0.42939 -0.72023 60 53 117
-0.44659 -0.43148 -0.72426 92 71 129
-0.44098 -0.43412 -0.71502 150 130 167
-0.43355 -0.43610 -0.72242 215 201 215
-0.42948 -0.44521 -0.72081 254 254 253
-0.42754 -0.43858 -0.71699 249 245 246
-0.42347 -0.44767 -0.71538 254 254 254
0.29634 -0.71096 -0.40289 254 251 244
0.28796 -0.71519 -0.40542 254 254 254
0.30236 -0.71320 -0.40061 185 147 184
0.31272 -0.71635 -0.40575 170 126 126
0.31708 -0.71824 -0.40062 223 228 226
0.32101 -0.72703 -0.39907 253 254 254
0.32030 -0.71989 -0.39362 251 254 253
0.32422 -0.72865 -0.39207 254 254 254
-1.04702 -0.22337 -0.84833 56 57 58
-1.05317 -0.22110 -0.85038 56 59 63
-1.04087 -0.22563 -0.84629 53 51 51
-0.99310 -0.24261 -0.83886 35 32 26
-0.98916 -0.25142 -0.83730 45 50 48
-0.89066 -0.28253 -0.77523 48 46 39
-0.89674 -0.28029 -0.77725 43 40 38
-0.89895 -0.28671 -0.77774 44 41 45
-0.88472 -0.28463 -0.77447 55 55 55
-0.88083 -0.29330 -0.77293 59 60 69
-0.83715 -0.30125 -0.77102 65 58 55
-0.84550 -0.30546 -0.77354 61 62 67
-0.83938 -0.30772 -0.77151 60 58 58
-0.83325 -0.30998 -0.76947 58 55 58
-0.82456 -0.30618 -0.76289 53 52 51
-0.82066 -0.31489 -0.76135 53 51 56
-0.81839 -0.30850 -0.76021 52 50 51
-0.81449 -0.31721 -0.75867 52 50 54
-0.81216 -0.31089 -0.75674 49 50 46
-0.80827 -0.31960 -0.75520 51 49 53
-0.80590 -0.31335 -0.75267 47 45 44
-0.80201 -0.32204 -0.75113 52 49 50
-0.78685 -0.32115 -0.73555 46 43 43
-0.79512 -0.32533 -0.73805 51 49 48
-0.78906 -0.32757 -0.73604 50 48 50
-0.78060 -0.32367 -0.73059 46 44 46
-0.77430 -0.32628 -0.72460 47 44 50
-0.76833 -0.32838 -0.72393 49 46 52
-0.76253 -0.33018 -0.72662 49 49 53
-0.75636 -0.33261 -0.72246 49 49 53
-0.75011 -0.33519 -0.71655 50 50 54
-0.74416 -0.33723 -0.71668 54 52 58
-0.74030 -0.34586 -0.71516 65 64 62
-0.70781 -0.35068 -0.70383 61 59 67
-0.70161 -0.35341 -0.69573 65 63 70
-0.69339 -0.34925 -0.69324 62 61 67
-0.69777 -0.36200 -0.69421 73 73 80
-0.58461 -0.39154 -0.72469 49 47 54
-0.57847 -0.39401 -0.71977 39 36 44
-0.55290 -0.40253 -0.72364 18 16 44
-0.56145 -0.40685 -0.72622 20 17 26
-0.54631 -0.40452 -0.72744 30 31 71
-0.54058 -0.40736 -0.71560 41 47 97
-0.53453 -0.40985 -0.71009 53 60 113
-0.52842 -0.41226 -0.70581 61 70 121
-0.52231 -0.41466 -0.70172 67 76 126
-0.51611 -0.41699 -0.69915 68 78 135
-0.50969 -0.41917 -0.69951 69 75 145
-0.50344 -0.42146 -0.69761 64 65 140
-0.49710 -0.42371 -0.69670 58 62 136
-0.48858 -0.41941 -0.69412 39 53 140
-0.49031 -0.42573 -0.70100 52 65 130
-0.48177 -0.42141 -0.69842 46 54 138
-0.48336 -0.42770 -0.70665 58 66 129
-0.47479 -0.42337 -0.70406 47 52 134
-0.47629 -0.42966 -0.71312 64 62 127
-0.46964 -0.43185 -0.71446 76 59 122
-0.46293 -0.43403 -0.71624 97 79 118
-0.45609 -0.43618 -0.71906 132 118 126
-0.45063 -0.43885 -0.70830 184 167 170
-0.43625 -0.44297 -0.71953 251 248 244
-0.43218 -0.45207 -0.71792 254 254 254
0.29015 -0.71660 -0.39650 252 245 226
0.30090 -0.71986 -0.40243 156 99 151
0.30532 -0.72176 -0.39742 193 161 186
0.30893 -0.72346 -0.39108 241 240 243
0.31284 -0.73220 -0.38953 254 254 254
-1.05464 -0.22814 -0.84686 61 59 55
-1.05855 -0.21939 -0.84841 56 56 65
-1.06077 -0.22588 -0.84890 61 55 61
-1.06300 -0.23237 -0.84939 71 63 75
-1.05072 -0.23689 -0.84532 76 74 69
-1.04796 -0.23078 -0.84200 61 61 60
-1.04406 -0.23952 -0.84046 68 69 70
-1.04187 -0.23301 -0.84019 61 60 61
-1.03352 -0.22879 -0.83766 46 41 42
-1.03797 -0.24175 -0.83864 66 67 70
-1.01228 -0.24351 -0.83620 47 45 38
-1.01843 -0.24125 -0.83824 53 49 40
-1.00836 -0.25228 -0.83465 47 45 49
-1.00598 -0.24589 -0.83328 46 42 41
-1.00206 -0.25465 -0.83173 45 42 54
-0.99997 -0.24805 -0.83208 47 43 43
-0.99605 -0.25681 -0.83053 41 43 58
-0.99294 -0.25099 -0.82466 46 47 47
-0.89204 -0.28973 -0.76873 49 47 48
-0.90030 -0.29390 -0.77123 43 43 50
-0.89424 -0.29613 -0.76922 48 49 54
-0.88818 -0.29837 -0.76720 55 57 59
-0.88627 -0.29168 -0.76925 55 56 57
-0.88240 -0.30034 -0.76772 59 60 68
-0.77032 -0.33508 -0.72106 59 56 61
-0.76647 -0.34369 -0.71953 67 64 66
-0.76464 -0.33673 -0.72546 58 57 61
-0.76078 -0.34537 -0.72394 65 65 65
-0.75851 -0.33909 -0.72209 58 57 58
-0.75223 -0.34170 -0.71565 58 59 60
-0.74629 -0.34374 -0.71583 63 61 61
-0.74243 -0.35236 -0.71430 70 72 66
-0.71562 -0.35596 -0.69245 64 65 73
-0.72381 -0.36009 -0.69492 70 69 77
-0.71780 -0.36231 -0.69293 70 72 78
-0.71179 -0.36452 -0.69093 73 74 81
-0.70978 -0.35769 -0.69651 68 66 77
-0.70594 -0.36628 -0.69499 77 76 83
-0.70370 -0.36008 -0.69238 72 71 79
-0.69987 -0.36866 -0.69086 77 76 80
-0.59288 -0.39539 -0.73484 58 56 64
-0.59688 -0.38646 -0.73642 62 59 66
-0.59915 -0.39308 -0.73692 65 61 70
-0.60143 -0.39971 -0.73742 66 63 72
-0.58677 -0.39797 -0.72818 48 46 55
-0.58035 -0.40002 -0.73060 36 35 43
-0.55490 -0.40887 -0.72961 24 18 45
-0.56348 -0.41320 -0.73221 26 21 25
-0.54883 -0.41140 -0.72353 40 36 71
-0.54302 -0.41412 -0.71314 50 50 97
-0.53676 -0.41642 -0.71114 61 63 119
-0.53038 -0.41863 -0.71105 72 73 126
-0.52440 -0.42114 -0.70476 80 80 129
-0.51823 -0.42348 -0.70168 84 85 130
-0.51208 -0.42584 -0.69832 88 88 135
-0.50606 -0.42826 -0.69336 91 91 132
-0.49996 -0.43062 -0.68973 93 93 127
-0.48622 -0.43462 -0.70052 114 112 117
-0.48008 -0.43699 -0.69695 131 120 126
-0.47126 -0.43827 -0.72231 158 134 132
-0.46544 -0.44081 -0.71465 195 172 142
-0.45864 -0.44298 -0.71715 228 216 173
-0.45190 -0.44520 -0.71872 247 243 221
-0.44785 -0.45427 -0.71711 254 254 253
-0.44531 -0.44748 -0.71871 253 252 247
-0.44125 -0.45656 -0.71711 254 254 254
0.27974 -0.72036 -0.39539 254 254 251
0.27584 -0.71165 -0.39693 254 254 254
0.27362 -0.71811 -0.39742 254 254 254
0.27141 -0.72456 -0.39791 254 254 254
0.29196 -0.72398 -0.40401 233 199 194
0.29767 -0.72615 -0.40121 161 105 96
0.30076 -0.72772 -0.39391 210 212 208
0.30580 -0.72973 -0.39001 248 250 250
0.30970 -0.73846 -0.38847 254 254 254
0.58776 -0.83874 -0.22271 254 254 254
0.58401 -0.83035 -0.22419 254 254 254
0.58187 -0.83657 -0.22466 254 254 254
0.58990 -0.83252 -0.22224 254 254 254
0.59579 -0.83469 -0.22028 254 254 254
0.59382 -0.84096 -0.22095 254 254 254
0.60185 -0.83690 -0.21852 254 254 254
0.60032 -0.84329 -0.21970 254 254 254
0.60836 -0.83923 -0.21727 254 254 254
0.60578 -0.84535 -0.21724 254 254 254
0.61382 -0.84129 -0.21481 254 254 254
0.61193 -0.84759 -0.21558 253 254 254
0.61996 -0.84353 -0.21315 254 254 254
0.61958 -0.85022 -0.21563 253 254 254
0.62762 -0.84616 -0.21319 254 254 254
0.62501 -0.85227 -0.21313 253 254 254
0.63305 -0.84821 -0.21070 254 254 254
0.63024 -0.85427 -0.21041 252 254 254
0.63827 -0.85021 -0.20798 254 254 254
0.63535 -0.85623 -0.20757 251 253 254
0.64338 -0.85217 -0.20514 254 254 254
0.64039 -0.85817 -0.20465 251 253 254
0.64841 -0.85412 -0.20222 254 254 254
0.64547 -0.86013 -0.20179 250 253 254
0.65349 -0.85608 -0.19937 254 254 254
0.65046 -0.86206 -0.19885 249 253 253
0.65848 -0.85801 -0.19643 254 254 254
0.65596 -0.86412 -0.19648 249 253 252
0.66398 -0.86007 -0.19405 254 254 254
0.66135 -0.86615 -0.19398 248 253 251
0.66936 -0.86211 -0.19156 254 254 254
0.66626 -0.86806 -0.19098 248 252 249
0.67426 -0.86402 -0.18856 254 254 254
0.67109 -0.86994 -0.18790 247 252 248
0.67909 -0.86590 -0.18548 254 254 254
0.67601 -0.87185 -0.18493 247 252 248
0.68400 -0.86781 -0.18251 254 254 254
0.67973 -0.87343 -0.18069 247 252 249
0.68771 -0.86940 -0.17828 254 254 254
0.68361 -0.87505 -0.17664 246 251 250
0.69157 -0.87102 -0.17423 254 254 254
0.68750 -0.87667 -0.17263 246 250 250
0.69545 -0.87265 -0.17022 254 254 254
0.69140 -0.87829 -0.16866 245 249 248
0.69934 -0.87428 -0.16625 254 254 254
0.69652 -0.88025 -0.16598 245 248 248
0.70446 -0.87624 -0.16358 254 254 254
0.70241 -0.88241 -0.16412 244 247 247
0.71036 -0.87840 -0.16171 254 254 254
0.70908 -0.88479 -0.16305 244 245 246
0.71703 -0.88078 -0.16064 254 254 254
0.71562 -0.88713 -0.16184 243 245 244
0.72357 -0.88312 -0.15944 254 254 254
0.72628 -0.89061 -0.16483 242 243 243
0.73426 -0.88658 -0.16242 254 254 254
0.75323 -0.89911 -0.17633 243 242 245
0.76129 -0.89504 -0.17389 254 254 254
-1.01901 -0.24894 -0.82933 56 57 48
-1.02513 -0.24668 -0.83136 60 62 61
-1.02123 -0.25541 -0.82982 37 43 34
-1.01368 -0.25061 -0.83190 48 51 43
-0.98895 -0.25979 -0.82262 39 43 55
-0.98059 -0.25557 -0.82009 49 51 50
-0.98282 -0.26205 -0.82058 42 44 49
-0.96905 -0.26774 -0.80672 41 42 59
-0.97294 -0.25904 -0.80826 51 50 57
-0.97516 -0.26549 -0.80875 44 44 57
-0.96684 -0.26129 -0.80623 48 47 58
-0.96074 -0.26354 -0.80421 47 46 54
-0.96284 -0.27007 -0.80398 40 43 53
-0.95453 -0.26587 -0.80146 48 47 54
-0.95629 -0.27268 -0.79890 43 45 54
-0.94799 -0.26848 -0.79639 48 48 55
-0.95020 -0.27492 -0.79687 46 46 54
-0.79074 -0.33465 -0.72900 55 52 58
-0.79678 -0.33243 -0.73100 54 53 55
-0.79898 -0.33881 -0.73149 57 55 61
-0.78452 -0.33711 -0.72443 61 59 62
-0.78068 -0.34571 -0.72291 75 72 73
-0.77820 -0.33974 -0.71784 68 64 67
-0.77436 -0.34832 -0.71632 74 70 69
-0.75413 -0.34856 -0.71048 65 66 66
-0.76235 -0.35271 -0.71296 68 70 71
-0.75632 -0.35493 -0.71096 70 71 72
-0.75029 -0.35715 -0.70896 71 75 72
-0.74827 -0.35051 -0.71174 69 70 66
-0.74442 -0.35911 -0.71022 72 76 73
-0.59515 -0.40200 -0.73565 57 56 64
-0.57644 -0.40907 -0.72676 29 23 33
-0.57245 -0.41799 -0.72518 27 24 28
-0.55716 -0.41550 -0.73063 28 20 45
-0.56574 -0.41983 -0.73323 31 25 30
-0.55119 -0.41811 -0.72243 56 48 63
-0.54579 -0.42115 -0.70470 73 66 105
-0.53923 -0.42318 -0.70831 83 76 125
-0.53257 -0.42519 -0.71292 94 87 129
-0.52624 -0.42745 -0.71180 104 95 131
-0.52021 -0.42991 -0.70624 111 104 128
-0.51411 -0.43230 -0.70208 119 114 132
-0.50849 -0.43493 -0.69159 130 121 135
-0.50132 -0.43676 -0.70156 143 132 133
-0.49490 -0.43899 -0.70148 163 147 126
-0.48872 -0.44134 -0.69841 184 165 129
-0.48175 -0.44337 -0.70424 205 186 151
-0.47430 -0.44526 -0.71474 228 210 166
-0.46769 -0.44749 -0.71567 247 234 191
-0.46084 -0.44967 -0.71865 253 250 227
-0.45679 -0.45872 -0.71705 254 254 254
-0.45422 -0.45193 -0.71913 254 254 248
-0.45017 -0.46100 -0.71752 254 254 254
0.27514 -0.72627 -0.39168 254 248 240
0.28356 -0.72905 -0.39372 172 107 170
0.29134 -0.73169 -0.39458 170 134 119
0.29343 -0.73301 -0.38562 227 235 228
0.30020 -0.73541 -0.38474 251 254 253
0.43077 -0.78466 -0.32403 254 254 254
0.42692 -0.77604 -0.32555 254 254 254
0.42473 -0.78243 -0.32604 254 254 254
0.43297 -0.77827 -0.32355 254 254 254
0.43901 -0.78050 -0.32154 254 254 254
0.43912 -0.78747 -0.32533 254 254 254
0.44738 -0.78330 -0.32283 254 254 254
0.44567 -0.78982 -0.32401 254 254 254
0.45393 -0.78565 -0.32151 254 254 254
0.45194 -0.79211 -0.32230 254 254 254
0.46021 -0.78794 -0.31980 254 254 254
0.45791 -0.79432 -0.32015 254 254 254
0.46617 -0.79015 -0.31765 254 254 254
0.46131 -0.79588 -0.31441 254 254 254
0.46955 -0.79171 -0.31192 254 254 254
0.46704 -0.79802 -0.31196 254 254 254
0.47528 -0.79386 -0.30947 254 254 254
0.47504 -0.80075 -0.31265 253 254 254
0.48330 -0.79658 -0.31015 254 254 254
0.48307 -0.80349 -0.31334 252 254 254
0.49134 -0.79931 -0.31084 254 254 254
0.48997 -0.80594 -0.31246 252 253 254
0.49824 -0.80176 -0.30995 254 254 254
0.49807 -0.80870 -0.31319 251 253 254
0.50636 -0.80451 -0.31068 254 254 254
0.50376 -0.81084 -0.31063 250 253 254
0.51204 -0.80665 -0.30813 254 254 254
0.50957 -0.81301 -0.30826 250 253 254
0.51786 -0.80882 -0.30575 254 254 254
0.51732 -0.81568 -0.30846 249 253 254
0.52562 -0.81149 -0.30595 254 254 254
0.52330 -0.81790 -0.30629 248 253 254
0.53160 -0.81371 -0.30378 254 254 254
0.53065 -0.82047 -0.30592 247 253 253
0.53895 -0.81627 -0.30340 254 254 254
0.53753 -0.82292 -0.30492 247 252 252
0.54584 -0.81872 -0.30241 254 254 254
0.54223 -0.82480 -0.30109 247 252 251
0.55053 -0.82061 -0.29858 254 254 254
0.54526 -0.82624 -0.29513 246 252 250
0.55354 -0.82206 -0.29263 254 254 254
0.55078 -0.82833 -0.29241 245 252 248
0.55906 -0.82416 -0.28991 254 254 254
0.55421 -0.82987 -0.28704 245 252 247
0.56246 -0.82570 -0.28454 254 254 254
0.55848 -0.83164 -0.28278 244 251 247
0.56673 -0.82747 -0.28028 254 254 254
0.56365 -0.83363 -0.27966 243 250 248
0.57189 -0.82947 -0.27717 254 254 254
0.56912 -0.83571 -0.27694 242 249 247
0.57735 -0.83155 -0.27445 254 254 254
0.57162 -0.83700 -0.27056 241 247 244
0.57983 -0.83285 -0.26807 254 254 254
0.57466 -0.83842 -0.26488 241 245 243
0.58285 -0.83428 -0.26240 254 254 254
0.57623 -0.83945 -0.25746 240 244 242
0.58439 -0.83533 -0.25499 254 254 254
0.57652 -0.84014 -0.24855 239 242 241
0.58464 -0.83604 -0.24609 254 254 254
0.57759 -0.84103 -0.24068 238 240 242
0.58568 -0.83695 -0.23823 254 254 254
0.57992 -0.84226 -0.23438 238 238 242
0.58199 -0.84340 -0.22782 239 238 240
0.58563 -0.84497 -0.22318 238 237 239
0.59169 -0.84719 -0.22142 238 235 239
0.59818 -0.84952 -0.22017 238 233 239
0.60365 -0.85158 -0.21771 237 232 237
0.60952 -0.85374 -0.21573 234 229 236
0.61655 -0.85622 -0.21509 232 226 236
0.61947 -0.85759 -0.20972 230 224 235
0.62495 -0.85964 -0.20730 227 221 233
0.63082 -0.86181 -0.20534 223 218 230
0.63674 -0.86398 -0.20342 221 215 227
0.64302 -0.86626 -0.20191 218 212 227
0.64827 -0.86826 -0.19926 217 213 227
0.65361 -0.87027 -0.19671 214 211 223
0.65902 -0.87231 -0.19424 211 210 218
0.66444 -0.87435 -0.19179 209 206 213
0.66930 -0.87624 -0.18873 206 205 210
0.67396 -0.87807 -0.18548 204 204 207
0.67862 -0.87989 -0.18224 201 202 208
0.68239 -0.88148 -0.17808 197 198 209
0.68618 -0.88306 -0.17395 195 194 204
0.69013 -0.88469 -0.17001 192 189 197
0.69526 -0.88664 -0.16734 189 186 194
0.70038 -0.88859 -0.16466 190 187 195
0.70704 -0.89097 -0.16360 187 182 192
0.71475 -0.89365 -0.16359 184 182 187
0.72542 -0.89714 -0.16659 182 176 180
0.73877 -0.90140 -0.17227 178 170 185
0.75242 -0.90574 -0.17816 178 169 184
-1.04463 -0.24712 -0.83218 62 69 64
-1.05074 -0.24487 -0.83420 75 78 68
-1.04074 -0.25582 -0.83064 37 46 37
-1.03935 -0.24881 -0.83459 59 65 61
-1.03101 -0.24460 -0.83207 61 65 71
-1.03323 -0.25106 -0.83256 52 61 58
-1.02740 -0.25312 -0.83213 44 51 46
-1.01406 -0.25840 -0.82180 31 35 28
-1.00763 -0.26087 -0.81788 26 29 34
-1.00153 -0.26312 -0.81585 23 25 40
-0.99539 -0.26540 -0.81356 22 22 43
-0.99150 -0.27409 -0.81202 8 6 17
-0.98912 -0.26777 -0.81048 21 20 39
-0.98524 -0.27646 -0.80895 9 7 13
-0.98225 -0.27059 -0.80359 22 22 33
-0.97837 -0.27926 -0.80206 9 8 13
-0.97604 -0.27293 -0.80074 23 23 37
-0.96967 -0.27539 -0.79686 24 24 41
-0.96308 -0.27802 -0.79142 26 28 37
-0.95768 -0.27974 -0.79391 30 33 36
-0.95127 -0.28224 -0.78959 32 35 39
-0.94300 -0.27806 -0.78708 44 45 53
-0.94472 -0.28485 -0.78420 33 34 40
-0.93646 -0.28068 -0.78170 45 43 55
-0.93830 -0.28737 -0.77959 33 32 44
-0.93005 -0.28320 -0.77710 47 43 51
-0.93242 -0.28946 -0.77884 33 31 45
-0.92417 -0.28529 -0.77635 44 44 49
-0.92548 -0.29241 -0.77022 32 33 45
-0.91725 -0.28826 -0.76774 43 43 51
-0.91329 -0.29696 -0.76528 31 34 47
-0.90507 -0.29281 -0.76280 42 42 48
-0.90801 -0.29854 -0.76928 31 33 45
-0.90234 -0.30045 -0.77038 34 36 49
-0.89636 -0.30261 -0.76905 44 46 57
-0.89030 -0.30484 -0.76703 53 56 61
-0.79240 -0.34169 -0.72196 60 55 65
-0.80061 -0.34584 -0.72444 58 57 66
-0.78857 -0.35027 -0.72045 71 71 69
-0.78622 -0.34411 -0.71762 69 67 68
-0.78239 -0.35268 -0.71610 75 74 75
-0.59746 -0.40870 -0.73476 55 53 62
-0.59119 -0.41100 -0.73283 43 40 52
-0.58720 -0.41993 -0.73125 34 28 40
-0.55939 -0.42210 -0.73225 29 24 40
-0.56797 -0.42643 -0.73484 38 28 32
-0.54749 -0.42728 -0.71540 107 96 116
-0.54063 -0.42915 -0.72364 118 104 121
-0.53432 -0.43146 -0.72195 128 115 126
-0.52843 -0.43402 -0.71355 138 124 130
-0.52198 -0.43623 -0.71423 147 133 136
-0.51606 -0.43874 -0.70698 158 143 141
-0.51006 -0.44117 -0.70134 167 151 150
-0.50310 -0.44315 -0.70848 183 164 151
-0.49688 -0.44549 -0.70554 200 179 149
-0.49077 -0.44787 -0.70151 219 196 167
-0.48413 -0.45005 -0.70365 235 216 192
-0.47717 -0.45214 -0.70902 248 235 211
-0.47024 -0.45427 -0.71347 253 249 234
-0.46620 -0.46329 -0.71188 254 254 254
-0.46340 -0.45645 -0.71659 254 253 250
-0.45935 -0.46550 -0.71499 254 254 254
0.26784 -0.73070 -0.39599 254 254 254
0.26395 -0.72200 -0.39753 254 254 254
0.26173 -0.72845 -0.39802 254 254 254
0.27247 -0.73260 -0.39137 248 232 222
0.27897 -0.73494 -0.39005 119 75 139
0.28891 -0.73811 -0.39472 186 179 189
0.29045 -0.73926 -0.38477 245 246 246
0.29698 -0.74161 -0.38351 254 254 254
0.30317 -0.74388 -0.38163 254 254 254
0.31147 -0.73969 -0.37912 254 254 254
0.31073 -0.74649 -0.38209 254 254 254
0.31905 -0.74228 -0.37957 254 254 254
0.31726 -0.74884 -0.38077 253 254 254
0.32558 -0.74463 -0.37825 254 254 254
0.32294 -0.75098 -0.37803 252 254 254
0.33126 -0.74678 -0.37551 254 254 254
0.32958 -0.75336 -0.37688 251 253 254
0.33790 -0.74916 -0.37437 254 254 254
0.33901 -0.75718 -0.36831 249 253 254
0.34731 -0.75299 -0.36580 254 254 254
0.34138 -0.75850 -0.36028 249 253 254
0.34965 -0.75432 -0.35778 254 254 254
0.34707 -0.76064 -0.35766 248 253 254
0.35533 -0.75647 -0.35516 254 254 254
0.35084 -0.76230 -0.35200 247 252 254
0.35909 -0.75814 -0.34950 254 254 254
0.35404 -0.76382 -0.34550 246 252 254
0.36227 -0.75967 -0.34301 254 254 254
0.36084 -0.76624 -0.34468 246 252 253
0.36907 -0.76208 -0.34219 254 254 254
0.37049 -0.76937 -0.34829 245 252 252
0.37875 -0.76520 -0.34580 254 254 254
0.37953 -0.77235 -0.35088 244 252 250
0.38781 -0.76817 -0.34837 254 254 254
0.38320 -0.77398 -0.34516 243 251 249
0.39146 -0.76981 -0.34266 254 254 254
0.38817 -0.77594 -0.34149 242 251 247
0.39642 -0.77177 -0.33899 254 254 254
0.39312 -0.77789 -0.33780 241 250 247
0.40137 -0.77373 -0.33531 254 254 254
0.39630 -0.77939 -0.33149 240 250 247
0.40453 -0.77524 -0.32900 254 254 254
0.39917 -0.78081 -0.32476 240 248 246
0.40737 -0.77666 -0.32228 254 254 254
0.40534 -0.78306 -0.32299 239 246 245
0.41354 -0.77892 -0.32051 254 254 254
0.41175 -0.78538 -0.32157 239 244 243
0.41990 -0.78814 -0.32268 238 242 241
0.43786 -0.79411 -0.32716 236 236 239
0.44415 -0.79641 -0.32548 236 235 239
0.44990 -0.79856 -0.32301 235 233 239
0.45523 -0.80060 -0.31996 237 233 238
0.45845 -0.80209 -0.31396 237 231 235
0.46152 -0.80354 -0.30782 235 229 233
0.46961 -0.80631 -0.30867 233 226 232
0.47338 -0.80794 -0.30355 230 223 232
0.47854 -0.80993 -0.30035 227 220 230
0.48347 -0.81186 -0.29688 224 216 230
0.49714 -0.81610 -0.30519 221 213 229
0.49924 -0.81728 -0.29787 218 210 227
0.51324 -0.82162 -0.30645 215 208 225
0.51957 -0.82454 -0.29477 208 204 219
0.52857 -0.82756 -0.29661 204 200 215
0.57371 -0.84211 -0.31509 193 190 193
0.57764 -0.85090 -0.31354 110 75 97
0.58000 -0.84442 -0.31320 189 188 191
0.58537 -0.84647 -0.31015 185 184 192
0.58930 -0.85526 -0.30860 100 70 93
0.58495 -0.84697 -0.29989 184 186 193
0.58886 -0.85571 -0.29835 95 66 87
0.56981 -0.84463 -0.25275 176 172 178
0.57362 -0.85314 -0.25125 87 60 78
0.56689 -0.84441 -0.23996 172 167 176
0.57067 -0.85286 -0.23846 82 63 73
0.56806 -0.84530 -0.23224 168 164 175
0.57434 -0.84757 -0.23073 165 160 173
0.58056 -0.84983 -0.22914 162 155 168
0.58298 -0.85105 -0.22304 159 152 164
0.58709 -0.85274 -0.21900 158 149 164
0.59245 -0.85476 -0.21643 157 144 162
0.59845 -0.85696 -0.21463 156 141 157
0.60409 -0.85906 -0.21239 153 134 155
0.61121 -0.86157 -0.21187 154 132 160
0.61712 -0.86374 -0.20995 152 130 158
0.62316 -0.86596 -0.20817 147 125 153
0.62864 -0.86801 -0.20576 144 117 146
0.63470 -0.87023 -0.20400 141 111 140
0.64089 -0.87248 -0.20239 137 104 139
0.64768 -0.87490 -0.20144 134 99 139
0.65290 -0.87688 -0.19874 132 97 134
0.65817 -0.87888 -0.19612 128 95 129
0.66333 -0.88085 -0.19338 124 87 123
0.66825 -0.88274 -0.19038 122 85 121
0.67145 -0.88416 -0.18555 122 84 119
0.67615 -0.88599 -0.18235 118 79 118
0.68478 -0.88893 -0.18335 114 76 116
0.68852 -0.89729 -0.18187 84 70 71
0.68938 -0.89073 -0.18006 111 72 105
0.69312 -0.89909 -0.17858 84 67 71
0.68913 -0.89117 -0.17166 107 69 94
0.69285 -0.89949 -0.17019 86 68 68
0.69398 -0.89304 -0.16869 103 67 92
0.69770 -0.90136 -0.16722 87 70 66
0.69911 -0.89499 -0.16602 99 64 90
0.70283 -0.90330 -0.16455 87 70 63
0.70501 -0.89716 -0.16414 94 61 88
0.70872 -0.90547 -0.16267 86 72 63
0.71271 -0.89984 -0.16414 91 60 86
0.71643 -0.90816 -0.16267 88 75 62
0.72337 -0.90336 -0.16713 88 64 76
0.72710 -0.91171 -0.16566 90 78 60
0.73670 -0.90764 -0.17281 83 69 71
0.74046 -0.91604 -0.17133 89 78 62
0.75033 -0.91202 -0.17869 82 63 77
0.75410 -0.92046 -0.17720 89 79 60
-1.05348 -0.25097 -0.83747 52 55 58
-1.05738 -0.24226 -0.83901 81 82 79
-1.05570 -0.25743 -0.83796 28 29 35
-1.04959 -0.25968 -0.83593 20 18 31
-1.04690 -0.25353 -0.83295 44 53 48
-1.04301 -0.26224 -0.83141 14 10 24
-1.03409 -0.25843 -0.82562 29 30 36
-1.03020 -0.26712 -0.82409 7 6 17
-1.02723 -0.26119 -0.81940 20 16 33
-1.02336 -0.26986 -0.81786 7 7 14
-1.01938 -0.26463 -0.80741 14 9 24
-1.01552 -0.27326 -0.80588 7 6 11
-1.01395 -0.26643 -0.80899 11 8 17
-1.01009 -0.27508 -0.80747 6 5 9
-1.00772 -0.26878 -0.80600 8 8 17
-1.00385 -0.27742 -0.80448 6 5 9
-1.00177 -0.27094 -0.80469 7 7 18
-0.99791 -0.27958 -0.80316 6 6 10
-0.99599 -0.27297 -0.80437 7 6 19
-0.99212 -0.28162 -0.80284 6 6 8
-0.97108 -0.28238 -0.79222 9 8 18
-0.97933 -0.28655 -0.79472 7 5 7
-0.97327 -0.28878 -0.79270 6 4 10
-0.96722 -0.29101 -0.79069 7 4 11
-0.95888 -0.28690 -0.78768 15 7 22
-0.95502 -0.29553 -0.78616 8 4 12
-0.95255 -0.28933 -0.78381 15 9 23
-0.94870 -0.29796 -0.78228 9 5 12
-0.94599 -0.29195 -0.77826 16 12 24
-0.94214 -0.30056 -0.77674 10 5 13
-0.93983 -0.29427 -0.77538 17 13 26
-0.93598 -0.30287 -0.77386 10 5 13
-0.93411 -0.29625 -0.77564 16 12 26
-0.93025 -0.30486 -0.77411 9 5 15
-0.92724 -0.29912 -0.76759 14 13 27
-0.92340 -0.30770 -0.76607 7 5 15
-0.92168 -0.30097 -0.76905 14 14 27
-0.91783 -0.30958 -0.76753 7 5 15
-0.91606 -0.30286 -0.77027 14 14 27
-0.91107 -0.30424 -0.77659 16 15 29
-0.90433 -0.30702 -0.76922 23 21 39
-0.89237 -0.31136 -0.76644 50 53 61
-0.88411 -0.30719 -0.76394 57 59 70
-0.88631 -0.31359 -0.76443 56 58 71
-0.56171 -0.42879 -0.73189 34 34 35
-0.54327 -0.43604 -0.71788 148 132 117
-0.53692 -0.43830 -0.71717 157 141 128
-0.53045 -0.44050 -0.71806 165 150 137
-0.52445 -0.44297 -0.71182 174 158 149
-0.51820 -0.44529 -0.70938 183 167 157
-0.51233 -0.44778 -0.70181 194 175 164
-0.50638 -0.45020 -0.69589 208 187 165
-0.49977 -0.45236 -0.69844 221 203 177
-0.49299 -0.45448 -0.70270 236 216 196
-0.48598 -0.45655 -0.70909 246 233 217
-0.47948 -0.45881 -0.70926 252 248 236
-0.47546 -0.46780 -0.70767 254 254 254
-0.47286 -0.46105 -0.71046 254 253 250
-0.46883 -0.47006 -0.70887 254 254 254
0.12467 -0.68349 -0.47282 254 254 254
0.12072 -0.67466 -0.47438 254 254 254
0.11847 -0.68121 -0.47488 254 254 254
0.12692 -0.67695 -0.47233 254 254 254
0.13312 -0.67923 -0.47027 254 254 254
0.13119 -0.68585 -0.47147 254 254 254
0.13964 -0.68158 -0.46891 254 254 254
0.13732 -0.68812 -0.46926 254 254 254
0.14577 -0.68385 -0.46670 254 254 254
0.14322 -0.69033 -0.46655 254 254 254
0.15166 -0.68607 -0.46400 254 254 254
0.14881 -0.69248 -0.46323 254 254 254
0.15725 -0.68822 -0.46067 254 254 254
0.15464 -0.69468 -0.46040 253 254 254
0.16308 -0.69042 -0.45785 254 254 254
0.15707 -0.69611 -0.45048 253 254 254
0.16546 -0.69187 -0.44795 254 254 254
0.16303 -0.69833 -0.44804 252 254 254
0.17143 -0.69409 -0.44550 254 254 254
0.16992 -0.70077 -0.44749 251 254 254
0.17832 -0.69653 -0.44495 254 254 254
0.17721 -0.70330 -0.44772 250 253 254
0.18562 -0.69905 -0.44518 254 254 254
0.18583 -0.70614 -0.45062 249 253 254
0.19427 -0.70188 -0.44807 254 254 254
0.19223 -0.70847 -0.44899 247 253 254
0.20067 -0.70421 -0.44643 254 254 254
0.19651 -0.71030 -0.44314 247 252 254
0.20493 -0.70605 -0.44059 254 254 254
0.20189 -0.71239 -0.43952 246 252 254
0.21031 -0.70815 -0.43698 254 254 254
0.20607 -0.71420 -0.43359 245 252 254
0.21447 -0.70996 -0.43105 254 254 254
0.21041 -0.71604 -0.42801 245 252 254
0.21878 -0.71181 -0.42548 254 254 254
0.21513 -0.71796 -0.42325 245 252 254
0.22349 -0.71374 -0.42072 254 254 254
0.22095 -0.72015 -0.42060 244 252 254
0.22930 -0.71593 -0.41807 254 254 254
0.22580 -0.72210 -0.41615 243 251 254
0.23415 -0.71789 -0.41363 254 254 254
0.23035 -0.72398 -0.41117 243 251 254
0.23868 -0.71978 -0.40865 254 254 254
0.23586 -0.72609 -0.40802 242 251 252
0.24418 -0.72188 -0.40550 254 254 254
0.24277 -0.72853 -0.40746 241 251 249
0.25110 -0.72432 -0.40494 254 254 254
0.24842 -0.73067 -0.40459 240 250 250
0.25675 -0.72647 -0.40207 254 254 254
0.25298 -0.73255 -0.39975 239 249 249
0.25967 -0.73494 -0.39878 239 247 248
0.26528 -0.73707 -0.39587 239 243 236
0.27318 -0.73976 -0.39702 207 188 175
0.27827 -0.74176 -0.39319 128 117 105
0.27866 -0.74259 -0.38120 187 213 216
0.28791 -0.74562 -0.38470 230 233 242
0.29410 -0.74789 -0.38284 235 230 241
0.29973 -0.75002 -0.38004 235 229 240
0.30643 -0.75241 -0.37905 234 227 237
0.30514 -0.75280 -0.36464 232 225 234
0.31564 -0.75615 -0.37005 229 222 231
0.32521 -0.75927 -0.37381 224 216 231
0.33729 -0.76304 -0.38162 221 212 230
0.34173 -0.76486 -0.37682 217 207 228
0.34870 -0.76733 -0.37615 213 204 224
0.34980 -0.76831 -0.36606 210 202 220
0.35025 -0.76911 -0.35505 206 199 217
0.34999 -0.76972 -0.34304 204 197 214
0.35737 -0.77229 -0.34316 201 195 211
0.36225 -0.77421 -0.33936 198 194 207
0.37119 -0.77719 -0.34187 194 191 202
0.37712 -0.77938 -0.33969 190 189 194
0.38297 -0.78156 -0.33740 187 189 187
0.39178 -0.78580 -0.31747 176 179 185
0.39579 -0.78749 -0.31255 173 176 180
0.40801 -0.79133 -0.31976 170 174 172
0.41625 -0.79413 -0.32103 168 168 166
0.42368 -0.79673 -0.32107 161 161 162
0.44118 -0.80385 -0.30369 156 147 164
0.45430 -0.80796 -0.31171 156 142 155
0.46745 -0.81209 -0.31962 155 137 149
0.48539 -0.81751 -0.33405 152 131 150
0.50299 -0.82285 -0.34779 149 127 150
0.50790 -0.82478 -0.34397 146 124 147
0.51185 -0.82646 -0.33887 143 117 146
0.51547 -0.82804 -0.33337 140 111 144
0.51998 -0.82987 -0.32910 140 109 144
0.52507 -0.83185 -0.32564 137 106 140
0.53085 -0.83401 -0.32310 133 102 135
0.53477 -0.84278 -0.32155 81 70 67
0.53755 -0.83643 -0.32178 129 100 131
0.54360 -0.83867 -0.31961 126 92 126
0.57706 -0.84840 -0.35301 123 86 120
0.58367 -0.85080 -0.35132 122 83 114
0.58768 -0.85977 -0.34974 87 70 68
0.60485 -0.85897 -0.33795 105 73 97
0.59630 -0.86329 -0.34053 88 73 67
0.60257 -0.86560 -0.33845 87 75 67
0.60885 -0.86791 -0.33637 87 75 63
0.56881 -0.85287 -0.22712 77 63 70
0.56078 -0.85692 -0.22955 91 78 62
0.56667 -0.85909 -0.22760 91 79 61
0.57256 -0.86126 -0.22564 90 79 60
0.57583 -0.85535 -0.22653 73 58 69
0.58220 -0.85766 -0.22513 69 57 67
0.58595 -0.86606 -0.22364 93 79 51
0.58849 -0.85994 -0.22364 69 59 64
0.59412 -0.86204 -0.22137 69 59 60
0.59910 -0.86395 -0.21834 70 56 55
0.60416 -0.86589 -0.21542 69 55 58
0.60904 -0.86778 -0.21230 69 55 62
0.61460 -0.86985 -0.20997 70 57 65
0.61834 -0.87823 -0.20849 93 79 55
0.62049 -0.87202 -0.20803 69 62 65
0.62424 -0.88040 -0.20654 94 78 54
0.62633 -0.87418 -0.20603 71 58 66
0.63008 -0.88256 -0.20455 93 79 57
0.63213 -0.87632 -0.20399 73 57 64
0.63918 -0.87882 -0.20334 72 57 66
0.64293 -0.88721 -0.20186 91 79 67
0.64582 -0.88120 -0.20222 73 58 73
0.64957 -0.88960 -0.20073 90 79 61
0.65903 -0.88595 -0.19988 76 64 66
0.66279 -0.89435 -0.19840 92 81 62
0.66432 -0.88795 -0.19727 76 66 63
0.66808 -0.89635 -0.19578 92 81 62
0.67390 -0.89117 -0.19931 78 69 67
0.67767 -0.89960 -0.19782 92 80 64
0.67501 -0.89198 -0.19216 79 67 68
0.67876 -0.90037 -0.19067 90 78 62
0.67799 -0.89331 -0.18707 81 66 68
0.68173 -0.90169 -0.18559 91 79 65
0.68281 -0.89518 -0.18400 83 68 69
0.68656 -0.90355 -0.18252 92 80 66
-1.06016 -0.25622 -0.83152 32 38 41
-1.06404 -0.24754 -0.83305 58 67 69
-1.06625 -0.25398 -0.83354 34 42 45
-1.06846 -0.26041 -0.83403 11 11 25
-1.06237 -0.26265 -0.83201 9 6 22
-0.91261 -0.31117 -0.77191 7 5 18
-0.92086 -0.31533 -0.77440 6 4 8
-0.91480 -0.31756 -0.77239 7 3 10
-0.90628 -0.31361 -0.76770 13 10 30
-0.89440 -0.31789 -0.76552 45 51 59
-0.88781 -0.32056 -0.75894 53 57 70
-0.87958 -0.31640 -0.75645 60 61 69
-0.88177 -0.32279 -0.75693 56 59 68
-0.61501 -0.41842 -0.71677 65 73 71
-0.61895 -0.40960 -0.71833 72 75 79
-0.62120 -0.41614 -0.71882 71 76 76
-0.61725 -0.42497 -0.71726 58 63 68
-0.57064 -0.43345 -0.72623 41 31 37
-0.57464 -0.42451 -0.72781 32 27 28
-0.57691 -0.43114 -0.72832 38 32 31
-0.57918 -0.43776 -0.72882 46 35 40
-0.56453 -0.43588 -0.72082 55 48 44
-0.55743 -0.43755 -0.73588 134 128 90
-0.55152 -0.44015 -0.72610 164 147 131
-0.54539 -0.44257 -0.72117 172 155 140
-0.53930 -0.44499 -0.71578 179 164 143
-0.53283 -0.44720 -0.71695 187 172 147
-0.52662 -0.44954 -0.71391 196 179 157
-0.52064 -0.45199 -0.70744 204 188 166
-0.51481 -0.45447 -0.69942 215 195 170
-0.50840 -0.45671 -0.69952 226 205 174
-0.50194 -0.45894 -0.70012 237 220 196
-0.49480 -0.46096 -0.70891 246 232 215
-0.48830 -0.46322 -0.70920 251 245 236
-0.48429 -0.47220 -0.70761 254 254 253
-0.48189 -0.46551 -0.70832 254 253 249
-0.47788 -0.47450 -0.70673 254 254 254
-0.07594 -0.61697 -0.53893 252 250 252
-0.07989 -0.60814 -0.54049 251 249 251
-0.08213 -0.61469 -0.54099 252 250 252
-0.07369 -0.61043 -0.53843 251 249 251
-0.06749 -0.61271 -0.53638 251 249 251
-0.07001 -0.61921 -0.53605 251 250 252
-0.06157 -0.61494 -0.53350 251 249 251
-0.06449 -0.62136 -0.53196 251 250 252
-0.05606 -0.61710 -0.52942 251 250 251
-0.05750 -0.62379 -0.53232 250 250 252
-0.04906 -0.61953 -0.52976 251 250 251
-0.05080 -0.62617 -0.53175 250 251 252
-0.04235 -0.62190 -0.52919 251 250 251
-0.04389 -0.62859 -0.53176 249 250 252
-0.03543 -0.62432 -0.52920 251 250 251
-0.03833 -0.63075 -0.52785 249 250 252
-0.02988 -0.62649 -0.52529 251 250 251
-0.03214 -0.63303 -0.52574 248 250 252
-0.02369 -0.62877 -0.52319 251 250 251
-0.02530 -0.63544 -0.52548 248 250 252
-0.01685 -0.63117 -0.52292 251 250 251
-0.01958 -0.63763 -0.52208 247 250 252
-0.01113 -0.63337 -0.51952 251 250 251
-0.01367 -0.63986 -0.51922 247 250 252
-0.00522 -0.63560 -0.51667 251 250 251
-0.00749 -0.64214 -0.51711 246 250 252
0.00096 -0.63788 -0.51455 252 250 251
-0.00132 -0.64442 -0.51496 245 250 252
0.00712 -0.64015 -0.51240 252 250 251
0.00436 -0.64660 -0.51153 245 250 253
0.01280 -0.64234 -0.50898 252 250 251
0.01018 -0.64880 -0.50849 245 250 253
0.01862 -0.64454 -0.50594 252 250 251
0.01563 -0.65093 -0.50451 244 250 252
0.02406 -0.64667 -0.50196 252 251 252
0.02096 -0.65303 -0.50024 244 250 252
0.02938 -0.64878 -0.49770 252 251 252
0.02784 -0.65545 -0.49999 243 250 251
0.03626 -0.65120 -0.49745 252 251 252
0.03398 -0.65772 -0.49783 243 250 251
0.04240 -0.65347 -0.49529 252 252 253
0.03839 -0.65962 -0.49134 242 251 251
0.04679 -0.65538 -0.48880 252 252 253
0.04271 -0.66150 -0.48472 242 251 251
0.05109 -0.65727 -0.48219 252 252 253
0.04889 -0.66377 -0.48276 242 250 250
0.05727 -0.65954 -0.48022 252 252 253
0.05350 -0.66570 -0.47696 241 250 250
0.06186 -0.66148 -0.47443 252 252 253
0.06113 -0.66829 -0.47853 240 250 250
0.06951 -0.66406 -0.47600 252 252 253
0.06924 -0.67098 -0.48117 240 249 250
0.07764 -0.66674 -0.47863 253 253 253
0.07736 -0.67369 -0.48374 239 247 248
0.08579 -0.66943 -0.48120 253 253 253
0.08499 -0.67629 -0.48507 239 245 248
0.09343 -0.67202 -0.48252 253 253 253
0.09119 -0.67857 -0.48303 238 244 247
0.09963 -0.67431 -0.48048 253 253 253
0.10542 -0.68355 -0.48310 237 240 243
0.11388 -0.67928 -0.48054 254 254 254
0.11213 -0.68595 -0.48217 237 238 244
0.11767 -0.68809 -0.47860 237 237 244
0.12246 -0.69005 -0.47340 237 234 244
0.12890 -0.69239 -0.47186 237 231 243
0.13819 -0.69623 -0.46107 237 228 240
0.14417 -0.69846 -0.45860 236 226 239
0.15187 -0.70110 -0.45979 234 224 238
0.15186 -0.70192 -0.44475 232 221 237
0.15313 -0.70302 -0.43260 229 218 235
0.15914 -0.70525 -0.43039 226 213 233
0.16080 -0.70644 -0.41929 221 209 231
0.16397 -0.70798 -0.41141 217 207 229
0.18384 -0.71431 -0.42287 209 203 224
0.19070 -0.71674 -0.42234 206 201 222
0.19913 -0.71956 -0.42486 203 200 219
0.21051 -0.72386 -0.41913 193 192 212
0.21544 -0.72582 -0.41483 188 189 210
0.22747 -0.72953 -0.42400 185 188 205
0.23614 -0.73242 -0.42670 183 186 197
0.24220 -0.73467 -0.42443 179 184 191
0.25064 -0.73751 -0.42658 174 182 181
0.25760 -0.73998 -0.42596 170 179 184
0.25993 -0.74129 -0.41689 167 176 184
0.26056 -0.74217 -0.40486 164 175 178
0.26846 -0.74488 -0.40601 162 164 152
