ply
format ascii 1.0
element face 0
property list uchar int vertex_indices
element vertex 1281
property float x
property float y
property float z
property uchar diffuse_red
property uchar diffuse_green
property uchar diffuse_blue
end_header
0.27497 -0.25032 -0.74981 250 234 197
0.27607 -0.25565 -0.73354 197 171 128
0.28041 -0.25961 -0.72436 181 162 150
0.28945 -0.26168 -0.72514 206 192 170
0.29605 -0.26471 -0.72082 237 212 166
0.30373 -0.26731 -0.71874 206 154 158
0.31566 -0.26831 -0.72535 206 161 179
0.33135 -0.26795 -0.73943 237 231 236
0.92557 -0.50349 -0.46994 254 253 229
0.91573 -0.50869 -0.47243 254 254 254
0.92316 -0.51118 -0.47055 254 254 254
0.93059 -0.51366 -0.46867 254 254 254
0.92714 -0.50651 -0.46149 254 253 227
0.93213 -0.51665 -0.46023 254 254 254
0.96579 -0.51564 -0.46388 254 254 254
0.95592 -0.52086 -0.46638 254 254 254
0.96337 -0.52335 -0.46450 254 254 254
0.97081 -0.52584 -0.46261 254 254 254
-1.02676 0.24146 -1.29360 75 75 101
-1.03805 0.23550 -1.29646 75 76 94
-1.02953 0.23265 -1.29430 77 79 97
-1.02102 0.22980 -1.29214 79 79 92
-0.63636 0.02017 -0.89864 82 85 94
-0.62872 0.01843 -0.89935 91 95 105
-0.61871 0.02372 -0.89682 91 89 102
-0.62117 0.01591 -0.89744 91 92 104
-0.62362 0.00809 -0.89806 87 90 104
-0.51247 -0.14315 -0.46979 233 250 254
-0.46562 -0.16580 -0.43513 252 254 254
-0.46978 -0.15737 -0.43618 254 254 254
-0.47178 -0.16374 -0.43669 254 254 254
-0.45892 -0.16681 -0.43743 247 251 251
-0.45237 -0.16815 -0.43854 251 243 242
-0.44312 -0.16461 -0.45781 241 217 203
-0.43678 -0.16655 -0.45680 182 131 140
-0.11092 -0.12150 -0.87619 254 251 249
-0.12139 -0.12704 -0.87885 254 254 254
-0.11348 -0.12968 -0.87685 254 254 253
-0.09530 -0.12695 -0.87148 186 177 208
-0.08966 -0.13150 -0.86137 232 247 252
0.01235 -0.15789 -0.86063 254 250 238
0.00181 -0.16347 -0.86330 254 254 254
0.04731 -0.16651 -0.86177 55 60 71
0.05285 -0.17073 -0.85264 109 119 114
0.06082 -0.17339 -0.85062 119 124 127
0.06977 -0.17545 -0.85140 87 85 87
0.07515 -0.18637 -0.85004 61 64 70
0.07768 -0.17815 -0.84920 64 63 71
0.08565 -0.18082 -0.84719 57 60 77
0.08306 -0.18907 -0.84784 55 64 77
0.15361 -0.18586 -0.88759 46 51 54
0.14545 -0.18313 -0.88965 41 49 53
0.14280 -0.19158 -0.89032 49 51 63
0.15912 -0.19704 -0.88619 52 60 75
0.16199 -0.18847 -0.88606 50 58 69
0.16750 -0.19965 -0.88467 51 59 76
0.21422 -0.23558 -0.77618 49 40 40
0.22312 -0.23773 -0.77662 28 24 63
0.22761 -0.24184 -0.76697 194 225 211
0.23435 -0.24493 -0.76254 252 253 253
0.24961 -0.25031 -0.75774 253 254 254
0.25613 -0.25346 -0.75293 254 252 245
0.26265 -0.25660 -0.74816 252 236 214
0.26936 -0.25964 -0.74384 242 218 187
0.27553 -0.26289 -0.73841 226 191 149
0.28005 -0.26677 -0.72955 212 182 141
0.28749 -0.26947 -0.72695 234 218 191
0.29384 -0.27260 -0.72208 248 231 200
0.29897 -0.27616 -0.71475 205 96 150
0.30580 -0.27907 -0.71097 193 104 163
0.32597 -0.27709 -0.73431 227 212 229
0.33556 -0.27905 -0.73593 250 253 254
0.34084 -0.28975 -0.73460 254 254 254
0.63717 -0.41745 -0.53694 183 184 227
0.62976 -0.41498 -0.53881 215 207 244
0.63958 -0.40978 -0.53633 242 251 254
0.64458 -0.41993 -0.53506 203 207 244
0.64891 -0.42294 -0.52889 226 229 253
0.65132 -0.41528 -0.52828 253 254 254
0.64651 -0.43059 -0.52949 121 125 191
0.65871 -0.41775 -0.52640 254 254 254
0.65631 -0.42541 -0.52701 230 245 254
0.65553 -0.42924 -0.51387 232 249 254
0.65792 -0.42163 -0.51326 254 254 254
0.66527 -0.42409 -0.51140 254 254 254
0.66194 -0.43185 -0.51072 237 251 254
0.67167 -0.42670 -0.50825 254 254 254
0.66511 -0.43498 -0.50318 243 253 254
0.67481 -0.42984 -0.50072 254 254 254
-0.52121 -0.14879 -0.46728 87 111 130
-0.51701 -0.15730 -0.46622 132 162 181
-0.51454 -0.14971 -0.46989 201 236 231
-0.50907 -0.15368 -0.46144 245 252 254
-0.50085 -0.14933 -0.45936 254 254 254
-0.48711 -0.16819 -0.43223 253 254 254
-0.49124 -0.15979 -0.43327 254 254 254
-0.49324 -0.16614 -0.43378 254 254 254
-0.48511 -0.16184 -0.43172 254 254 254
-0.47898 -0.16389 -0.43017 254 254 254
-0.48098 -0.17024 -0.43066 247 254 254
-0.47419 -0.17094 -0.43412 240 248 252
-0.46716 -0.17125 -0.43906 234 228 242
-0.45827 -0.16809 -0.45706 222 217 226
-0.45440 -0.17459 -0.43888 237 239 242
-0.44492 -0.17067 -0.45988 245 238 234
-0.43762 -0.17091 -0.46529 208 187 210
-0.42930 -0.16951 -0.47699 239 252 254
-0.42092 -0.16507 -0.47487 254 254 254
-0.42298 -0.17162 -0.47539 254 254 254
-0.42503 -0.17817 -0.47591 254 254 254
-0.09240 -0.13980 -0.86137 234 231 233
-0.08453 -0.14243 -0.85937 248 254 254
-0.07410 -0.13691 -0.85672 254 254 254
-0.07666 -0.14506 -0.85737 254 254 254
-0.07922 -0.15321 -0.85802 254 254 254
0.04235 -0.17629 -0.85544 58 58 79
0.04991 -0.17920 -0.85224 117 132 117
0.05894 -0.18120 -0.85332 109 112 123
0.06880 -0.18272 -0.85669 75 73 85
0.07419 -0.19366 -0.85532 56 66 64
0.20124 -0.24225 -0.77274 56 54 69
0.19595 -0.23154 -0.77408 50 53 62
0.19341 -0.23964 -0.77472 53 57 70
0.19087 -0.24773 -0.77537 59 63 80
0.20652 -0.25296 -0.77141 49 49 61
0.20961 -0.24462 -0.77204 45 41 54
0.21689 -0.24748 -0.76878 55 43 68
0.22488 -0.25002 -0.76718 204 241 239
0.23181 -0.25302 -0.76318 252 254 254
0.23909 -0.25586 -0.76000 254 254 252
0.24606 -0.25882 -0.75613 233 228 242
0.25150 -0.26240 -0.74895 241 231 222
0.25662 -0.26607 -0.74117 246 230 198
0.26135 -0.26988 -0.73263 241 212 167
0.26766 -0.27303 -0.72760 231 202 166
0.27565 -0.27551 -0.72619 216 196 176
0.27894 -0.27979 -0.71488 236 210 221
0.28410 -0.28331 -0.70762 251 243 237
0.30138 -0.28233 -0.72555 208 167 195
0.30562 -0.28620 -0.71638 209 142 163
0.32414 -0.28491 -0.73638 239 220 224
0.32904 -0.28855 -0.72854 252 254 254
0.33429 -0.29921 -0.72721 254 254 254
0.64561 -0.41945 -0.56549 132 104 173
0.63810 -0.41694 -0.56739 243 245 234
0.64317 -0.42723 -0.56611 57 45 57
0.65068 -0.42974 -0.56421 44 43 74
0.65259 -0.42206 -0.56283 82 61 143
0.65766 -0.43234 -0.56154 41 42 84
0.65930 -0.42470 -0.55980 100 90 179
0.64917 -0.43384 -0.52104 131 158 196
0.66880 -0.43432 -0.53611 131 170 206
0.67231 -0.43743 -0.52885 152 185 220
0.67399 -0.44080 -0.51915 178 198 235
0.66597 -0.44563 -0.49639 212 220 249
0.67067 -0.44846 -0.49103 230 238 253
0.68033 -0.44336 -0.48859 254 254 254
0.67566 -0.45124 -0.48611 234 247 254
0.68530 -0.44614 -0.48367 254 254 254
0.67811 -0.45437 -0.47785 239 251 254
0.68772 -0.44929 -0.47542 254 254 254
0.68271 -0.45718 -0.47251 242 252 254
0.69230 -0.45210 -0.47008 254 254 254
0.68995 -0.45960 -0.47068 251 254 254
-1.23198 0.41502 -1.76152 60 64 80
-1.22530 0.40148 -1.75983 65 67 89
-0.67204 0.00459 -0.87339 95 94 92
-0.68188 -0.00062 -0.87588 94 94 101
-0.67446 -0.00310 -0.87400 99 97 101
-0.65749 -0.00393 -0.85748 65 63 67
-0.65250 -0.01405 -0.85622 58 58 65
-0.65012 -0.00661 -0.85491 56 59 71
-0.63531 -0.01123 -0.85224 79 82 95
-0.52264 -0.15365 -0.47356 48 68 89
-0.53090 -0.15802 -0.47566 55 57 65
-0.52466 -0.16010 -0.47408 48 57 77
-0.51119 -0.16035 -0.46105 203 213 241
-0.50577 -0.16428 -0.45260 225 226 253
-0.50001 -0.16733 -0.44739 227 235 253
-0.49408 -0.16991 -0.44387 226 234 251
-0.48784 -0.17182 -0.44289 223 218 247
-0.48105 -0.17257 -0.44624 210 198 233
-0.47387 -0.17261 -0.45231 194 183 207
-0.46691 -0.17320 -0.45637 190 190 204
-0.46073 -0.17537 -0.45442 201 214 218
-0.45173 -0.17230 -0.47247 207 193 230
-0.44578 -0.17501 -0.46855 223 228 235
-0.43853 -0.17543 -0.47340 217 200 219
-0.43221 -0.17751 -0.47191 244 253 254
-0.42795 -0.18615 -0.47084 254 254 254
-0.11081 -0.14277 -0.86561 254 252 251
-0.12124 -0.14829 -0.86825 254 254 254
-0.10342 -0.14581 -0.86184 236 225 239
-0.08847 -0.15170 -0.85508 235 249 254
-0.08317 -0.16245 -0.85374 254 254 254
-0.00086 -0.17975 -0.83698 243 236 209
0.02044 -0.18140 -0.84986 56 54 83
0.02845 -0.18400 -0.84809 64 67 89
0.03894 -0.18505 -0.85366 73 73 94
0.04732 -0.18744 -0.85290 124 143 122
0.05719 -0.18894 -0.85642 94 99 108
0.21021 -0.25737 -0.75988 70 59 70
0.19989 -0.26283 -0.76250 51 52 66
0.22244 -0.25808 -0.76807 209 243 252
0.22955 -0.26099 -0.76446 253 254 254
0.23811 -0.26330 -0.76414 229 231 222
0.22853 -0.27302 -0.72340 167 118 132
0.23515 -0.27601 -0.71911 206 178 148
0.24696 -0.27694 -0.72619 228 203 184
0.25790 -0.27826 -0.73124 234 217 199
0.26205 -0.28222 -0.72158 246 229 222
0.26559 -0.28638 -0.71076 251 243 234
0.27339 -0.28889 -0.70909 253 250 246
0.28072 -0.29159 -0.70641 239 244 236
0.28947 -0.29376 -0.70671 141 106 177
0.29466 -0.30427 -0.70540 184 193 199
0.29930 -0.29556 -0.70918 174 140 156
0.30449 -0.30610 -0.70787 241 249 243
0.31873 -0.29930 -0.71346 254 254 254
0.32395 -0.30988 -0.71215 254 254 254
0.63933 -0.42025 -0.58612 252 252 249
0.63421 -0.40988 -0.58741 254 254 254
0.63175 -0.41772 -0.58803 254 254 254
0.64179 -0.41241 -0.58549 254 254 253
0.64444 -0.43062 -0.58482 120 100 126
0.64044 -0.42390 -0.57489 197 194 190
0.65992 -0.43569 -0.55228 35 38 77
0.65001 -0.44094 -0.55479 67 68 60
0.66455 -0.43865 -0.54642 32 36 76
0.66959 -0.44887 -0.54514 58 53 62
0.66725 -0.44188 -0.53793 30 42 97
0.66382 -0.44604 -0.52109 48 63 128
0.67300 -0.45180 -0.50977 107 105 188
0.67950 -0.45438 -0.50675 131 144 198
0.68137 -0.45762 -0.49754 141 174 210
0.68709 -0.46029 -0.49356 152 191 216
0.68942 -0.46342 -0.48511 171 206 230
0.68673 -0.46720 -0.47013 227 245 250
0.69631 -0.46213 -0.46770 254 254 254
0.69396 -0.46962 -0.46830 252 254 254
-1.23481 0.40402 -1.76008 53 61 69
-0.66721 -0.00814 -0.86331 101 98 94
-0.65989 -0.01168 -0.85774 78 73 74
-0.64529 -0.01828 -0.84824 62 66 77
-0.63812 -0.02235 -0.84075 75 78 92
-0.51820 -0.16160 -0.47471 90 107 134
-0.52647 -0.16597 -0.47680 57 59 78
-0.51228 -0.16450 -0.47007 139 159 192
-0.50730 -0.16956 -0.45733 142 158 194
-0.50164 -0.17284 -0.45117 139 156 187
-0.49574 -0.17554 -0.44721 141 157 188
-0.48957 -0.17762 -0.44559 143 152 195
-0.48380 -0.18051 -0.44090 150 157 195
-0.47613 -0.17952 -0.45097 160 171 187
-0.46780 -0.17742 -0.46538 159 164 162
-0.46133 -0.17910 -0.46538 151 135 156
-0.45349 -0.17828 -0.47505 181 176 207
-0.44624 -0.17868 -0.48006 170 170 221
-0.43929 -0.17969 -0.48272 212 192 227
-0.43294 -0.18180 -0.48118 248 254 254
-0.42866 -0.19047 -0.48010 254 254 254
-0.11385 -0.15133 -0.86445 254 252 252
-0.12427 -0.15684 -0.86709 254 254 254
-0.11640 -0.15947 -0.86510 254 254 253
-0.10649 -0.15438 -0.86058 238 227 243
-0.10119 -0.16514 -0.85924 210 226 249
-0.09129 -0.16004 -0.85477 236 249 254
-0.08599 -0.17079 -0.85343 254 254 254
0.01856 -0.17336 -0.90612 203 189 203
0.02675 -0.19166 -0.85139 62 76 95
0.03706 -0.19284 -0.85643 77 92 102
0.04244 -0.20374 -0.85507 55 67 94
0.04442 -0.19587 -0.85265 97 115 137
0.20406 -0.26697 -0.75214 65 59 72
0.19378 -0.27241 -0.75475 57 55 70
0.21660 -0.26756 -0.76114 169 207 222
0.22364 -0.27048 -0.75744 203 168 220
0.21825 -0.27844 -0.72575 137 99 143
0.22657 -0.28076 -0.72522 115 95 126
0.23537 -0.28289 -0.72575 186 211 190
0.24701 -0.28393 -0.73244 225 236 224
0.25187 -0.28761 -0.72424 244 248 241
0.25550 -0.29173 -0.71349 252 252 250
0.26248 -0.29455 -0.71008 244 254 253
0.27214 -0.29638 -0.71236 216 245 221
0.27515 -0.30064 -0.70060 170 160 125
0.28032 -0.31111 -0.69929 193 188 192
0.28277 -0.30320 -0.69860 126 102 136
0.62749 -0.42587 -0.58603 254 254 253
0.62238 -0.41551 -0.58732 254 254 254
0.61992 -0.42334 -0.58794 254 254 254
0.61747 -0.43117 -0.58857 254 254 254
0.63506 -0.42840 -0.58411 241 244 226
0.64016 -0.43876 -0.58282 60 46 46
0.62943 -0.43686 -0.55054 53 43 32
0.63446 -0.44706 -0.54927 69 71 63
0.65812 -0.44334 -0.55379 65 68 57
0.64820 -0.44858 -0.55630 67 70 59
0.65569 -0.45109 -0.55441 63 67 61
0.66317 -0.45359 -0.55252 57 61 57
0.65796 -0.44701 -0.54122 60 61 57
0.66298 -0.45720 -0.53995 58 58 51
0.65938 -0.45398 -0.51889 46 49 64
0.65699 -0.46161 -0.51949 56 58 50
0.66436 -0.46407 -0.51763 56 57 46
0.66126 -0.45724 -0.50950 31 36 69
0.66038 -0.46087 -0.49645 29 29 72
0.66518 -0.46366 -0.49122 29 27 70
0.67149 -0.46623 -0.48807 27 32 88
0.67916 -0.46861 -0.48674 29 49 99
0.68633 -0.47105 -0.48476 58 92 142
0.68867 -0.47413 -0.47639 191 224 236
0.69080 -0.47721 -0.46783 248 251 248
0.70038 -0.47215 -0.46540 254 254 254
0.69803 -0.47963 -0.46600 254 254 253
-1.22182 0.37764 -1.71995 60 69 87
-1.20889 0.38448 -1.71668 68 69 95
-1.21206 0.37438 -1.71748 69 74 99
-1.21523 0.36428 -1.71829 56 62 85
-0.69920 -0.00528 -0.87357 93 92 93
-0.70420 0.00486 -0.87484 85 85 90
-0.70660 -0.00280 -0.87545 86 88 91
-0.70901 -0.01047 -0.87606 87 92 95
-0.69679 0.00239 -0.87296 87 85 94
-0.68938 -0.00009 -0.87109 90 90 98
-0.69176 -0.00691 -0.87461 97 96 101
-0.68435 -0.00941 -0.87267 102 98 107
-0.67685 -0.01049 -0.87566 107 104 112
-0.67184 -0.02066 -0.87439 115 119 122
-0.66932 -0.01153 -0.87880 111 110 109
-0.66211 -0.01704 -0.86634 92 91 87
-0.65517 -0.02468 -0.84635 68 65 65
-0.65021 -0.03475 -0.84509 60 58 65
-0.64780 -0.02699 -0.84500 62 63 68
-0.64070 -0.03168 -0.83525 69 72 83
-0.63389 -0.03820 -0.81900 85 86 99
-0.61990 -0.04682 -0.80192 98 97 104
-0.61031 -0.04175 -0.79950 88 89 102
-0.61266 -0.04924 -0.80009 95 92 102
-0.51388 -0.16990 -0.47458 111 131 150
-0.50966 -0.17845 -0.47351 113 123 150
-0.50736 -0.17134 -0.47544 119 129 150
-0.50314 -0.17991 -0.47437 100 108 142
-0.50074 -0.17260 -0.47704 116 122 148
-0.49651 -0.18118 -0.47597 90 100 139
-0.49426 -0.17423 -0.47726 119 128 153
-0.49003 -0.18281 -0.47618 87 96 141
-0.48825 -0.17689 -0.47347 123 124 160
-0.48207 -0.17916 -0.47121 122 119 145
-0.47590 -0.18144 -0.46892 112 126 129
-0.46969 -0.18362 -0.46697 110 131 138
-0.46308 -0.18505 -0.46798 143 146 168
-0.45577 -0.18523 -0.47387 144 146 179
-0.44999 -0.18825 -0.46869 105 108 164
-0.43993 -0.18380 -0.49291 207 206 232
-0.43427 -0.18712 -0.48659 252 254 254
-0.42998 -0.19582 -0.48551 236 249 254
-0.10751 -0.16125 -0.86691 241 245 251
-0.09274 -0.16729 -0.85939 240 250 253
-0.08743 -0.17806 -0.85805 254 254 254
0.00826 -0.19459 -0.85594 74 56 64
0.01361 -0.20546 -0.85459 62 68 81
0.03118 -0.20309 -0.84726 62 73 92
0.02860 -0.21130 -0.84792 60 73 86
0.03653 -0.21395 -0.84591 60 68 83
0.06463 -0.23365 -0.77235 51 56 65
0.05942 -0.22309 -0.77366 65 71 90
0.05441 -0.23905 -0.77493 49 55 69
0.06212 -0.24163 -0.77298 50 54 65
0.07484 -0.22825 -0.76976 54 56 74
0.07234 -0.23622 -0.77040 52 55 63
0.19037 -0.27967 -0.72681 47 58 82
0.20187 -0.28065 -0.73371 73 100 143
0.21071 -0.28276 -0.73437 72 77 134
0.21896 -0.28511 -0.73365 96 89 119
0.22281 -0.28921 -0.72304 98 105 125
0.22920 -0.29228 -0.71823 110 128 156
0.23423 -0.29584 -0.71049 128 132 195
0.24524 -0.29714 -0.71588 167 173 228
0.25122 -0.30033 -0.71027 193 175 230
0.25456 -0.30446 -0.69907 179 141 197
0.26516 -0.30594 -0.70346 117 79 171
0.27032 -0.31642 -0.70216 227 203 215
0.27281 -0.30850 -0.70153 126 97 135
0.27797 -0.31898 -0.70022 247 246 240
0.61339 -0.43564 -0.56959 252 252 248
0.60345 -0.44090 -0.57211 254 254 253
0.61845 -0.44591 -0.56831 112 95 125
0.62732 -0.43709 -0.57706 198 200 190
0.63241 -0.44741 -0.57577 54 48 52
0.62744 -0.44450 -0.55177 61 57 58
0.63247 -0.45471 -0.55050 66 72 66
0.65762 -0.46847 -0.49652 59 55 52
0.64796 -0.47359 -0.49897 61 59 58
0.65525 -0.47603 -0.49712 60 60 61
0.66255 -0.47846 -0.49528 63 66 60
0.66273 -0.47121 -0.49170 62 55 50
0.66884 -0.47380 -0.48828 60 54 57
0.68742 -0.48150 -0.47845 197 228 228
0.69184 -0.48428 -0.47288 247 242 231
0.69791 -0.48684 -0.46951 253 252 250
0.70750 -0.48177 -0.46708 254 254 254
0.70515 -0.48926 -0.46767 254 254 254
0.70280 -0.49675 -0.46827 254 254 254
-1.24042 0.38196 -1.75686 25 27 58
-1.23376 0.36846 -1.75517 34 34 66
-1.22478 0.36712 -1.71950 45 49 79
-1.21820 0.35377 -1.71783 46 50 75
-0.70163 -0.01426 -0.86960 98 100 97
-0.69664 -0.02438 -0.86834 122 118 122
-0.68671 -0.01596 -0.87722 115 109 118
-0.67925 -0.01777 -0.87771 117 116 123
-0.66429 -0.02159 -0.87804 101 109 108
-0.65766 -0.03342 -0.84294 73 74 76
-0.63657 -0.04821 -0.81074 85 81 96
-0.62967 -0.05323 -0.79956 108 108 114
-0.62252 -0.05610 -0.79605 111 111 112
-0.61541 -0.05915 -0.79193 104 101 104
-0.60586 -0.05410 -0.78951 91 89 98
-0.48360 -0.18459 -0.47584 93 104 140
-0.49192 -0.18899 -0.47795 85 90 121
-0.47794 -0.18792 -0.46944 107 126 131
-0.47177 -0.19019 -0.46715 107 126 135
-0.46472 -0.19079 -0.47145 102 99 150
-0.45706 -0.19037 -0.47985 72 75 138
-0.45091 -0.19277 -0.47710 91 93 143
-0.43510 -0.19163 -0.49541 240 253 254
-0.09386 -0.17432 -0.86521 233 245 252
-0.08854 -0.18511 -0.86386 254 254 254
-0.01648 -0.20161 -0.84065 254 250 239
-0.02690 -0.20712 -0.84329 254 254 254
0.06272 -0.24795 -0.75156 55 58 70
0.06024 -0.25586 -0.75219 63 67 85
0.07285 -0.24260 -0.74900 53 60 75
0.06788 -0.25841 -0.75026 66 71 82
0.18680 -0.28804 -0.72492 91 90 92
0.21374 -0.29416 -0.72812 113 118 110
0.21718 -0.29837 -0.71662 97 97 78
0.22089 -0.30242 -0.70591 60 56 49
0.22844 -0.30500 -0.70382 41 26 57
0.23613 -0.30752 -0.70204 57 26 77
0.24350 -0.31016 -0.69957 71 39 106
0.25194 -0.31241 -0.69941 113 79 154
0.25971 -0.31491 -0.69777 185 120 200
0.60137 -0.44495 -0.55615 243 243 229
0.59151 -0.45017 -0.55865 254 254 249
0.66649 -0.48133 -0.48891 60 59 49
0.67666 -0.48673 -0.47936 169 161 175
0.68470 -0.48906 -0.47857 230 224 232
0.69199 -0.49148 -0.47678 246 233 228
0.69689 -0.50142 -0.47554 253 254 253
0.69809 -0.49404 -0.47342 252 251 250
0.70299 -0.50397 -0.47219 254 254 254
-1.24093 0.36655 -1.74182 18 17 37
-1.25394 0.35967 -1.74511 9 14 29
-1.24412 0.35639 -1.74263 16 18 32
-0.80472 -0.00702 -0.82969 86 82 89
-0.80957 0.00281 -0.83091 77 80 90
-0.81190 -0.00462 -0.83151 76 77 89
-0.80239 0.00041 -0.82910 80 81 90
-0.79522 -0.00199 -0.82728 84 85 93
-0.79777 -0.00770 -0.83368 93 92 96
-0.79088 -0.00760 -0.84042 96 97 107
-0.78131 -0.00254 -0.83800 91 93 103
-0.78366 -0.01001 -0.83860 97 99 109
-0.68924 -0.02668 -0.86707 130 130 135
-0.69164 -0.03433 -0.86768 130 136 140
-0.68177 -0.02755 -0.87089 120 124 132
-0.67423 -0.02804 -0.87612 105 111 122
-0.66678 -0.03034 -0.87491 91 99 106
-0.66027 -0.04359 -0.83429 68 69 76
-0.65318 -0.04832 -0.82419 57 54 69
-0.64610 -0.05256 -0.81581 59 56 76
-0.63917 -0.05770 -0.80410 88 86 98
-0.63221 -0.06210 -0.79506 133 132 136
-0.62503 -0.06466 -0.79266 137 139 142
-0.61798 -0.06802 -0.78735 120 121 121
-0.61059 -0.06931 -0.78961 108 106 109
-0.47124 -0.19172 -0.48741 40 52 108
-0.46453 -0.19312 -0.48870 43 40 119
-0.45882 -0.19638 -0.48249 58 64 121
-0.45193 -0.19749 -0.48496 94 103 144
-0.44275 -0.19472 -0.50316 153 163 204
-0.43567 -0.19573 -0.50616 199 197 234
-0.40404 -0.19539 -0.53652 204 209 218
-0.39537 -0.19081 -0.53432 232 238 246
-0.39750 -0.19758 -0.53486 218 219 232
-0.39963 -0.20435 -0.53540 234 227 242
-0.02329 -0.21250 -0.82771 254 247 230
-0.03365 -0.21798 -0.83033 254 254 254
0.00583 -0.21686 -0.83923 69 67 84
0.01371 -0.21949 -0.83724 71 73 87
0.01115 -0.22765 -0.83789 80 83 84
0.02937 -0.24582 -0.75903 70 72 80
0.03949 -0.24047 -0.75647 57 60 73
0.03609 -0.24887 -0.75450 63 62 69
0.04372 -0.25142 -0.75257 58 56 63
0.16161 -0.29392 -0.71181 72 64 81
0.15649 -0.28353 -0.71310 53 64 72
0.15156 -0.29924 -0.71435 81 79 78
0.19321 -0.30358 -0.70695 66 33 30
0.20249 -0.30548 -0.70885 70 31 34
0.21143 -0.30752 -0.70990 62 25 28
0.21814 -0.31041 -0.70592 74 57 48
0.22904 -0.31176 -0.71126 98 86 95
0.23422 -0.31520 -0.70392 170 121 126
0.24194 -0.31772 -0.70219 220 199 182
0.24709 -0.32816 -0.70089 254 253 250
0.25613 -0.31797 -0.71440 234 225 216
0.26007 -0.32182 -0.70448 246 237 240
0.26524 -0.33229 -0.70318 254 254 254
0.26726 -0.32453 -0.70158 253 250 250
0.27491 -0.32709 -0.69964 254 254 253
0.27243 -0.33500 -0.70027 254 254 254
0.60284 -0.45205 -0.56248 186 186 185
0.60041 -0.45978 -0.56310 99 87 116
0.59045 -0.45759 -0.53157 61 35 49
0.59781 -0.46004 -0.52971 62 57 77
0.65563 -0.48658 -0.48969 59 66 61
0.64836 -0.48415 -0.49153 58 62 64
0.64599 -0.49168 -0.49213 61 58 59
0.65920 -0.48946 -0.48284 40 41 47
0.67163 -0.49127 -0.48797 93 86 85
0.67052 -0.49468 -0.47492 205 225 216
0.67862 -0.49700 -0.47422 229 222 218
0.68866 -0.49910 -0.47610 244 248 243
0.69356 -0.50904 -0.47486 254 254 254
-0.81401 -0.01344 -0.82734 80 79 98
-0.81884 -0.00363 -0.82857 77 77 92
-0.82117 -0.01104 -0.82916 79 76 96
-0.80058 -0.01168 -0.84620 123 124 118
-0.79353 -0.01268 -0.84928 115 111 120
-0.78631 -0.01487 -0.84823 108 105 117
-0.77670 -0.00979 -0.84580 100 101 109
-0.77906 -0.01729 -0.84640 107 106 114
-0.78141 -0.02480 -0.84699 115 112 120
-0.67690 -0.04004 -0.86117 85 87 107
-0.66989 -0.04784 -0.83992 61 65 83
-0.66305 -0.05608 -0.81694 48 49 66
-0.65588 -0.05935 -0.81203 48 44 68
-0.64874 -0.06270 -0.80676 56 55 76
-0.64189 -0.06828 -0.79329 99 101 110
-0.63455 -0.06956 -0.79563 150 155 160
-0.62735 -0.07197 -0.79380 144 147 159
-0.62034 -0.07560 -0.78742 112 116 130
-0.61321 -0.07838 -0.78419 99 106 118
-0.60582 -0.07968 -0.78650 97 102 118
-0.59629 -0.07463 -0.78409 100 99 113
-0.59856 -0.08176 -0.78589 98 100 118
-0.58902 -0.07672 -0.78347 100 100 114
-0.59118 -0.08332 -0.78726 98 101 119
-0.58162 -0.07826 -0.78484 99 99 112
-0.56066 -0.08671 -0.80382 93 100 104
-0.47826 -0.19347 -0.50039 32 37 98
-0.48033 -0.20006 -0.50091 31 37 102
-0.47397 -0.20218 -0.49930 25 35 105
-0.47187 -0.19555 -0.49899 20 30 102
-0.46758 -0.20426 -0.49790 36 46 122
-0.46544 -0.19754 -0.49791 36 44 117
-0.46019 -0.20169 -0.48806 58 70 125
-0.45334 -0.20289 -0.49018 87 95 144
-0.44314 -0.19848 -0.51549 115 129 190
-0.43825 -0.20319 -0.50328 163 173 212
-0.42964 -0.20179 -0.51636 145 146 181
-0.42150 -0.20131 -0.52570 159 173 203
-0.41413 -0.20213 -0.52970 183 194 221
-0.40617 -0.20216 -0.53705 207 212 224
-0.02124 -0.22522 -0.81615 138 116 149
-0.01085 -0.22621 -0.82236 85 61 85
-0.00557 -0.23691 -0.82103 68 78 78
0.03031 -0.25854 -0.74571 74 68 74
0.03535 -0.26242 -0.73660 73 66 69
0.04292 -0.26495 -0.73468 71 64 72
0.15913 -0.30178 -0.71240 81 88 77
0.16653 -0.30439 -0.71003 72 64 67
0.17613 -0.30614 -0.71282 88 60 30
0.18249 -0.30917 -0.70799 119 84 46
0.19357 -0.31037 -0.71408 130 100 20
0.20218 -0.31255 -0.71442 148 109 72
0.21410 -0.31351 -0.72216 188 128 119
0.21331 -0.31916 -0.70127 225 214 183
0.22058 -0.32181 -0.69863 239 235 211
0.22917 -0.32400 -0.69888 247 242 225
0.23430 -0.33442 -0.69758 254 254 253
0.23793 -0.32614 -0.69948 252 249 243
0.24307 -0.33657 -0.69818 254 254 254
0.25777 -0.32968 -0.70550 254 254 253
0.25528 -0.33759 -0.70613 254 254 254
0.26293 -0.34015 -0.70419 254 254 254
0.57545 -0.45996 -0.53902 242 235 226
0.57048 -0.44988 -0.54028 254 254 254
0.56569 -0.46513 -0.54149 254 253 248
0.58042 -0.47005 -0.53776 65 35 46
0.59292 -0.46448 -0.53929 59 44 49
0.59790 -0.47459 -0.53803 68 63 70
0.60496 -0.46628 -0.54421 66 63 76
0.61478 -0.46108 -0.54172 69 69 76
0.61237 -0.46875 -0.54233 68 67 76
0.60996 -0.47642 -0.54294 66 65 72
0.64734 -0.49481 -0.48220 51 55 49
0.65128 -0.49762 -0.47590 36 39 58
0.66274 -0.49955 -0.47978 163 149 176
0.66998 -0.50197 -0.47793 230 228 223
0.67625 -0.50450 -0.47481 245 226 204
0.68114 -0.51441 -0.47357 253 254 252
-0.82365 -0.01759 -0.83272 85 81 98
-0.82848 -0.00778 -0.83394 76 76 90
-0.83081 -0.01520 -0.83454 77 78 90
-0.81652 -0.01971 -0.83186 90 93 104
-0.80986 -0.01877 -0.84163 129 133 132
-0.80499 -0.02864 -0.84040 139 147 152
-0.69418 -0.04641 -0.85217 120 126 125
-0.67974 -0.05579 -0.83202 69 68 75
-0.67286 -0.06416 -0.80834 35 34 41
-0.66577 -0.06814 -0.80072 24 24 38
-0.65851 -0.06989 -0.80133 33 32 54
-0.65160 -0.07506 -0.78923 55 56 74
-0.64427 -0.07606 -0.79264 108 118 127
-0.63691 -0.07716 -0.79567 126 141 149
-0.62996 -0.08132 -0.78729 96 97 111
-0.62264 -0.08280 -0.78892 75 74 95
-0.61523 -0.08395 -0.79185 70 76 96
-0.60811 -0.08685 -0.78814 71 79 94
-0.60077 -0.08853 -0.78909 73 80 92
-0.58594 -0.09154 -0.79239 84 84 97
-0.57825 -0.09203 -0.79793 85 87 99
-0.56273 -0.09312 -0.80884 82 83 95
-0.55505 -0.09421 -0.81223 81 85 96
-0.54772 -0.09666 -0.81037 82 86 98
-0.45439 -0.20771 -0.49800 77 79 146
-0.44566 -0.20585 -0.51306 98 109 177
-0.43950 -0.20846 -0.50953 137 157 210
-0.43066 -0.20675 -0.52415 102 128 206
-0.42264 -0.20652 -0.53263 99 132 219
-0.41559 -0.20789 -0.53442 124 147 218
-0.40783 -0.20826 -0.54050 205 214 244
-0.39832 -0.20620 -0.55702 247 249 252
-0.38955 -0.20156 -0.55480 251 254 254
-0.39170 -0.20841 -0.55534 254 254 254
-0.03952 -0.23566 -0.79314 254 249 238
-0.04971 -0.24105 -0.79572 254 254 254
-0.02574 -0.23448 -0.81055 135 114 166
-0.01534 -0.23548 -0.81686 77 70 83
0.00120 -0.25414 -0.76519 80 79 83
-0.00395 -0.24369 -0.76650 79 82 81
-0.00643 -0.25159 -0.76713 68 79 82
0.00943 -0.26308 -0.74073 89 91 92
0.01743 -0.26537 -0.74010 69 73 86
0.02545 -0.26766 -0.73948 64 75 81
0.03137 -0.27104 -0.73292 65 79 76
0.03885 -0.27361 -0.73079 64 68 73
0.04885 -0.26831 -0.72825 71 66 68
0.04655 -0.27605 -0.72929 63 59 68
0.05656 -0.27076 -0.72676 71 69 65
0.05332 -0.27896 -0.72524 66 62 63
0.06332 -0.27367 -0.72271 71 69 76
0.05998 -0.28192 -0.72091 69 64 61
0.06996 -0.27663 -0.71838 70 70 76
0.06948 -0.28349 -0.72429 70 64 58
0.07949 -0.27820 -0.72176 71 72 73
0.07856 -0.28530 -0.72642 72 65 59
0.08859 -0.28000 -0.72388 72 72 75
0.08492 -0.28839 -0.72133 71 65 60
0.09494 -0.28309 -0.71879 74 71 76
0.09199 -0.29114 -0.71813 71 66 61
0.10199 -0.28585 -0.71559 76 73 80
0.09951 -0.29368 -0.71615 70 66 62
0.10952 -0.28839 -0.71361 76 74 80
0.10652 -0.29644 -0.71285 70 68 61
0.11652 -0.29115 -0.71031 75 72 72
0.11399 -0.29900 -0.71074 68 65 56
0.12399 -0.29371 -0.70821 75 73 73
0.12201 -0.30132 -0.71001 65 63 60
0.13202 -0.29603 -0.70748 76 73 74
0.13020 -0.30358 -0.70966 63 64 57
0.14021 -0.29828 -0.70712 77 74 83
0.13958 -0.30535 -0.71221 62 65 65
0.14787 -0.30759 -0.71203 62 68 59
0.15612 -0.30986 -0.71172 59 66 62
0.16472 -0.31199 -0.71221 37 37 47
0.18374 -0.31011 -0.73718 175 131 117
0.17899 -0.31742 -0.70621 238 232 191
0.18255 -0.32146 -0.69500 243 237 181
0.19174 -0.32338 -0.69683 245 239 202
0.20212 -0.32489 -0.70129 249 243 222
0.20725 -0.33528 -0.70000 254 254 254
0.21168 -0.32672 -0.70379 253 252 246
0.21681 -0.33714 -0.70249 254 254 254
0.21882 -0.32943 -0.70083 254 254 250
0.22395 -0.33984 -0.69953 254 254 254
0.22644 -0.33196 -0.69895 254 254 251
0.23157 -0.34237 -0.69765 254 254 254
0.57604 -0.46715 -0.54407 181 169 180
0.56626 -0.47232 -0.54655 238 226 224
0.57365 -0.47479 -0.54468 99 87 111
0.58619 -0.47274 -0.53354 62 53 67
0.59115 -0.48281 -0.53229 70 64 68
0.63240 -0.50051 -0.47727 62 58 53
0.62753 -0.49064 -0.47851 63 57 63
0.62519 -0.49810 -0.47910 63 58 66
0.62284 -0.50556 -0.47969 64 59 62
0.64155 -0.50270 -0.47811 36 39 33
0.65273 -0.50467 -0.48164 83 79 87
0.65502 -0.50763 -0.47313 197 221 210
0.66532 -0.50971 -0.47544 235 238 209
0.67622 -0.51175 -0.47850 248 251 234
0.68111 -0.52168 -0.47726 254 254 254
-0.82618 -0.02389 -0.83723 92 90 97
-0.83569 -0.02892 -0.83964 88 89 96
-0.82851 -0.03132 -0.83783 96 95 99
-0.82133 -0.03372 -0.83601 101 103 105
-0.81903 -0.02607 -0.83619 96 101 103
-0.81418 -0.03590 -0.83496 127 129 136
-0.81246 -0.02456 -0.84809 125 128 138
-0.80759 -0.03446 -0.84685 136 142 145
-0.73250 -0.06451 -0.77934 101 98 101
-0.73728 -0.05484 -0.78055 98 99 103
-0.73957 -0.06215 -0.78113 99 97 101
-0.73021 -0.05720 -0.77876 97 98 102
-0.70401 -0.05870 -0.82834 128 127 128
-0.69666 -0.05752 -0.83980 124 125 125
-0.68935 -0.05982 -0.83846 113 108 109
-0.68215 -0.06404 -0.83002 77 74 71
-0.67530 -0.07312 -0.80337 44 39 38
-0.66808 -0.07529 -0.80245 28 23 23
-0.66099 -0.07885 -0.79630 32 27 40
-0.65425 -0.08559 -0.77813 59 59 81
-0.64692 -0.08624 -0.78287 94 107 127
-0.63967 -0.08787 -0.78393 81 93 109
-0.63245 -0.08988 -0.78359 57 56 69
-0.62505 -0.09078 -0.78747 56 56 66
-0.61750 -0.09098 -0.79408 56 61 69
-0.61013 -0.09255 -0.79547 54 64 64
-0.60275 -0.09416 -0.79675 53 64 64
-0.59536 -0.09583 -0.79782 60 64 73
-0.58790 -0.09726 -0.79984 68 68 82
-0.58048 -0.09902 -0.80059 66 70 85
-0.57295 -0.10039 -0.80286 64 68 82
-0.56514 -0.10081 -0.80891 65 69 84
-0.56021 -0.11081 -0.80767 39 41 56
-0.55758 -0.10233 -0.81070 65 73 88
-0.55264 -0.11235 -0.80946 39 43 56
-0.55013 -0.10432 -0.81065 67 77 89
-0.54042 -0.09919 -0.80819 84 87 96
-0.54518 -0.11435 -0.80940 38 44 55
-0.53479 -0.10707 -0.81546 66 76 86
-0.53240 -0.09946 -0.81486 84 88 92
-0.53717 -0.11468 -0.81607 38 41 55
-0.52504 -0.10192 -0.81300 84 88 94
-0.52906 -0.11434 -0.79437 68 77 88
-0.51941 -0.10924 -0.79193 86 87 92
-0.52365 -0.12208 -0.77129 72 80 88
-0.51409 -0.11702 -0.76886 84 86 87
-0.45536 -0.21241 -0.50658 68 70 145
-0.44703 -0.21132 -0.51866 87 95 162
-0.43984 -0.21226 -0.52221 99 115 189
-0.43325 -0.21422 -0.52140 69 82 194
-0.42612 -0.21535 -0.52418 72 101 217
-0.42174 -0.22423 -0.52308 64 90 212
-0.41940 -0.21717 -0.52404 62 99 212
-0.40910 -0.21378 -0.54649 129 160 223
-0.40046 -0.21304 -0.55761 215 243 254
-0.39378 -0.21515 -0.55635 250 254 254
-0.38501 -0.21051 -0.55413 254 254 254
-0.38716 -0.21736 -0.55468 254 254 254
-0.38931 -0.22421 -0.55522 254 254 254
-0.04751 -0.24701 -0.77602 254 244 234
-0.05762 -0.25235 -0.77858 254 254 254
-0.03154 -0.24450 -0.80073 160 94 156
-0.02360 -0.24695 -0.79946 91 68 94
-0.01739 -0.25042 -0.79278 69 74 80
-0.01386 -0.25539 -0.77798 65 72 82
-0.00806 -0.25901 -0.77036 76 61 76
-0.00060 -0.26167 -0.76787 72 60 57
-0.00182 -0.26905 -0.73962 106 87 86
0.00556 -0.27166 -0.73722 96 61 59
0.01367 -0.27389 -0.73695 69 47 41
0.02227 -0.27587 -0.73805 64 53 48
0.02688 -0.27990 -0.72774 65 54 59
0.03514 -0.28205 -0.72787 66 52 57
0.03876 -0.28650 -0.71510 71 36 33
0.05239 -0.28604 -0.73003 76 23 17
0.06010 -0.28849 -0.72854 76 23 15
0.06648 -0.29157 -0.72344 77 24 14
0.07375 -0.29423 -0.72077 81 25 16
0.08801 -0.29964 -0.71479 80 25 16
0.09554 -0.30216 -0.71286 80 24 16
0.10007 -0.30598 -0.70326 80 23 16
0.10897 -0.30790 -0.70486 80 20 15
0.12776 -0.31139 -0.71032 70 20 16
0.13704 -0.31322 -0.71265 67 19 18
0.15066 -0.31335 -0.72542 67 19 18
0.15910 -0.31558 -0.72544 67 31 42
0.16931 -0.31713 -0.72965 103 95 122
0.17057 -0.32212 -0.71261 214 220 217
0.17570 -0.33253 -0.71131 254 254 254
0.18197 -0.32324 -0.71958 251 252 248
0.18713 -0.33369 -0.71828 254 254 254
0.18893 -0.32604 -0.71609 254 254 249
0.19408 -0.33648 -0.71478 254 254 254
0.19568 -0.32891 -0.71213 254 254 250
0.20082 -0.33934 -0.71083 254 254 254
0.20156 -0.33207 -0.70625 254 254 252
0.20669 -0.34248 -0.70495 254 254 254
0.56622 -0.47932 -0.52089 59 40 32
0.55655 -0.48443 -0.52334 60 38 45
0.57115 -0.48931 -0.51964 69 68 65
0.57257 -0.48188 -0.51764 69 64 66
0.57750 -0.49187 -0.51640 73 71 70
0.62311 -0.50875 -0.46830 58 53 53
0.63301 -0.51085 -0.47022 35 36 53
0.63769 -0.51352 -0.46497 158 146 167
0.65126 -0.51525 -0.47182 230 233 216
0.65925 -0.51758 -0.47104 249 239 186
0.66412 -0.52745 -0.46981 253 254 250
0.67238 -0.51940 -0.47712 253 251 242
0.67727 -0.52932 -0.47589 254 254 254
-0.74164 -0.07402 -0.76501 101 92 106
-0.74638 -0.06442 -0.76620 100 100 103
-0.74866 -0.07168 -0.76678 97 97 97
-0.73465 -0.07597 -0.76470 120 109 119
-0.72070 -0.07396 -0.78595 145 139 140
-0.71361 -0.06881 -0.81212 161 155 155
-0.69920 -0.07258 -0.81235 161 160 161
-0.69191 -0.07255 -0.81966 152 152 150
-0.68446 -0.07055 -0.83444 127 131 127
-0.67724 -0.07406 -0.82853 99 100 101
-0.67070 -0.08649 -0.78883 84 74 74
-0.66359 -0.08938 -0.78513 79 66 69
-0.65656 -0.09292 -0.77892 69 66 76
-0.64940 -0.09506 -0.77804 58 65 89
-0.64234 -0.09805 -0.77390 48 47 72
-0.63473 -0.09691 -0.78566 49 42 57
-0.62740 -0.09828 -0.78780 46 47 53
-0.62003 -0.09957 -0.79032 38 44 50
-0.61264 -0.10088 -0.79275 37 44 49
-0.60505 -0.10134 -0.79854 38 43 52
-0.59789 -0.10417 -0.79512 37 39 55
-0.59001 -0.10367 -0.80477 38 40 56
-0.58235 -0.10444 -0.80947 37 38 54
-0.57357 -0.10092 -0.83123 36 39 54
-0.56586 -0.10211 -0.83445 37 41 56
-0.52352 -0.12256 -0.80030 41 49 62
-0.51738 -0.12817 -0.78553 43 50 63
-0.50333 -0.13426 -0.77677 45 50 61
-0.49634 -0.13730 -0.77240 46 43 63
-0.48674 -0.13222 -0.76997 69 76 94
-0.48879 -0.13900 -0.77352 58 50 78
-0.47918 -0.13392 -0.77109 80 92 119
-0.48389 -0.14893 -0.77229 86 103 150
-0.45745 -0.21905 -0.50702 59 65 147
-0.44932 -0.21831 -0.51783 76 87 160
-0.44276 -0.22027 -0.51700 70 85 172
-0.43586 -0.22171 -0.51851 62 63 179
-0.42800 -0.22173 -0.52618 70 85 210
-0.42362 -0.23062 -0.52507 67 89 213
-0.41463 -0.22550 -0.52538 47 94 207
-0.40115 -0.21782 -0.56728 125 154 223
-0.39681 -0.22321 -0.55152 229 242 249
-0.16021 -0.22191 -0.79029 228 189 202
-0.16533 -0.21153 -0.79158 254 254 253
-0.16779 -0.21938 -0.79221 254 248 243
-0.16267 -0.22976 -0.79091 231 204 209
-0.05261 -0.25649 -0.76815 254 254 249
-0.04589 -0.25955 -0.76343 254 241 229
-0.04008 -0.26313 -0.75586 254 245 215
-0.03389 -0.26645 -0.74963 254 246 211
-0.02673 -0.26920 -0.74652 235 244 210
-0.02137 -0.27294 -0.73793 200 186 172
-0.00970 -0.27319 -0.74853 123 97 80
-0.00612 -0.27786 -0.73470 144 128 128
-0.00498 -0.28374 -0.71399 202 186 168
0.01028 -0.28219 -0.73484 236 226 186
0.01802 -0.28461 -0.73348 251 242 200
0.02642 -0.28670 -0.73404 254 243 204
0.03539 -0.28852 -0.73611 254 241 203
0.02201 -0.30119 -0.67581 240 215 170
0.05500 -0.29145 -0.74464 208 164 90
0.06469 -0.29302 -0.74839 170 116 40
0.06984 -0.30346 -0.74708 251 248 211
0.07211 -0.29567 -0.74588 164 109 72
0.07932 -0.29840 -0.74283 171 116 71
0.08650 -0.30115 -0.73972 178 129 72
0.09384 -0.30382 -0.73708 184 138 83
0.10211 -0.30608 -0.73682 192 151 104
0.11043 -0.30834 -0.73668 196 157 98
0.11964 -0.31022 -0.73877 207 161 106
0.12884 -0.31214 -0.74073 214 169 120
0.13805 -0.31408 -0.74266 219 175 135
0.14673 -0.31624 -0.74318 230 182 157
0.15518 -0.31851 -0.74311 238 190 171
0.16285 -0.32108 -0.74113 236 202 185
0.16695 -0.32501 -0.73059 240 236 220
0.17212 -0.33549 -0.72929 254 254 254
0.17416 -0.32774 -0.72759 251 252 251
0.17932 -0.33821 -0.72628 254 254 254
0.55498 -0.47771 -0.54677 253 253 247
0.55000 -0.46761 -0.54803 254 254 254
0.54761 -0.47525 -0.54863 254 254 254
0.56236 -0.48017 -0.54490 172 156 181
0.55996 -0.48781 -0.54551 84 72 107
0.55545 -0.48799 -0.50903 59 57 49
0.55310 -0.49550 -0.50963 57 63 59
0.59993 -0.51209 -0.46343 67 67 62
0.59512 -0.50232 -0.46465 60 61 67
0.59048 -0.51710 -0.46582 75 77 77
0.60225 -0.50470 -0.46284 62 58 57
0.60889 -0.51428 -0.46415 67 67 57
0.61562 -0.51672 -0.46175 44 40 54
0.62257 -0.51912 -0.45969 83 79 107
0.63300 -0.52118 -0.46235 196 221 213
0.64519 -0.52308 -0.46735 237 241 215
0.65860 -0.52488 -0.47391 248 251 230
0.66348 -0.53477 -0.47268 254 254 254
-1.10121 0.14689 -1.26605 48 52 78
-1.11229 0.14103 -1.26885 43 53 73
-1.10393 0.13824 -1.26674 43 48 71
-1.09556 0.13544 -1.26462 43 44 69
-0.76379 -0.08735 -0.72274 103 103 108
-0.75715 -0.08684 -0.73133 113 104 109
-0.75050 -0.08557 -0.74281 122 112 118
-0.74355 -0.08825 -0.73970 139 127 149
-0.73707 -0.07988 -0.77777 174 164 171
-0.72306 -0.07845 -0.79728 207 203 207
-0.71591 -0.08338 -0.78588 218 219 219
-0.70169 -0.08770 -0.78390 207 209 214
-0.69456 -0.08929 -0.78509 201 205 210
-0.68740 -0.09075 -0.78680 191 196 196
-0.67303 -0.09396 -0.78914 165 164 165
-0.66611 -0.09918 -0.77644 141 136 130
-0.65884 -0.09991 -0.78100 99 98 83
-0.65168 -0.10213 -0.77985 50 47 49
-0.64453 -0.10434 -0.77871 37 26 38
-0.63691 -0.10326 -0.79043 44 33 40
-0.62958 -0.10468 -0.79246 35 28 33
-0.62225 -0.10628 -0.79380 20 15 27
-0.61511 -0.10908 -0.79044 17 9 27
-0.60801 -0.11203 -0.78647 18 8 26
-0.60315 -0.12188 -0.78524 17 8 14
-0.60079 -0.11432 -0.78512 16 9 24
-0.59593 -0.12417 -0.78389 12 9 12
-0.59346 -0.11610 -0.78577 12 10 21
-0.58859 -0.12597 -0.78454 10 10 13
-0.58641 -0.11920 -0.78117 13 10 21
-0.58156 -0.12906 -0.77994 10 9 16
-0.57846 -0.11857 -0.79156 13 11 26
-0.57357 -0.12848 -0.79033 10 9 15
-0.57042 -0.11793 -0.80208 14 12 24
-0.56550 -0.12789 -0.80084 12 9 13
-0.54099 -0.12669 -0.79865 17 12 26
-0.55065 -0.13180 -0.80110 11 9 13
-0.54336 -0.13424 -0.79925 10 8 18
-0.53607 -0.13668 -0.79741 11 7 22
-0.52697 -0.13315 -0.78843 16 15 33
-0.52206 -0.14310 -0.78719 11 7 17
-0.52005 -0.13654 -0.78260 18 16 32
-0.51516 -0.14648 -0.78136 11 7 15
-0.51269 -0.13868 -0.78195 18 14 29
-0.49800 -0.14314 -0.77991 26 19 34
-0.49123 -0.14670 -0.77331 53 52 84
-0.48633 -0.15663 -0.77207 77 102 164
-0.43851 -0.22925 -0.51524 54 62 183
-0.43062 -0.22921 -0.52333 65 83 213
-0.41630 -0.23158 -0.52881 39 73 199
-0.40878 -0.23234 -0.53352 40 59 195
-0.39875 -0.22976 -0.55334 200 228 247
-0.39429 -0.23880 -0.55221 251 254 254
-0.38929 -0.22818 -0.56880 254 254 254
-0.38046 -0.22351 -0.56656 254 254 254
-0.38263 -0.23041 -0.56711 254 254 254
-0.38479 -0.23730 -0.56766 254 254 254
-0.20472 -0.22064 -0.78296 245 242 246
-0.20979 -0.21034 -0.78424 253 254 254
-0.21468 -0.22591 -0.78548 239 238 240
-0.20227 -0.21286 -0.78234 253 254 254
-0.19475 -0.21537 -0.78044 254 254 254
-0.19719 -0.22315 -0.78106 251 253 254
-0.15772 -0.23429 -0.77882 202 174 199
-0.14772 -0.22900 -0.77629 236 242 249
-0.15017 -0.23681 -0.77691 238 253 254
-0.15262 -0.24462 -0.77753 194 238 254
-0.06566 -0.26363 -0.76088 250 254 254
-0.07076 -0.25327 -0.76217 254 254 254
-0.07322 -0.26110 -0.76280 254 254 254
-0.05804 -0.26612 -0.75913 233 252 254
-0.05125 -0.26910 -0.75474 218 240 253
-0.04363 -0.27159 -0.75303 214 239 247
-0.03641 -0.27431 -0.75006 235 202 213
-0.02844 -0.27660 -0.74945 195 150 167
-0.00828 -0.28549 -0.73620 235 243 224
-0.00319 -0.29580 -0.73492 254 254 254
-0.00091 -0.28809 -0.73382 252 252 240
0.00417 -0.29840 -0.73254 254 254 254
0.00716 -0.29034 -0.73349 253 253 248
0.01224 -0.30065 -0.73220 254 254 254
0.01511 -0.29264 -0.73279 254 254 252
0.02020 -0.30296 -0.73151 254 254 254
0.02369 -0.29465 -0.73387 254 254 252
0.02879 -0.30498 -0.73259 254 254 254
0.04244 -0.29796 -0.74026 254 253 245
0.04756 -0.30835 -0.73896 254 254 252
0.05274 -0.29922 -0.74586 253 250 217
0.08021 -0.30480 -0.75249 249 244 206
0.08902 -0.30685 -0.75362 249 245 206
0.09618 -0.30963 -0.75034 250 246 210
0.10135 -0.32013 -0.74904 254 254 252
0.10173 -0.31309 -0.74291 250 248 218
0.10689 -0.32355 -0.74160 254 254 251
0.10843 -0.31604 -0.73853 251 248 218
0.11358 -0.32649 -0.73723 254 254 252
0.11296 -0.31985 -0.72871 252 249 221
0.11809 -0.33027 -0.72741 254 254 252
0.11802 -0.32342 -0.72037 252 249 226
0.12314 -0.33380 -0.71907 254 254 253
0.14568 -0.32914 -0.72662 254 249 244
0.15083 -0.33959 -0.72531 254 254 254
0.15632 -0.33056 -0.73199 254 251 249
0.16149 -0.34104 -0.73069 254 254 254
0.16596 -0.33238 -0.73482 254 254 252
0.17114 -0.34288 -0.73351 254 254 254
0.54850 -0.48242 -0.55427 254 254 253
0.54351 -0.47230 -0.55553 254 254 254
0.54111 -0.47995 -0.55614 254 254 254
0.53870 -0.48761 -0.55675 254 254 254
0.55349 -0.49255 -0.55301 207 153 196
0.55245 -0.48536 -0.54716 240 213 219
0.55742 -0.49546 -0.54590 81 41 60
0.54659 -0.49298 -0.51258 50 38 45
0.55377 -0.49874 -0.49806 63 69 72
0.55142 -0.50621 -0.49866 57 50 57
0.56098 -0.50115 -0.49624 70 75 73
0.58539 -0.52077 -0.44687 72 76 80
0.57602 -0.52572 -0.44925 74 77 76
0.59924 -0.52243 -0.45454 66 69 63
0.60626 -0.52482 -0.45261 42 41 57
0.62388 -0.52616 -0.46527 155 141 160
0.62918 -0.52874 -0.46091 229 232 224
0.63985 -0.53080 -0.46386 249 241 206
0.64469 -0.54062 -0.46264 253 254 251
0.65392 -0.53257 -0.47136 253 251 244
0.65879 -0.54244 -0.47013 254 254 254
-1.37916 0.38314 -1.92111 22 29 47
-1.37222 0.36905 -1.91936 21 22 39
-1.22760 0.27578 -1.66590 26 25 44
-1.23717 0.27898 -1.66832 13 11 30
-1.24028 0.26907 -1.66911 10 9 26
-1.22449 0.28569 -1.66511 34 37 52
-1.21802 0.27258 -1.66348 34 40 55
-0.77244 -0.09624 -0.70985 112 105 120
-0.77925 -0.09397 -0.71158 102 102 110
-0.78146 -0.10101 -0.71214 119 114 122
-0.76594 -0.09532 -0.72003 125 124 137
-0.74620 -0.08856 -0.76610 217 222 218
-0.73228 -0.09024 -0.77392 243 243 239
-0.72752 -0.09990 -0.77272 253 253 252
-0.71112 -0.09398 -0.78131 237 232 238
-0.70399 -0.09410 -0.78817 225 223 230
-0.69690 -0.09754 -0.78229 222 219 227
-0.68978 -0.09966 -0.78145 216 212 215
-0.68263 -0.10131 -0.78246 209 205 208
-0.67523 -0.09962 -0.79650 204 196 200
-0.66819 -0.10361 -0.78847 178 167 170
-0.66137 -0.10957 -0.77267 133 126 123
-0.65402 -0.10964 -0.77993 93 90 88
-0.64693 -0.11245 -0.77647 77 76 77
-0.63982 -0.11496 -0.77413 77 79 76
-0.63238 -0.11524 -0.78071 72 69 69
-0.62479 -0.11499 -0.78942 61 48 51
-0.61048 -0.12019 -0.78422 25 11 17
-0.50777 -0.14857 -0.78093 12 8 18
-0.50058 -0.15119 -0.77829 27 26 48
-0.49256 -0.15185 -0.78397 59 75 121
-0.48764 -0.16182 -0.78273 60 76 140
-0.45970 -0.22906 -0.52242 40 51 149
-0.46824 -0.23358 -0.52459 23 37 127
-0.43977 -0.23463 -0.52157 59 61 195
-0.43282 -0.23607 -0.52317 70 84 214
-0.41740 -0.23687 -0.53590 53 76 200
-0.40667 -0.23324 -0.56077 24 35 184
-0.39355 -0.22669 -0.59926 183 193 237
-0.38899 -0.23594 -0.59811 237 250 254
-0.29973 -0.20084 -0.79420 252 253 254
-0.28982 -0.19560 -0.79169 254 254 254
-0.29225 -0.20334 -0.79231 253 254 254
-0.27577 -0.20677 -0.79609 247 252 254
-0.28084 -0.19649 -0.79737 254 254 254
-0.28328 -0.20426 -0.79799 252 254 254
-0.27333 -0.19900 -0.79547 254 254 254
-0.26583 -0.20151 -0.79357 254 254 254
-0.26871 -0.20972 -0.79205 243 251 254
-0.25877 -0.20446 -0.78954 254 254 254
-0.25964 -0.21067 -0.79769 245 252 254
-0.24967 -0.20540 -0.79517 254 254 254
-0.25164 -0.21273 -0.79803 250 253 252
-0.24166 -0.20745 -0.79550 253 253 254
-0.20748 -0.22869 -0.78222 235 239 244
-0.20992 -0.23647 -0.78284 234 234 234
-0.17886 -0.23986 -0.76884 253 248 242
-0.18879 -0.24512 -0.77135 244 245 248
-0.16946 -0.24091 -0.77445 220 197 198
-0.16229 -0.24369 -0.77119 164 154 186
-0.14097 -0.25981 -0.73137 248 254 254
-0.14597 -0.24968 -0.73264 254 253 254
-0.14837 -0.25734 -0.73325 245 254 254
-0.13856 -0.25215 -0.73076 254 253 254
-0.13116 -0.25463 -0.72889 254 253 254
-0.12737 -0.26557 -0.72330 230 251 254
-0.11758 -0.26039 -0.72082 254 253 254
-0.11991 -0.26799 -0.72167 220 247 254
-0.11012 -0.26282 -0.71919 254 254 254
-0.10996 -0.26881 -0.72874 214 246 254
-0.10013 -0.26361 -0.72625 254 254 254
-0.09798 -0.26841 -0.74254 214 239 254
-0.08808 -0.26317 -0.74003 254 254 254
-0.08784 -0.26926 -0.74970 221 239 254
-0.07923 -0.27109 -0.75151 244 241 230
-0.07545 -0.27584 -0.73721 240 181 170
-0.05452 -0.27739 -0.75274 144 93 182
-0.04466 -0.27860 -0.75821 133 139 227
-0.03887 -0.28212 -0.75068 197 197 236
-0.03077 -0.28435 -0.75046 240 230 223
-0.02567 -0.29470 -0.74917 254 254 253
-0.02501 -0.28784 -0.74301 249 246 235
-0.01992 -0.29816 -0.74172 254 254 254
-0.01133 -0.29360 -0.73502 253 254 253
-0.00625 -0.30390 -0.73373 254 254 254
0.06080 -0.30833 -0.75260 254 254 251
0.05068 -0.31368 -0.75516 254 254 254
0.05832 -0.31624 -0.75323 254 254 254
0.06596 -0.31879 -0.75129 254 254 254
0.06960 -0.31037 -0.75379 254 254 252
0.07476 -0.32085 -0.75249 254 254 254
0.07772 -0.31272 -0.75312 254 254 252
0.08289 -0.32321 -0.75181 254 254 254
0.08653 -0.31479 -0.75425 254 254 252
0.09171 -0.32529 -0.75295 254 254 254
0.09369 -0.31756 -0.75098 254 254 252
0.09886 -0.32806 -0.74967 254 254 254
0.53893 -0.49103 -0.54389 254 252 250
0.52918 -0.49618 -0.54636 254 254 254
0.53823 -0.50123 -0.50416 56 47 40
0.52866 -0.50629 -0.50659 159 140 138
0.54310 -0.51112 -0.50293 119 85 63
0.54311 -0.50393 -0.49885 54 49 38
0.55007 -0.50962 -0.48423 64 55 60
0.54855 -0.51301 -0.46974 66 64 70
0.55798 -0.50802 -0.46735 82 81 90
0.55567 -0.51538 -0.46793 68 70 79
0.55336 -0.52275 -0.46852 57 56 49
0.55422 -0.52490 -0.43008 74 75 75
0.54950 -0.51532 -0.43127 80 80 78
0.54723 -0.52256 -0.43185 74 74 76
0.55649 -0.51766 -0.42950 78 78 79
0.57862 -0.52853 -0.44118 74 76 79
0.58932 -0.53053 -0.44449 49 54 73
0.60157 -0.53240 -0.44989 87 77 102
0.61030 -0.53462 -0.45035 197 219 210
0.62361 -0.53643 -0.45704 236 236 220
0.63772 -0.53821 -0.46473 248 250 236
0.64256 -0.54803 -0.46350 254 254 254
-1.39706 0.38241 -1.94525 27 35 50
-1.39007 0.36824 -1.94349 25 27 45
-1.23134 0.26700 -1.67042 17 15 36
-1.24405 0.26028 -1.67364 7 9 24
-1.22487 0.25388 -1.66879 27 27 43
-0.76822 -0.10177 -0.72299 193 199 205
-0.76214 -0.09534 -0.75427 221 225 227
-0.75534 -0.09548 -0.76082 237 240 236
-0.74849 -0.09565 -0.76731 238 236 240
-0.74153 -0.09691 -0.76970 241 235 246
-0.73679 -0.10653 -0.76850 254 254 254
-0.73456 -0.09773 -0.77377 249 248 252
-0.72980 -0.10739 -0.77256 254 254 254
-0.71342 -0.10254 -0.77719 254 252 250
-0.72280 -0.10750 -0.77957 254 254 254
-0.71572 -0.10986 -0.77778 254 254 254
-0.70864 -0.11223 -0.77599 254 254 254
-0.70632 -0.10311 -0.78238 254 252 248
-0.70153 -0.11283 -0.78117 254 254 254
-0.69919 -0.10419 -0.78564 254 252 247
-0.69438 -0.11393 -0.78442 254 254 254
-0.69204 -0.10570 -0.78723 254 251 244
-0.68723 -0.11546 -0.78602 254 254 254
-0.68485 -0.10693 -0.78993 254 251 243
-0.68003 -0.11671 -0.78872 254 254 253
-0.67751 -0.10618 -0.80051 252 248 237
-0.67005 -0.10498 -0.81295 228 222 210
-0.66318 -0.11145 -0.79502 170 165 162
-0.65585 -0.11241 -0.79896 129 128 130
-0.64904 -0.11803 -0.78424 119 116 127
-0.64121 -0.11531 -0.80295 118 115 127
-0.63373 -0.11596 -0.80823 119 116 122
-0.62618 -0.11647 -0.81414 118 114 115
-0.62175 -0.13524 -0.74596 101 90 85
-0.61328 -0.13007 -0.77483 61 52 44
-0.60565 -0.13011 -0.78267 27 21 19
-0.59846 -0.13248 -0.78095 13 8 13
-0.59127 -0.13488 -0.77913 10 8 14
-0.52473 -0.15144 -0.78430 13 8 19
-0.53198 -0.14902 -0.78614 12 7 18
-0.51728 -0.15339 -0.78451 21 13 24
-0.51003 -0.15584 -0.78257 28 25 35
-0.50165 -0.15563 -0.79211 40 49 79
-0.49478 -0.15905 -0.78605 55 75 135
-0.48986 -0.16903 -0.78481 49 61 118
-0.46123 -0.23479 -0.52721 26 38 143
-0.46980 -0.23932 -0.52938 17 33 121
-0.46333 -0.24148 -0.52775 24 38 132
-0.45617 -0.23923 -0.51527 27 39 170
-0.44947 -0.24096 -0.51558 60 52 196
-0.44161 -0.24092 -0.52389 114 111 229
-0.43696 -0.24581 -0.50979 103 128 232
-0.42855 -0.24507 -0.52143 95 110 224
-0.41902 -0.24293 -0.53969 59 83 202
-0.39876 -0.23771 -0.58105 146 155 196
-0.39424 -0.24688 -0.57991 218 231 237
-0.30477 -0.21144 -0.78101 234 212 223
-0.29388 -0.21022 -0.79710 245 239 239
-0.28657 -0.21292 -0.79426 247 243 242
-0.25459 -0.22101 -0.79624 236 237 233
-0.24688 -0.22334 -0.79523 241 237 237
-0.23086 -0.22751 -0.79577 250 249 249
-0.22087 -0.22222 -0.79324 253 252 250
-0.22332 -0.23003 -0.79386 254 253 253
-0.22577 -0.23783 -0.79448 251 252 253
-0.19550 -0.24199 -0.77650 240 240 243
-0.19043 -0.25226 -0.77522 242 245 250
-0.18377 -0.24953 -0.75946 252 250 245
-0.18619 -0.25725 -0.76007 252 252 249
-0.17397 -0.25026 -0.76687 213 206 203
-0.15322 -0.25900 -0.75461 169 153 176
-0.13819 -0.26393 -0.75115 238 150 228
-0.12887 -0.27262 -0.72716 182 132 208
-0.11457 -0.27789 -0.72164 137 122 201
-0.10654 -0.27996 -0.72197 136 126 236
-0.09486 -0.27982 -0.73471 156 155 243
-0.07467 -0.28169 -0.74850 250 235 221
-0.06651 -0.28383 -0.74871 250 231 227
-0.05915 -0.28644 -0.74627 247 236 226
-0.05408 -0.29674 -0.74499 254 254 254
-0.05176 -0.28903 -0.74395 246 245 245
-0.04669 -0.29932 -0.74267 254 254 254
-0.04380 -0.29129 -0.74347 250 250 252
-0.03872 -0.30160 -0.74218 254 254 254
-0.03696 -0.29418 -0.73942 253 253 252
-0.03188 -0.30447 -0.73814 253 254 254
0.52753 -0.49978 -0.53068 254 250 251
0.52516 -0.50734 -0.53128 252 253 253
0.55018 -0.50031 -0.55224 204 196 220
0.51571 -0.51110 -0.47443 132 116 80
0.53791 -0.51494 -0.48268 112 62 63
0.53559 -0.52235 -0.48327 234 200 198
0.53947 -0.51795 -0.47263 95 50 52
0.54127 -0.52091 -0.46304 73 52 45
0.54605 -0.53062 -0.46183 120 104 64
0.53529 -0.53077 -0.41854 65 58 58
0.53060 -0.52128 -0.41973 72 72 79
0.52835 -0.52846 -0.42030 57 56 60
0.54741 -0.53258 -0.42419 69 63 57
0.55739 -0.53462 -0.42670 67 69 62
0.56964 -0.53645 -0.43235 71 66 60
0.57776 -0.53869 -0.43212 36 43 63
0.59893 -0.53977 -0.45001 146 139 151
0.60839 -0.54194 -0.45149 225 233 221
0.61683 -0.54420 -0.45152 246 236 207
0.62163 -0.55394 -0.45031 253 254 251
0.63221 -0.54589 -0.46099 252 250 244
0.63704 -0.55569 -0.45977 254 254 254
-0.77103 -0.10337 -0.74458 220 222 233
-0.76436 -0.10296 -0.75329 231 234 242
-0.75967 -0.11248 -0.75210 254 254 253
-0.75757 -0.10326 -0.75929 245 248 250
-0.75286 -0.11282 -0.75810 254 254 254
-0.67268 -0.11625 -0.79834 252 250 240
-0.68219 -0.12129 -0.80075 254 254 254
-0.66536 -0.11707 -0.80291 213 208 205
-0.65826 -0.12054 -0.79676 169 162 170
-0.65105 -0.12274 -0.79579 155 147 162
-0.64379 -0.12461 -0.79613 161 154 165
-0.63670 -0.12778 -0.79120 166 163 169
-0.62986 -0.13234 -0.78050 165 167 168
