ply
format ascii 1.0
element face 0
property list uchar int vertex_indices
element vertex 1322
property float x
property float y
property float z
property uchar diffuse_red
property uchar diffuse_green
property uchar diffuse_blue
end_header
-0.35422 0.29160 -1.01937 216 94 85
-0.35000 0.28144 -1.01746 192 82 21
-0.34603 0.29231 -1.02735 198 81 44
-0.33848 0.29101 -1.02935 191 88 22
-0.30244 0.27931 -1.02394 205 109 38
-0.29492 0.27763 -1.02488 197 119 64
-0.28742 0.27584 -1.02554 166 101 69
-0.10387 0.17953 -0.89738 94 18 50
-0.11345 0.17496 -0.90027 108 26 38
-0.08183 0.19546 -0.95726 126 115 145
-0.07196 0.20016 -0.95428 179 180 183
-0.08468 0.18066 -0.91464 173 178 187
-0.07500 0.18527 -0.91172 182 181 184
-0.07774 0.17791 -0.91223 184 180 185
-0.04220 0.15485 -0.87536 196 196 199
-0.02758 0.15032 -0.87375 212 206 187
-0.01389 0.15454 -0.89539 129 106 94
-0.00730 0.15140 -0.89168 88 69 74
0.00379 0.15274 -0.90353 128 133 143
0.00786 0.14711 -0.89112 72 70 103
0.01732 0.14674 -0.89708 107 109 103
0.02654 0.14606 -0.90203 143 133 112
0.03795 0.14734 -0.91395 170 144 119
0.04223 0.13704 -0.91202 228 232 223
0.04719 0.14651 -0.91850 210 202 185
0.05798 0.14702 -0.92787 229 230 217
0.06781 0.14658 -0.93392 219 222 187
0.07597 0.14461 -0.93456 174 159 146
0.08896 0.14676 -0.95001 132 69 83
0.09334 0.13622 -0.94804 126 35 45
0.09627 0.14396 -0.94774 122 28 44
0.15916 0.13322 -0.96476 68 29 26
0.15471 0.14393 -0.96677 87 22 24
0.15181 0.13613 -0.96731 85 31 27
0.16206 0.14101 -0.96422 79 24 24
0.16941 0.13810 -0.96167 66 24 21
0.17231 0.13465 -0.97839 56 25 18
0.18577 0.13619 -0.99255 50 23 16
0.19029 0.12532 -0.99052 91 75 46
0.37561 0.07087 -0.95388 16 40 65
0.36509 0.06586 -0.95705 18 35 58
0.37263 0.06287 -0.95444 20 37 61
0.38022 0.06635 -0.94491 40 62 68
0.38498 0.06194 -0.93635 59 77 79
0.38952 0.05101 -0.93430 40 59 73
0.39157 0.05851 -0.93181 65 78 89
0.39611 0.04759 -0.92977 42 58 71
0.39999 0.05600 -0.93116 69 79 85
0.40807 0.05331 -0.92977 68 78 86
0.41261 0.04237 -0.92772 40 55 82
0.42153 0.04661 -0.92137 48 63 89
0.43044 0.04432 -0.92166 29 49 77
0.43499 0.03338 -0.91962 22 47 66
0.51032 0.02901 -0.93871 200 193 169
0.52234 0.02783 -0.94436 234 219 198
0.53309 0.01986 -0.93049 241 214 182
0.53903 0.01614 -0.92469 241 210 166
0.54170 0.01113 -0.91295 230 199 150
0.55549 0.01057 -0.92160 216 185 146
0.56589 0.00862 -0.92394 211 186 158
0.56980 0.00414 -0.91456 220 198 170
0.57442 -0.00697 -0.91248 211 178 172
0.58301 0.00324 -0.92185 233 211 188
0.58882 -0.00049 -0.91590 236 212 181
0.59345 -0.01165 -0.91382 227 206 178
0.59070 -0.00566 -0.90314 228 186 122
0.59991 -0.00810 -0.90326 181 123 61
0.60704 -0.01131 -0.89976 202 202 149
0.61408 -0.01453 -0.89612 237 237 181
0.61875 -0.01859 -0.88846 252 241 177
0.62599 -0.02173 -0.88520 254 240 180
0.63459 -0.02440 -0.88424 254 238 177
0.64123 -0.02774 -0.88000 254 238 174
0.64811 -0.03100 -0.87618 254 239 173
0.65733 -0.03347 -0.87620 254 237 165
0.66645 -0.03600 -0.87602 254 234 161
0.66963 -0.04044 -0.86622 250 230 163
0.68100 -0.04225 -0.86966 249 230 168
0.68853 -0.04529 -0.86690 249 232 171
0.69499 -0.04866 -0.86244 249 230 162
0.70049 -0.05231 -0.85649 244 227 154
0.70664 -0.05575 -0.85162 243 222 149
0.71271 -0.05921 -0.84664 225 185 102
0.72645 -0.06041 -0.85349 173 127 41
0.73708 -0.06256 -0.85545 170 131 50
0.73450 -0.06848 -0.83735 189 179 112
0.74948 -0.06940 -0.84587 208 214 160
0.76577 -0.07002 -0.85620 219 220 173
0.77673 -0.07216 -0.85844 225 221 176
0.79258 -0.07301 -0.86782 223 221 170
0.78698 -0.07960 -0.84565 215 213 165
0.79225 -0.08325 -0.83954 212 212 166
0.79815 -0.08673 -0.83438 208 211 162
0.79746 -0.09187 -0.81980 200 205 150
0.79631 -0.09706 -0.80474 195 204 146
0.80361 -0.10011 -0.80179 190 200 144
0.80614 -0.10431 -0.79214 182 188 138
0.85338 -0.13996 -0.72944 144 118 138
0.84310 -0.14485 -0.73254 64 60 98
0.85047 -0.14777 -0.72998 58 51 96
0.85713 -0.14363 -0.72215 137 110 128
0.86634 -0.14616 -0.72202 129 107 119
0.87120 -0.14958 -0.71625 121 105 110
0.88372 -0.15146 -0.72035 111 99 103
0.89345 -0.15392 -0.72080 100 93 101
0.90242 -0.15654 -0.72025 88 90 96
0.90693 -0.16002 -0.71406 83 91 91
0.91721 -0.15512 -0.71095 105 108 113
0.91139 -0.17077 -0.71205 57 58 73
0.91744 -0.16235 -0.71543 78 84 82
0.92775 -0.15744 -0.71232 100 100 118
0.93202 -0.16825 -0.71006 79 72 94
0.94233 -0.16334 -0.70695 82 85 107
0.93942 -0.17118 -0.70749 74 73 92
0.95203 -0.18161 -0.68827 60 62 74
0.95648 -0.19231 -0.68626 58 56 60
1.03015 -0.20198 -0.69016 62 55 56
1.03973 -0.20864 -0.67899 53 54 69
1.03680 -0.21650 -0.67954 54 54 61
1.04470 -0.21193 -0.67367 46 48 64
1.04918 -0.22271 -0.67165 44 37 40
1.06251 -0.21737 -0.67191 66 79 108
1.06868 -0.22441 -0.65720 244 222 198
1.07314 -0.23515 -0.65519 251 234 215
1.07618 -0.22731 -0.65479 247 222 196
1.08663 -0.22984 -0.65559 246 225 202
1.09431 -0.23273 -0.65334 246 225 204
1.17675 -0.25361 -0.65705 250 230 207
1.17222 -0.24270 -0.65910 248 224 203
1.16926 -0.25064 -0.65965 250 230 209
1.17971 -0.24567 -0.65650 246 222 201
1.18719 -0.24863 -0.65390 247 222 195
1.18128 -0.26451 -0.65501 248 235 215
1.19485 -0.25543 -0.66541 250 229 202
1.20536 -0.25043 -0.66224 247 222 204
1.19941 -0.26641 -0.66336 250 235 217
-0.71438 0.43802 -1.17744 152 148 187
-0.72426 0.43332 -1.18041 122 79 75
-0.69786 0.41045 -1.11358 217 224 239
-0.69068 0.40488 -1.10356 230 232 242
-0.68372 0.40137 -1.09906 236 235 233
-0.67831 0.41598 -1.14351 228 198 170
-0.66882 0.38084 -1.05346 211 110 43
-0.59445 0.35984 -1.05114 225 110 27
-0.58758 0.35938 -1.05500 234 115 43
-0.51968 0.32765 -1.01813 199 88 12
-0.51320 0.32221 -1.00794 202 91 21
-0.50648 0.31913 -1.00446 200 99 50
-0.50046 0.31095 -0.98636 201 126 120
-0.49376 0.30815 -0.98363 204 163 183
-0.48713 0.30490 -0.97961 211 195 222
-0.48130 0.29690 -0.96187 219 214 235
-0.47464 0.29419 -0.95936 230 228 235
-0.46829 0.28980 -0.95198 238 236 239
-0.46131 0.28886 -0.95461 239 235 238
-0.45380 0.29029 -0.96419 238 226 229
-0.44489 0.29790 -0.99191 234 200 212
-0.43977 0.28772 -0.96759 228 167 169
-0.43126 0.29264 -0.98756 223 127 130
-0.42427 0.29070 -0.98743 221 101 96
-0.41564 0.29516 -1.00622 223 107 79
-0.40796 0.29545 -1.01279 228 115 82
-0.40041 0.29509 -1.01744 231 110 63
-0.39283 0.29462 -1.02183 232 103 37
-0.38610 0.29115 -1.01726 232 102 31
-0.37922 0.28821 -1.01429 228 102 33
-0.37219 0.28577 -1.01280 217 96 31
-0.36799 0.27566 -1.01091 198 88 8
-0.36453 0.28521 -1.01701 205 86 28
-0.36031 0.27507 -1.01511 194 87 9
-0.35703 0.28403 -1.01936 198 80 22
-0.35281 0.27387 -1.01746 188 86 10
-0.34169 0.28235 -1.02620 182 85 24
-0.33456 0.27989 -1.02476 171 77 22
-0.33031 0.26967 -1.02284 145 38 8
-0.32781 0.27641 -1.02018 162 55 18
-0.32213 0.27026 -1.00744 158 45 12
-0.29690 0.27202 -1.03119 217 118 53
-0.29461 0.25834 -0.99508 215 147 112
-0.28946 0.25154 -0.98014 200 162 127
-0.10314 0.17651 -0.91228 102 20 37
-0.11279 0.17192 -0.91519 109 27 39
-0.10587 0.16918 -0.91279 105 24 29
-0.09547 0.17470 -0.91300 91 49 75
-0.07873 0.17261 -0.91976 186 182 187
-0.06902 0.17723 -0.91683 186 183 188
-0.07177 0.16985 -0.91735 187 185 189
-0.07451 0.16246 -0.91786 188 187 190
-0.02723 0.14618 -0.88527 213 213 206
-0.02091 0.14283 -0.88074 180 162 138
-0.01123 0.14286 -0.88807 78 61 61
-0.00434 0.14005 -0.88548 100 86 91
0.00395 0.13860 -0.88769 90 50 73
0.01905 0.14357 -0.91272 146 134 141
0.03576 0.14038 -0.91643 230 229 209
0.05550 0.13975 -0.92947 213 223 220
0.06516 0.13914 -0.93499 166 150 158
0.07216 0.13616 -0.93202 132 67 79
0.08015 0.13402 -0.93208 127 37 46
0.09725 0.13061 -0.93546 117 28 41
0.10560 0.12869 -0.93641 104 25 37
0.11565 0.13348 -0.93338 96 24 33
0.11281 0.12584 -0.93391 92 24 37
0.12449 0.12650 -0.94449 89 25 33
0.12735 0.13419 -0.94396 89 24 28
0.13460 0.13132 -0.94144 91 28 26
0.13353 0.12502 -0.94717 97 30 24
0.14286 0.12370 -0.95052 103 37 29
0.15199 0.12220 -0.95320 99 47 42
0.16715 0.12514 -0.97267 98 64 37
0.18121 0.12710 -0.98863 98 67 21
0.37813 0.05883 -0.94738 27 42 65
0.36763 0.05382 -0.95054 15 33 55
0.37516 0.05084 -0.94793 16 33 58
0.38542 0.05572 -0.94424 36 55 70
0.38998 0.04475 -0.94218 19 31 60
0.46752 0.02259 -0.91414 27 49 67
0.46297 0.03355 -0.91619 30 53 74
0.46000 0.02557 -0.91675 26 50 69
0.45703 0.01759 -0.91730 20 46 67
0.47572 0.01990 -0.91285 78 91 82
0.49337 0.02124 -0.92978 165 158 116
0.49797 0.01017 -0.92771 208 195 165
0.49697 0.01654 -0.91949 194 176 150
0.51751 0.01894 -0.94151 221 210 193
0.52360 0.01527 -0.93590 239 223 204
0.54381 0.00509 -0.92291 250 225 188
0.55177 0.00220 -0.92087 246 219 180
0.56140 -0.00006 -0.92185 234 208 176
0.56678 -0.00395 -0.91512 220 192 166
0.58308 -0.00962 -0.91165 209 183 169
0.59760 -0.01594 -0.90505 219 197 144
0.61050 -0.01709 -0.91152 159 133 130
0.61281 -0.02201 -0.89966 183 194 163
0.61575 -0.02666 -0.88902 228 230 225
0.62299 -0.02979 -0.88576 249 237 220
0.63159 -0.03247 -0.88480 250 238 221
0.63823 -0.03580 -0.88057 246 239 229
0.64511 -0.03905 -0.87674 245 240 233
0.65447 -0.04149 -0.87700 240 243 228
0.66375 -0.04398 -0.87709 237 242 229
0.67020 -0.04736 -0.87256 235 243 228
0.67874 -0.05009 -0.87142 232 243 227
0.68589 -0.05325 -0.86803 225 244 228
0.69158 -0.05685 -0.86234 220 243 227
0.69700 -0.06051 -0.85628 215 237 223
0.70505 -0.06338 -0.85436 208 231 217
0.71147 -0.06673 -0.84991 200 221 195
0.72097 -0.06919 -0.85024 192 199 151
0.72610 -0.07290 -0.84383 179 170 132
0.74170 -0.07367 -0.85337 119 103 137
0.74774 -0.07713 -0.84835 115 122 163
0.74816 -0.08210 -0.83492 151 166 194
0.76098 -0.08370 -0.84009 166 170 197
0.76806 -0.08685 -0.83667 160 151 190
0.78180 -0.08827 -0.84304 154 136 183
0.79294 -0.09040 -0.84550 145 125 177
0.79405 -0.09509 -0.83336 134 117 168
0.80638 -0.09694 -0.83749 122 114 154
0.80547 -0.10207 -0.82261 108 105 141
0.79688 -0.10901 -0.79701 89 92 127
0.79242 -0.11484 -0.77754 73 83 115
0.79731 -0.11840 -0.77137 58 68 98
0.80768 -0.11346 -0.76824 175 173 139
0.80475 -0.12135 -0.76879 51 59 91
0.80181 -0.12924 -0.76934 32 31 50
0.86155 -0.15435 -0.72011 54 52 95
0.87658 -0.16011 -0.71544 70 63 78
0.89132 -0.16592 -0.71040 55 54 74
0.89828 -0.16891 -0.70736 56 57 72
0.91420 -0.17451 -0.70379 62 61 78
0.91130 -0.18231 -0.70434 70 68 81
0.91860 -0.17796 -0.69757 72 79 95
0.93203 -0.18814 -0.67948 93 90 95
0.94247 -0.19051 -0.68075 65 60 66
0.96146 -0.19560 -0.68089 57 57 53
0.98039 -0.20075 -0.68083 52 47 69
0.98629 -0.20791 -0.66546 132 168 172
0.99192 -0.21106 -0.66097 122 129 104
1.03037 -0.21342 -0.68323 60 59 62
1.03486 -0.22422 -0.68121 55 55 60
1.04350 -0.21954 -0.67617 50 49 52
1.07312 -0.22737 -0.67670 157 176 183
1.06677 -0.23210 -0.65886 240 238 225
1.08377 -0.23767 -0.65620 246 237 216
1.09081 -0.24064 -0.65326 238 234 207
1.10100 -0.24323 -0.65373 228 226 205
1.11132 -0.23831 -0.65062 250 231 212
1.10753 -0.24626 -0.65022 232 222 214
1.11784 -0.24135 -0.64711 250 230 211
1.11831 -0.24880 -0.65129 235 216 216
1.12865 -0.24388 -0.64817 251 231 214
1.12363 -0.25198 -0.64649 236 216 220
1.13395 -0.24706 -0.64338 251 229 211
1.13272 -0.25472 -0.64571 237 217 219
1.14305 -0.24980 -0.64260 250 228 209
1.14840 -0.25675 -0.65184 234 224 219
1.15844 -0.25942 -0.65197 235 230 214
-0.71655 0.42559 -1.16467 122 111 137
-0.72637 0.42091 -1.16764 121 60 35
-0.70904 0.41881 -1.15147 139 133 151
-0.68657 0.39548 -1.10339 237 239 241
-0.67959 0.39172 -1.09818 238 224 201
-0.67245 0.38564 -1.08664 216 126 68
-0.60396 0.35573 -1.05517 207 100 28
-0.61348 0.35120 -1.05804 204 97 17
-0.57650 0.34934 -1.05820 240 120 39
-0.56693 0.35390 -1.05531 241 113 23
-0.56963 0.34662 -1.05582 237 115 33
-0.51601 0.31387 -1.00511 187 86 2
-0.50921 0.31149 -1.00366 188 85 7
-0.50230 0.30983 -1.00428 181 79 35
-0.49588 0.30464 -0.99466 176 89 78
-0.49049 0.29321 -0.96682 179 121 141
-0.48350 0.29247 -0.97006 191 162 193
-0.47677 0.28999 -0.96827 210 200 213
-0.47044 0.28536 -0.96015 219 208 221
-0.46309 0.28619 -0.96806 219 186 204
-0.45489 0.29082 -0.98720 214 157 156
-0.44836 0.28700 -0.98150 208 117 110
-0.43954 0.29350 -1.00636 202 93 58
-0.43380 0.28604 -0.98988 198 84 27
-0.42968 0.27612 -0.98803 179 79 7
-0.42645 0.28555 -0.99412 196 79 21
-0.42232 0.27561 -0.99226 176 74 11
-0.41876 0.28628 -1.00199 195 81 22
-0.41460 0.27629 -1.00012 177 74 20
-0.41105 0.28677 -1.00921 196 84 29
-0.40688 0.27673 -1.00733 182 80 21
-0.40380 0.28536 -1.01081 203 88 25
-0.39962 0.27531 -1.00892 186 84 12
-0.39636 0.28450 -1.01404 210 93 11
-0.38938 0.28195 -1.01222 213 98 5
-0.38266 0.27858 -1.00792 210 98 4
-0.37847 0.26850 -1.00604 185 84 15
-0.37575 0.27582 -1.00548 203 93 5
-0.37156 0.26575 -1.00360 192 89 11
-0.33930 0.26716 -1.00901 148 50 16
-0.32434 0.26426 -1.01226 161 54 7
-0.29413 0.25827 -1.01850 214 118 69
-0.28635 0.25714 -1.02125 224 176 148
-0.27673 0.25986 -1.03618 216 196 156
-0.27045 0.25530 -1.02819 168 141 84
-0.09766 0.16801 -0.91578 84 18 50
-0.08234 0.16421 -0.91682 181 186 194
-0.07813 0.15408 -0.91492 180 177 190
-0.02709 0.14177 -0.89614 212 213 214
-0.01843 0.14074 -0.89983 205 194 185
-0.01175 0.13768 -0.89637 114 81 114
-0.00500 0.13471 -0.89321 121 101 125
0.01058 0.14019 -0.92035 176 160 138
0.01600 0.13585 -0.91234 215 212 199
0.02357 0.13354 -0.91164 224 225 227
0.03292 0.13284 -0.91682 220 228 229
0.04224 0.13205 -0.92167 197 203 202
0.05153 0.13117 -0.92627 149 125 133
0.06061 0.13005 -0.93005 128 56 71
0.06896 0.12824 -0.93135 136 44 50
0.07649 0.12572 -0.93004 134 43 50
0.08623 0.12502 -0.93549 120 31 44
0.09325 0.12203 -0.93248 108 19 26
0.10313 0.12135 -0.93809 104 19 18
0.11086 0.11890 -0.93712 107 26 25
0.12137 0.11861 -0.94428 117 46 41
0.11021 0.10157 -0.88823 141 99 90
0.16586 0.13558 -1.02548 192 168 161
0.16393 0.12551 -0.99591 240 217 193
0.17294 0.12371 -0.99771 236 218 161
0.18549 0.12442 -1.00926 174 150 83
0.18771 0.11767 -0.99207 116 91 51
0.30304 0.09763 -1.02377 37 45 59
0.29839 0.10882 -1.02586 42 50 63
0.29536 0.10067 -1.02643 43 50 62
0.29233 0.09252 -1.02700 43 50 65
0.31045 0.09442 -1.02043 27 37 54
0.31510 0.08322 -1.01834 16 30 47
0.46082 0.01299 -0.90734 27 48 66
0.45036 0.00801 -0.91049 25 42 65
0.46725 0.00956 -0.90266 91 103 95
0.48414 0.01056 -0.91828 188 189 154
0.50440 0.00668 -0.92286 203 190 169
0.51735 0.00585 -0.93035 213 207 196
0.52621 0.00332 -0.93002 225 218 206
0.53226 -0.00034 -0.92442 228 223 211
0.54080 -0.00300 -0.92348 227 222 213
0.54688 -0.00662 -0.91799 228 223 208
0.56521 -0.01150 -0.91828 221 222 205
0.57696 -0.01302 -0.92298 214 215 202
0.58154 -0.01718 -0.91484 201 201 190
0.58688 -0.02104 -0.90813 183 184 172
0.59146 -0.02514 -0.90014 162 166 140
0.60690 -0.02543 -0.91108 157 157 149
0.61076 -0.02977 -0.90188 115 121 146
0.62765 -0.02966 -0.91505 133 147 176
0.63215 -0.03378 -0.90695 173 188 212
0.64559 -0.03491 -0.91399 179 175 209
0.65712 -0.03672 -0.91770 167 165 208
0.66933 -0.03835 -0.92246 163 160 200
0.67364 -0.04252 -0.91408 149 145 185
0.67315 -0.04817 -0.89793 140 129 180
0.67550 -0.05287 -0.88660 134 112 176
0.67313 -0.05896 -0.86778 126 104 172
0.67638 -0.06328 -0.85819 108 98 167
0.68045 -0.06732 -0.84999 97 88 156
0.68689 -0.07064 -0.84561 83 81 145
0.70048 -0.07189 -0.85246 61 69 127
0.70889 -0.07466 -0.85112 40 55 103
0.71742 -0.07740 -0.84995 41 50 82
0.72202 -0.08846 -0.84788 89 85 55
0.72533 -0.08032 -0.84780 49 48 75
0.73519 -0.08271 -0.84862 43 42 76
0.73914 -0.08671 -0.84045 33 46 77
0.74582 -0.08996 -0.83645 30 41 77
0.75351 -0.09294 -0.83399 38 42 77
0.76048 -0.09610 -0.83046 44 45 83
0.76507 -0.10714 -0.82839 54 44 55
0.76686 -0.09941 -0.82606 37 38 83
0.77144 -0.11044 -0.82399 43 34 46
0.77385 -0.10256 -0.82259 33 36 86
0.77812 -0.10637 -0.81518 38 37 95
0.78096 -0.11052 -0.80577 51 50 104
0.78637 -0.11401 -0.80013 54 52 98
0.78698 -0.11862 -0.78772 43 36 87
0.79312 -0.12190 -0.78323 34 28 74
0.79764 -0.13278 -0.78119 38 35 41
0.79642 -0.12582 -0.77479 33 30 56
0.84769 -0.15995 -0.71845 35 32 52
0.83746 -0.16481 -0.72153 58 59 56
0.85862 -0.16215 -0.72062 46 51 73
0.87210 -0.16388 -0.72603 91 101 85
0.87547 -0.16756 -0.71830 92 90 58
0.87590 -0.17177 -0.70686 55 54 46
0.88494 -0.17436 -0.70651 50 47 62
0.89355 -0.17704 -0.70558 64 60 74
0.90422 -0.17935 -0.70724 75 71 89
0.91158 -0.18645 -0.69300 67 74 86
0.92167 -0.19711 -0.67089 91 89 95
0.92607 -0.20769 -0.66891 61 60 61
0.93599 -0.19885 -0.67694 66 59 63
0.95850 -0.20339 -0.68136 68 68 85
0.96294 -0.21407 -0.67936 67 63 80
0.96600 -0.20627 -0.67901 66 59 68
0.97044 -0.21696 -0.67701 64 60 74
0.97362 -0.20914 -0.67680 60 52 77
0.97195 -0.21339 -0.66367 77 94 126
0.98561 -0.21534 -0.66858 111 143 161
0.98868 -0.21886 -0.66110 107 116 124
1.01474 -0.21910 -0.68023 85 88 97
1.02505 -0.22162 -0.68103 62 60 70
1.02953 -0.23240 -0.67901 58 58 59
1.04731 -0.23431 -0.66252 23 29 56
1.04672 -0.23824 -0.65107 118 137 152
1.06386 -0.23993 -0.65941 210 233 229
1.07072 -0.24291 -0.65627 231 210 208
1.07301 -0.24645 -0.64814 217 187 187
1.08586 -0.24871 -0.65158 190 170 171
1.10228 -0.25059 -0.65882 148 146 159
1.10883 -0.25363 -0.65532 162 156 178
1.11685 -0.25650 -0.65340 180 158 172
1.12623 -0.25922 -0.65292 184 156 165
1.12635 -0.26295 -0.64261 182 156 167
1.14008 -0.26521 -0.64672 172 163 177
1.14784 -0.26812 -0.64451 175 165 176
1.16473 -0.27010 -0.65180 196 188 192
1.18343 -0.27195 -0.66085 224 214 216
-0.71180 0.41140 -1.15202 122 111 124
-0.70465 0.40733 -1.14609 130 129 136
-0.69699 0.39849 -1.12704 164 167 194
-0.68955 0.39081 -1.11111 212 214 233
-0.68247 0.38622 -1.10362 235 234 224
-0.67480 0.37416 -1.07553 220 151 110
-0.60666 0.34935 -1.05809 205 104 35
-0.57912 0.34470 -1.06623 237 123 43
-0.57216 0.34359 -1.06846 229 113 32
-0.55846 0.33653 -1.05911 215 106 23
-0.51866 0.30685 -1.00607 159 69 8
-0.51457 0.29699 -1.00422 134 57 14
-0.51192 0.30399 -1.00320 159 69 8
-0.50782 0.29413 -1.00135 134 57 15
-0.50501 0.30240 -1.00405 158 67 11
-0.50090 0.29253 -1.00220 136 56 16
-0.49814 0.30037 -1.00363 156 60 19
-0.49139 0.29748 -1.00068 155 66 45
-0.48504 0.29210 -0.99041 163 96 93
-0.47835 0.28909 -0.98707 180 133 133
-0.47138 0.28756 -0.98811 188 134 143
-0.46539 0.28086 -0.97386 189 102 115
-0.45641 0.28936 -1.00474 190 85 54
-0.44936 0.28771 -1.00554 190 84 23
-0.44522 0.27775 -1.00368 172 79 7
-0.44267 0.28434 -1.00119 188 84 10
-0.43853 0.27439 -0.99933 169 77 9
-0.43656 0.27849 -0.98941 183 82 6
-0.43244 0.26858 -0.98755 166 74 9
-0.39248 0.27336 -1.00893 186 84 7
-0.38830 0.26330 -1.00705 165 73 17
-0.38576 0.27003 -1.00471 183 84 10
-0.33511 0.25695 -1.00688 154 53 3
-0.28953 0.24877 -1.01896 210 124 88
-0.27953 0.25232 -1.03670 224 185 164
-0.27061 0.25330 -1.04636 216 200 171
-0.26533 0.24664 -1.03164 170 144 105
-0.09690 0.16488 -0.93089 97 15 48
-0.10664 0.16024 -0.93383 101 31 40
-0.09965 0.15747 -0.93141 99 25 40
-0.08664 0.16599 -0.94194 98 79 101
-0.01829 0.13622 -0.91068 209 205 208
-0.02806 0.13157 -0.91363 205 204 214
-0.02105 0.12879 -0.91120 207 206 215
-0.00945 0.13524 -0.91473 197 187 189
-0.00052 0.13429 -0.91896 211 210 199
0.00650 0.13148 -0.91642 220 222 207
0.01322 0.12838 -0.91287 217 227 223
0.02078 0.12606 -0.91216 203 215 218
0.03181 0.12686 -0.92292 168 144 171
0.03925 0.12435 -0.92158 124 76 92
0.04904 0.12389 -0.92785 122 50 55
0.05755 0.12226 -0.92981 139 50 52
0.06543 0.12006 -0.92967 141 43 46
0.07266 0.11729 -0.92743 135 31 29
0.08222 0.11643 -0.93238 129 24 21
0.08905 0.11331 -0.92884 134 47 35
0.08261 0.09962 -0.88526 153 101 84
0.11702 0.11831 -0.96454 198 166 156
0.13019 0.11142 -0.95525 254 249 219
0.13461 0.10079 -0.95327 254 254 254
0.17747 0.11283 -0.99569 233 221 189
0.19094 0.11411 -1.00971 166 142 103
0.29802 0.08829 -1.01945 36 44 61
0.30507 0.08489 -1.01531 27 35 52
0.30971 0.07373 -1.01322 14 24 42
0.45409 0.00343 -0.90044 35 52 67
0.44367 -0.00153 -0.90358 43 46 56
0.45114 -0.00449 -0.90099 39 46 55
0.46430 0.00162 -0.90322 86 105 98
0.48035 0.00221 -0.91726 144 168 159
0.48732 -0.00102 -0.91352 158 175 177
0.49710 -0.00311 -0.91517 145 153 161
0.50488 -0.00601 -0.91298 133 139 161
0.51552 -0.00780 -0.91614 130 136 171
0.52943 -0.00835 -0.92532 130 134 173
0.53743 -0.01123 -0.92337 130 131 172
0.54882 -0.01283 -0.92763 129 120 169
0.56404 -0.01305 -0.93877 120 102 165
0.57812 -0.01375 -0.94764 111 91 161
0.58850 -0.01587 -0.94969 99 85 151
0.59908 -0.01794 -0.95201 92 86 137
0.60199 -0.02274 -0.94071 83 72 116
0.59238 -0.03185 -0.90759 57 51 83
0.59716 -0.03586 -0.89997 34 43 73
0.60867 -0.03756 -0.90404 45 51 76
0.61892 -0.03972 -0.90587 29 24 73
0.62969 -0.04173 -0.90849 15 20 72
0.63794 -0.04459 -0.90679 13 25 76
0.64635 -0.04740 -0.90535 15 27 78
0.65101 -0.05860 -0.90326 63 71 66
0.65010 -0.05169 -0.89613 19 30 78
0.65291 -0.05624 -0.88546 14 24 70
0.65753 -0.06737 -0.88338 38 41 36
0.65596 -0.06068 -0.87530 11 19 62
0.66056 -0.07176 -0.87323 41 44 49
0.66874 -0.06744 -0.86610 15 25 75
0.67331 -0.07134 -0.85861 18 28 77
0.68338 -0.07361 -0.85996 40 44 106
0.69189 -0.07635 -0.85880 40 40 95
0.70134 -0.07884 -0.85908 35 39 81
0.70681 -0.08245 -0.85311 35 43 70
0.71367 -0.08566 -0.84934 62 63 60
0.73197 -0.09084 -0.84885 72 70 41
0.73551 -0.09493 -0.84004 50 48 47
0.74125 -0.09841 -0.83465 37 40 52
0.75511 -0.09980 -0.84142 60 59 89
0.75972 -0.11088 -0.83935 40 40 64
0.76508 -0.10222 -0.84229 69 65 96
0.76970 -0.11332 -0.84021 40 35 46
0.77221 -0.11509 -0.81148 52 44 69
0.76171 -0.12009 -0.81465 36 30 40
0.76924 -0.12308 -0.81204 39 30 50
0.77678 -0.12607 -0.80943 39 34 60
0.78042 -0.11791 -0.80984 68 63 93
0.78636 -0.12128 -0.80493 66 62 89
0.78042 -0.12739 -0.78311 50 41 67
0.78493 -0.13825 -0.78108 41 36 43
0.78468 -0.13107 -0.77600 41 33 53
0.78918 -0.14191 -0.77397 41 38 39
0.83292 -0.16135 -0.72780 85 111 100
0.82847 -0.15065 -0.72980 66 78 88
0.82558 -0.15844 -0.73034 65 93 91
0.83582 -0.15356 -0.72725 76 90 97
0.84166 -0.16833 -0.71486 39 31 39
0.83877 -0.17608 -0.71540 36 25 31
0.84609 -0.17898 -0.71287 30 27 26
0.85157 -0.17073 -0.71573 35 43 51
0.85951 -0.17352 -0.71398 53 71 57
0.86395 -0.18420 -0.71199 35 26 24
0.86538 -0.17669 -0.70956 56 65 43
0.86986 -0.18012 -0.70336 40 44 40
0.87823 -0.18282 -0.70218 42 43 51
0.88586 -0.18567 -0.70004 60 62 65
0.89774 -0.18777 -0.70326 72 79 80
0.89737 -0.19200 -0.69106 64 63 71
0.90164 -0.19540 -0.68475 51 52 61
0.90914 -0.19825 -0.68249 53 60 64
0.91903 -0.20072 -0.68317 68 78 95
0.92590 -0.20368 -0.68010 67 70 79
0.93031 -0.21431 -0.67811 58 62 60
0.95476 -0.21130 -0.68089 67 66 97
0.95920 -0.22198 -0.67889 57 58 67
0.98451 -0.21889 -0.68241 62 73 88
1.01157 -0.22697 -0.68050 63 59 84
1.03586 -0.24700 -0.64271 72 85 103
1.04673 -0.24946 -0.64415 132 157 173
1.05536 -0.25221 -0.64306 165 143 160
1.06878 -0.25440 -0.64722 186 137 126
1.08827 -0.25593 -0.65794 183 134 137
1.09361 -0.25910 -0.65314 156 134 127
1.10590 -0.26149 -0.65587 166 156 164
1.11392 -0.26436 -0.65395 181 165 147
1.12330 -0.26710 -0.65347 184 164 128
1.12344 -0.27079 -0.64316 183 162 126
1.13429 -0.27337 -0.64425 173 155 139
1.14124 -0.27635 -0.64120 172 136 139
1.14783 -0.27937 -0.63779 185 145 137
1.15459 -0.28236 -0.63455 182 153 171
-0.70812 0.40581 -1.16285 118 111 115
-0.71794 0.40113 -1.16581 112 85 87
-0.71090 0.39834 -1.16337 116 107 113
-0.70041 0.39718 -1.14430 126 120 133
-0.69195 0.38037 -1.10299 163 161 191
-0.68540 0.38105 -1.11006 211 213 225
-0.67784 0.37099 -1.08731 222 183 158
-0.63000 0.35502 -1.07924 197 98 19
-0.63416 0.36503 -1.08112 214 107 8
-0.63958 0.35045 -1.08213 227 115 12
-0.62729 0.36231 -1.07873 193 97 11
-0.62041 0.35958 -1.07635 208 103 5
-0.62312 0.35229 -1.07686 202 102 8
-0.61622 0.34733 -1.06812 215 105 23
-0.60936 0.34415 -1.06442 216 113 48
-0.59566 0.33912 -1.06083 232 131 87
-0.58876 0.33852 -1.06452 229 129 79
-0.58171 0.34159 -1.07878 224 112 32
-0.57469 0.34125 -1.08329 211 98 26
-0.57049 0.33113 -1.08140 183 79 2
-0.56083 0.33537 -1.07740 188 85 6
-0.49407 0.29022 -1.00099 140 57 15
-0.50353 0.28572 -1.00384 125 54 16
-0.49675 0.28303 -1.00149 128 52 16
-0.48997 0.28035 -0.99914 129 50 13
-0.48740 0.28684 -0.99655 144 62 24
-0.48082 0.28307 -0.99097 148 67 35
-0.47324 0.28488 -1.00208 151 66 37
-0.46620 0.28344 -1.00349 158 64 30
-0.45938 0.28073 -1.00110 166 71 15
-0.45245 0.27861 -1.00048 171 79 7
-0.44832 0.26867 -0.99862 154 71 14
-0.42492 0.26873 -0.99387 165 72 13
-0.43445 0.26420 -0.99675 157 68 14
-0.41736 0.26881 -1.00000 170 79 28
-0.40252 0.26736 -1.00751 173 93 30
-0.39531 0.26571 -1.00844 168 76 14
-0.39112 0.25565 -1.00656 161 71 14
-0.36666 0.25779 -1.00829 181 89 9
-0.37359 0.26054 -1.01069 180 85 14
-0.37633 0.25318 -1.01121 169 85 16
-0.28832 0.25010 -1.04771 203 94 32
-0.28705 0.23466 -1.00469 207 129 102
-0.27226 0.24816 -1.05476 220 193 190
-0.26447 0.24658 -1.05635 215 202 185
-0.25911 0.24008 -1.04202 183 158 124
-0.01108 0.12890 -0.91932 211 211 215
-0.00329 0.12683 -0.91953 208 215 222
0.00541 0.12559 -0.92278 199 212 223
0.01607 0.12611 -0.93262 168 154 195
0.01900 0.11949 -0.91606 119 81 121
0.02906 0.11938 -0.92360 109 38 69
0.03569 0.11616 -0.91961 128 35 49
0.04555 0.11575 -0.92618 145 34 29
0.05344 0.11358 -0.92618 154 34 26
0.06208 0.11203 -0.92852 156 53 36
0.05897 0.10072 -0.89383 169 105 84
0.08770 0.11559 -0.95871 212 171 157
0.09647 0.11392 -0.96081 246 224 198
0.10088 0.10331 -0.95883 254 254 254
0.10141 0.10919 -0.95121 254 249 218
0.10581 0.09862 -0.94923 254 254 254
0.11169 0.10867 -0.95776 254 254 241
0.11610 0.09805 -0.95578 254 254 254
0.17107 0.10246 -0.98655 254 250 239
0.16070 0.09752 -0.98968 254 254 254
0.18388 0.10327 -0.99889 224 208 181
0.19486 0.10271 -1.00590 127 99 76
0.27922 0.07837 -1.00256 43 51 62
0.27462 0.08944 -1.00463 46 55 70
0.27162 0.08138 -1.00520 49 54 66
0.29752 0.07414 -1.00485 23 28 50
0.30213 0.06304 -1.00278 22 23 31
0.46084 -0.00653 -0.90278 42 53 59
0.45039 -0.01150 -0.90593 43 41 58
0.45788 -0.01447 -0.90333 50 55 57
0.46989 -0.00886 -0.90324 45 60 70
0.47812 -0.01153 -0.90206 37 50 79
0.48785 -0.01362 -0.90373 23 37 75
0.49240 -0.02457 -0.90169 44 47 48
0.49556 -0.01652 -0.90149 18 35 69
0.50011 -0.02747 -0.89944 53 52 52
0.50743 -0.01782 -0.90709 19 32 65
0.51200 -0.02881 -0.90503 50 48 50
0.52423 -0.01728 -0.92178 19 29 63
0.53555 -0.01889 -0.92604 29 30 64
0.54920 -0.01968 -0.93447 27 26 66
0.56089 -0.02126 -0.93914 14 19 68
0.56835 -0.02439 -0.93604 15 24 75
0.56897 -0.02997 -0.92062 22 33 89
0.58304 -0.03075 -0.92942 45 59 100
0.57472 -0.03935 -0.89839 38 38 79
0.57691 -0.04421 -0.88625 45 33 65
0.58296 -0.04771 -0.88101 42 50 60
0.60112 -0.04718 -0.89676 73 80 77
0.60658 -0.05090 -0.89042 74 84 79
0.61809 -0.05265 -0.89445 47 41 44
0.62802 -0.05494 -0.89570 43 45 48
0.64019 -0.05654 -0.90067 47 56 52
0.64624 -0.06546 -0.87997 50 55 49
0.67045 -0.07933 -0.85938 39 41 44
0.65988 -0.08436 -0.86257 43 40 39
0.66746 -0.08737 -0.85994 34 30 28
0.67645 -0.08278 -0.85425 56 69 79
0.68927 -0.08430 -0.85995 50 60 53
0.70222 -0.08583 -0.86574 38 39 38
0.70684 -0.09694 -0.86367 34 30 35
0.70683 -0.08968 -0.85838 35 37 50
0.71438 -0.09271 -0.85565 40 43 59
0.72028 -0.09618 -0.85038 47 58 62
0.72810 -0.09913 -0.84809 45 50 47
0.73271 -0.11021 -0.84601 36 29 38
0.73141 -0.10326 -0.83892 40 36 45
0.73600 -0.11429 -0.83686 34 28 31
0.73454 -0.10739 -0.82958 31 31 46
0.73911 -0.11839 -0.82752 34 31 34
0.73960 -0.11101 -0.82323 30 36 59
0.74416 -0.12199 -0.82118 38 32 29
0.77192 -0.13190 -0.78899 37 37 60
0.76150 -0.13686 -0.79213 32 21 40
0.76897 -0.13982 -0.78954 30 23 43
0.77644 -0.14278 -0.78695 32 28 36
0.77331 -0.13624 -0.77772 38 35 50
0.77781 -0.14707 -0.77569 40 37 36
0.81677 -0.16740 -0.72293 40 51 55
0.81234 -0.15674 -0.72493 32 44 58
0.80946 -0.16450 -0.72547 32 34 37
0.80657 -0.17226 -0.72601 41 40 36
0.85233 -0.18208 -0.70893 27 27 26
0.86457 -0.18829 -0.70080 32 28 28
0.87248 -0.19108 -0.69905 34 38 37
0.87690 -0.20171 -0.69706 49 48 53
0.87882 -0.19414 -0.69531 48 51 54
0.88600 -0.19705 -0.69263 55 58 60
0.88778 -0.20085 -0.68318 51 50 56
0.92326 -0.21138 -0.68094 59 62 67
0.97122 -0.22421 -0.68192 58 58 63
0.97948 -0.22700 -0.68044 56 63 72
0.98774 -0.22979 -0.67896 47 61 77
0.99554 -0.23265 -0.67692 43 51 59
1.00248 -0.23562 -0.67387 49 50 62
1.01878 -0.24126 -0.67058 61 64 56
1.03534 -0.25447 -0.64589 40 47 67
1.03923 -0.25776 -0.63956 117 117 133
1.04769 -0.26052 -0.63831 173 168 154
1.05797 -0.26308 -0.63907 213 198 144
1.06534 -0.26597 -0.63659 238 215 183
1.06945 -0.26921 -0.63057 250 234 184
1.07387 -0.27985 -0.62858 249 237 219
1.08492 -0.27125 -0.63688 251 240 204
1.08936 -0.28193 -0.63488 248 237 221
1.09928 -0.27343 -0.64189 251 241 204
1.10374 -0.28416 -0.63988 248 237 222
1.11878 -0.27513 -0.65232 250 239 199
1.12327 -0.28594 -0.65030 248 237 221
1.14234 -0.28383 -0.64598 253 230 187
1.14473 -0.28723 -0.63814 241 207 157
1.15167 -0.29021 -0.63509 198 160 144
1.13681 -0.29510 -0.60951 177 130 143
1.13660 -0.29865 -0.59924 150 141 164
1.15794 -0.30035 -0.61111 188 195 207
-0.68786 0.37104 -1.10308 161 154 171
-0.68055 0.36373 -1.08782 199 178 176
-0.67444 0.36981 -1.11020 205 114 48
-0.66741 0.36564 -1.10377 210 98 10
-0.65777 0.37023 -1.10086 219 98 6
-0.66050 0.36290 -1.10138 215 96 7
-0.66322 0.35557 -1.10189 211 98 10
-0.63273 0.34834 -1.08150 205 100 18
-0.64233 0.34377 -1.08440 231 111 22
-0.62857 0.33832 -1.07963 194 92 11
-0.62582 0.34446 -1.07583 197 98 10
-0.61894 0.34093 -1.07113 217 112 24
-0.61479 0.33094 -1.06926 213 122 59
-0.61207 0.33749 -1.06667 216 119 57
-0.60521 0.33774 -1.07284 220 131 73
-0.59834 0.33364 -1.06650 218 118 66
-0.59136 0.33731 -1.08262 210 102 50
-0.58717 0.32722 -1.08073 181 84 4
-0.58426 0.34118 -1.09940 200 93 11
-0.48347 0.27600 -0.99180 130 51 15
-0.49290 0.27151 -0.99464 123 50 11
-0.48613 0.26883 -0.99230 124 50 10
-0.47937 0.26615 -0.98996 126 51 11
-0.47627 0.27575 -0.99677 132 54 16
-0.47216 0.26586 -0.99492 127 54 9
-0.46954 0.27274 -0.99345 137 57 14
-0.46544 0.26285 -0.99160 129 57 15
-0.46251 0.27130 -0.99490 143 63 14
-0.45840 0.26140 -0.99305 133 61 21
-0.45570 0.26866 -0.99272 149 69 14
-0.45159 0.25876 -0.99087 139 64 18
-0.42823 0.25905 -0.98686 161 80 27
-0.40577 0.25817 -1.00218 166 104 55
-0.39882 0.25570 -1.00060 161 73 15
-0.39465 0.24568 -0.99872 160 74 10
-0.35810 0.23777 -0.98132 77 27 21
-0.35120 0.23516 -0.97928 95 40 17
-0.28345 0.24088 -1.04959 196 93 47
-0.26744 0.23868 -1.05598 218 205 215
-0.26018 0.23598 -1.05397 212 202 191
-0.25160 0.23582 -1.06034 179 160 125
-0.09794 0.15539 -0.95082 99 28 41
-0.10498 0.15818 -0.95326 102 28 44
-0.10776 0.15071 -0.95378 105 21 47
-0.09178 0.15156 -0.94469 65 15 40
-0.07851 0.15593 -0.96782 137 137 151
-0.02573 0.12922 -0.93282 197 197 214
-0.03001 0.13951 -0.93474 202 203 211
-0.03280 0.13202 -0.93527 199 200 208
-0.01811 0.12696 -0.93237 195 203 218
-0.01167 0.12354 -0.92766 188 205 219
-0.00066 0.12449 -0.93912 154 147 184
0.00560 0.12087 -0.93368 114 81 104
0.01020 0.11576 -0.92261 112 25 59
0.01727 0.11296 -0.92017 128 15 42
0.02626 0.11185 -0.92413 141 21 32
0.03149 0.10742 -0.91551 147 47 59
0.04227 0.10779 -0.92514 177 108 102
0.05157 0.10682 -0.92976 224 180 165
0.05753 0.10301 -0.92351 249 229 198
0.06184 0.09263 -0.92157 254 254 254
0.06667 0.10184 -0.92739 254 250 218
0.07100 0.09142 -0.92544 254 254 254
0.07904 0.10322 -0.94120 254 254 242
0.08340 0.09272 -0.93923 254 254 254
0.08581 0.10001 -0.93735 254 254 253
0.09016 0.08953 -0.93539 254 254 254
0.16813 0.09457 -0.98710 254 254 252
0.15776 0.08963 -0.99023 254 254 254
0.16520 0.08668 -0.98765 254 254 254
0.17615 0.09203 -0.98615 254 248 234
0.18850 0.09242 -0.99709 227 201 173
0.20002 0.09216 -1.00551 175 136 108
0.21618 0.07909 -0.98071 127 93 35
0.22233 0.07530 -0.97469 60 43 59
0.23273 0.08026 -0.97155 51 53 72
0.22899 0.07185 -0.97004 52 51 69
0.23938 0.07680 -0.96690 51 56 74
0.23798 0.06985 -0.97142 50 54 68
0.24839 0.07481 -0.96828 48 57 65
0.27410 0.06906 -0.99786 41 48 53
0.28285 0.06674 -0.99811 31 38 46
0.28744 0.05568 -0.99604 29 25 40
0.29168 0.06444 -0.99851 24 23 40
0.30424 0.05695 -0.98691 26 27 38
0.30723 0.06498 -0.98635 15 24 43
0.31481 0.06198 -0.98372 18 23 41
0.30767 0.05167 -0.97444 26 28 33
0.31819 0.05668 -0.97127 21 24 44
0.31452 0.04830 -0.97019 31 32 45
0.32503 0.05331 -0.96702 19 26 46
0.31960 0.04401 -0.96185 32 33 48
0.33008 0.04900 -0.95869 20 28 47
0.32712 0.04103 -0.95924 32 32 44
0.41199 -0.00334 -0.89891 39 43 55
0.40749 0.00748 -0.90093 32 42 44
0.40456 -0.00040 -0.90148 39 46 49
0.41648 -0.01416 -0.89689 51 53 67
0.42934 -0.00816 -0.89883 62 70 52
0.43678 -0.01111 -0.89625 51 54 51
0.43385 -0.01900 -0.89680 50 50 48
0.46864 -0.01612 -0.90714 65 82 52
0.45817 -0.02110 -0.91030 38 39 46
0.47620 -0.01908 -0.90463 69 81 44
0.48299 -0.02233 -0.90064 52 46 49
0.48753 -0.03327 -0.89859 36 39 39
0.53244 -0.02703 -0.92642 65 65 43
0.54162 -0.02949 -0.92664 63 61 40
0.54625 -0.04062 -0.92455 23 23 40
0.55180 -0.03160 -0.92863 34 30 42
0.55644 -0.04277 -0.92654 28 27 42
0.56043 -0.03430 -0.92772 35 37 48
0.56431 -0.03866 -0.91824 42 48 67
0.58610 -0.03680 -0.94091 60 80 93
0.57126 -0.04756 -0.89813 46 56 51
0.57457 -0.05201 -0.88795 39 40 53
0.57906 -0.05603 -0.87994 29 42 59
0.59052 -0.05773 -0.88414 37 57 67
0.60008 -0.06009 -0.88495 45 49 61
0.60467 -0.07113 -0.88289 34 28 42
0.61227 -0.06163 -0.89020 37 30 43
0.61687 -0.07272 -0.88812 36 35 32
0.62185 -0.06403 -0.89091 35 34 33
0.62646 -0.07513 -0.88883 31 32 36
0.63324 -0.06588 -0.89462 34 36 47
0.63787 -0.07702 -0.89253 34 32 43
0.63353 -0.07115 -0.87968 39 40 59
0.63609 -0.07568 -0.86867 35 32 49
0.63913 -0.08002 -0.85859 24 33 44
0.64668 -0.08301 -0.85598 37 41 46
0.68451 -0.09285 -0.85771 36 41 45
0.68910 -0.10390 -0.85564 30 26 43
0.69441 -0.09522 -0.85873 33 33 35
0.70606 -0.10218 -0.84795 33 29 34
0.71564 -0.10467 -0.84841 36 35 47
0.72095 -0.10826 -0.84228 37 34 46
0.72554 -0.11930 -0.84022 41 37 40
0.81075 -0.17576 -0.71925 42 42 40
0.82738 -0.18116 -0.71690 51 44 29
0.83308 -0.18436 -0.71223 44 37 37
0.84010 -0.18730 -0.70933 41 41 44
0.84452 -0.19794 -0.70734 68 74 84
0.84488 -0.19064 -0.70351 49 50 53
0.85065 -0.19379 -0.69902 60 53 56
0.86406 -0.19976 -0.69249 48 49 50
0.87852 -0.20554 -0.68734 44 43 48
0.87565 -0.21325 -0.68788 37 37 36
0.88391 -0.20872 -0.68245 44 50 65
0.89313 -0.21129 -0.68238 90 99 96
0.90822 -0.21697 -0.67801 66 58 66
0.91969 -0.21923 -0.68063 52 44 52
0.92889 -0.22184 -0.68043 53 48 63
0.94270 -0.22379 -0.68579 62 62 68
0.98775 -0.23721 -0.68293 41 55 66
0.99221 -0.24795 -0.68092 33 31 28
0.99541 -0.24396 -0.66958 39 44 39
1.00157 -0.24702 -0.66566 37 39 48
1.00901 -0.24992 -0.66324 50 47 48
1.01549 -0.25293 -0.65971 46 46 60
1.02282 -0.25583 -0.65717 46 44 56
1.01993 -0.26361 -0.65771 42 37 48
1.01683 -0.26029 -0.63959 49 48 51
1.01396 -0.26800 -0.64012 43 38 44
1.02039 -0.26359 -0.63289 25 39 58
1.03100 -0.26609 -0.63411 163 169 175
1.02771 -0.27013 -0.61988 243 243 212
1.04092 -0.27235 -0.62398 252 241 200
1.04531 -0.28292 -0.62200 249 241 219
1.04662 -0.27539 -0.61976 251 238 215
1.05100 -0.28594 -0.61778 250 241 220
1.06383 -0.27724 -0.62812 251 237 216
1.06825 -0.28785 -0.62614 249 241 224
1.14375 -0.30203 -0.62023 240 211 164
1.12445 -0.30712 -0.59022 169 139 107
1.13168 -0.30999 -0.58771 136 129 135
1.14929 -0.31205 -0.59577 190 196 201
1.16602 -0.31422 -0.60282 238 237 214
1.17623 -0.30936 -0.59974 249 235 217
1.17165 -0.31724 -0.59858 250 240 218
1.18184 -0.31239 -0.59550 248 236 218
1.17896 -0.32014 -0.59604 250 241 224
1.17607 -0.32790 -0.59659 251 246 231
-0.68564 0.38117 -1.15832 151 134 137
-0.67750 0.36615 -1.12116 184 112 77
-0.67020 0.35913 -1.10662 204 101 33
-0.66601 0.34906 -1.10473 200 93 17
-0.64918 0.34608 -1.08560 223 109 13
-0.65606 0.34881 -1.08798 215 96 15
-0.64647 0.35338 -1.08509 225 113 11
-0.63545 0.34125 -1.08259 210 99 17
-0.63817 0.33395 -1.08310 216 105 11
-0.60793 0.32971 -1.07121 202 112 52
-0.60101 0.33364 -1.08824 200 96 21
-0.43879 0.25003 -0.97578 151 69 20
-0.44289 0.25989 -0.97763 157 71 13
-0.44556 0.25271 -0.97813 146 67 15
-0.41724 0.24666 -0.98335 164 137 121
-0.40871 0.25009 -1.00022 156 91 53
-0.40455 0.24008 -0.99834 153 69 5
-0.40237 0.24554 -0.99208 156 69 8
-0.39822 0.23556 -0.99022 160 76 7
-0.33877 0.22600 -0.98652 185 100 18
-0.28730 0.23109 -1.04286 193 86 20
-0.29724 0.22635 -1.04586 195 88 12
-0.29011 0.22353 -1.04339 195 88 8
-0.28053 0.22752 -1.03793 191 102 77
-0.27004 0.23154 -1.05812 210 172 170
-0.26272 0.22894 -1.05645 213 206 207
-0.24418 0.23106 -1.07756 169 150 121
-0.09886 0.15012 -0.95924 106 25 43
-0.09331 0.14554 -0.95039 80 10 44
-0.08129 0.14842 -0.96847 139 114 141
-0.08088 0.13809 -0.93873 198 200 202
-0.07177 0.13759 -0.94461 209 205 202
-0.06485 0.13465 -0.94166 205 199 205
-0.05695 0.13275 -0.94248 200 198 203
-0.04087 0.12914 -0.94497 196 201 207
-0.03456 0.12555 -0.93960 177 190 202
-0.02466 0.12553 -0.94754 152 164 188
-0.01994 0.12040 -0.93640 130 113 177
-0.00966 0.12063 -0.94538 107 72 114
-0.00579 0.11476 -0.93142 86 33 77
0.00280 0.11334 -0.93421 125 86 131
0.01176 0.11221 -0.93815 208 165 183
0.01500 0.10592 -0.92247 245 215 195
0.02352 0.10438 -0.92484 249 206 189
0.03202 0.10279 -0.92707 252 230 203
0.03633 0.09243 -0.92513 254 254 254
0.03987 0.10059 -0.92702 254 251 223
0.04418 0.09022 -0.92508 254 254 254
0.04915 0.09958 -0.93157 254 254 244
0.05348 0.08918 -0.92963 254 254 254
0.05581 0.09635 -0.92754 254 254 254
0.06013 0.08596 -0.92559 254 254 254
0.18265 0.07462 -0.96662 254 249 222
0.18870 0.07082 -0.96044 251 241 196
0.21939 0.06740 -0.97524 67 46 41
0.22752 0.06486 -0.97440 51 43 62
0.23609 0.06257 -0.97467 48 38 58
0.24061 0.05169 -0.97263 35 24 33
0.24551 0.06078 -0.97705 41 36 49
0.25004 0.04987 -0.97501 33 21 26
0.30101 0.04168 -0.96623 35 39 45
0.30700 0.03789 -0.96002 51 59 54
0.31257 0.03390 -0.95291 57 58 68
0.32091 0.03137 -0.95230 40 39 52
0.33136 0.03635 -0.94915 33 35 42
0.32840 0.02841 -0.94970 34 37 46
0.32544 0.02046 -0.95026 29 27 35
0.46234 -0.02540 -0.90115 46 58 56
0.45190 -0.03038 -0.90430 34 31 40
0.47001 -0.02830 -0.89891 49 61 56
0.47454 -0.03921 -0.89687 38 36 47
0.47947 -0.03051 -0.90013 40 43 43
0.51056 -0.03625 -0.90848 44 35 46
0.50300 -0.03325 -0.91110 53 48 49
0.50002 -0.04127 -0.91166 54 54 46
0.53252 -0.03978 -0.91593 24 26 37
0.56220 -0.05209 -0.90406 33 35 58
0.62534 -0.08599 -0.85631 35 22 40
0.63905 -0.09234 -0.84891 45 39 43
0.64656 -0.09531 -0.84631 48 44 39
0.65892 -0.09694 -0.85154 34 31 35
0.68720 -0.10939 -0.83811 34 27 43
0.67670 -0.11440 -0.84128 46 40 43
0.69357 -0.11268 -0.83368 33 31 41
0.70432 -0.11484 -0.83607 41 38 44
0.71454 -0.12683 -0.80941 39 38 40
0.71883 -0.13056 -0.80204 48 48 47
0.72398 -0.13406 -0.79600 57 55 52
0.73436 -0.12912 -0.79287 32 27 26
0.74290 -0.14368 -0.78328 53 54 56
0.77881 -0.16753 -0.74283 50 59 55
0.77988 -0.17169 -0.73157 84 95 79
0.78872 -0.17860 -0.71860 64 60 49
0.79312 -0.18920 -0.71662 40 31 41
0.79890 -0.18518 -0.70765 55 61 65
0.82777 -0.18407 -0.73420 88 102 77
0.82743 -0.19676 -0.69696 44 46 63
0.83359 -0.20393 -0.68107 90 86 92
0.84213 -0.20656 -0.68030 85 78 82
0.87514 -0.21735 -0.67554 36 43 51
0.88792 -0.21937 -0.67998 99 115 114
0.90384 -0.22491 -0.67668 66 54 47
0.90824 -0.23550 -0.67470 42 32 36
0.91376 -0.22741 -0.67743 46 30 37
0.91817 -0.23802 -0.67544 32 28 44
0.92263 -0.23007 -0.67684 38 30 56
0.93420 -0.23235 -0.67952 40 41 60
0.93863 -0.24300 -0.67753 35 33 34
0.99208 -0.25936 -0.64762 33 23 32
0.99747 -0.26246 -0.64294 37 31 42
1.00314 -0.27286 -0.61725 17 34 52
1.01135 -0.27560 -0.61589 128 141 171
1.02151 -0.27814 -0.61670 232 244 233
1.02588 -0.28865 -0.61473 252 248 229
1.03095 -0.28077 -0.61666 251 242 221
1.03532 -0.29129 -0.61469 250 245 226
1.11511 -0.30841 -0.60411 251 244 226
1.10497 -0.31324 -0.60717 251 248 239
1.11224 -0.31612 -0.60465 251 248 234
1.11951 -0.31900 -0.60213 252 249 231
1.12317 -0.31123 -0.60242 253 248 214
1.12822 -0.31428 -0.59760 254 231 166
1.12958 -0.31761 -0.58902 179 142 100
1.13397 -0.32816 -0.58705 136 119 101
1.13100 -0.32091 -0.58057 143 143 148
1.14871 -0.32301 -0.58872 209 226 210
1.15606 -0.32588 -0.58630 246 246 226
1.16046 -0.33646 -0.58432 251 248 238
-0.68763 0.36588 -1.13652 114 97 101
-0.65865 0.33966 -1.08313 206 92 17
-0.66135 0.33239 -1.08364 192 86 12
-0.65175 0.33638 -1.07913 214 98 19
-0.64494 0.33449 -1.07914 227 107 13
-0.63127 0.33080 -1.07949 197 90 24
-0.63399 0.32351 -1.08000 200 101 20
-0.62439 0.32792 -1.07664 202 110 39
-0.61754 0.32646 -1.07797 205 116 53
-0.61069 0.32961 -1.09285 184 90 19
-0.60374 0.33002 -1.09974 179 85 6
-0.59675 0.32966 -1.10440 164 79 4
-0.59252 0.31947 -1.10250 119 51 9
-0.47450 0.26052 -1.00118 123 52 12
-0.48130 0.26322 -1.00354 120 48 6
-0.46812 0.25562 -0.99197 125 58 24
-0.46167 0.25133 -0.98464 127 59 29
-0.45490 0.24865 -0.98229 129 59 22
-0.44820 0.24568 -0.97906 135 61 15
-0.44139 0.24316 -0.97722 143 75 31
-0.41152 0.24245 -0.99959 149 73 39
-0.40736 0.23244 -0.99772 149 66 7
-0.39092 0.23428 -0.99244 149 70 9
-0.40050 0.22972 -0.99533 157 74 6
-0.38503 0.22856 -0.98046 99 43 18
-0.37065 0.22517 -0.98225 116 53 28
-0.36346 0.22340 -0.98293 134 70 22
-0.35648 0.22098 -0.98152 71 33 26
-0.34895 0.21998 -0.98474 60 33 31
-0.34159 0.21844 -0.98625 134 76 31
-0.33468 0.21574 -0.98398 197 105 23
-0.32505 0.22033 -0.98108 214 98 2
-0.32736 0.21401 -0.98488 214 108 11
-0.31772 0.21860 -0.98197 213 99 3
-0.32045 0.21127 -0.98248 211 101 11
-0.28342 0.21981 -1.03793 193 88 30
-0.29334 0.21508 -1.04092 199 91 8
-0.27335 0.22295 -1.05541 202 128 94
-0.26378 0.22481 -1.06874 208 181 176
-0.25632 0.22239 -1.06773 193 185 188
-0.24918 0.21933 -1.06457 179 166 158
-0.24151 0.21726 -1.06476 140 100 82
-0.10591 0.14878 -0.97439 128 35 44
-0.11022 0.15914 -0.97633 91 25 40
-0.10872 0.14124 -0.97492 142 46 56
-0.09890 0.14585 -0.97151 130 39 38
-0.09286 0.14179 -0.96453 109 19 50
-0.07491 0.14034 -0.97495 229 238 236
-0.06814 0.13710 -0.97098 241 247 238
-0.06100 0.13427 -0.96850 232 240 234
-0.05684 0.12831 -0.95436 215 224 220
-0.04934 0.12590 -0.95342 190 200 205
-0.04267 0.12265 -0.94932 160 142 169
-0.03365 0.12175 -0.95406 137 93 96
-0.02582 0.11961 -0.95420 59 31 81
-0.02201 0.11358 -0.93956 46 7 92
-0.01400 0.11163 -0.94040 139 98 122
-0.00308 0.11237 -0.95151 219 188 182
0.00171 0.10738 -0.94077 251 243 230
0.00603 0.09701 -0.93883 254 254 254
0.00870 0.10444 -0.93784 254 254 250
0.01301 0.09407 -0.93590 254 254 254
0.01585 0.10164 -0.93546 254 254 253
0.02016 0.09127 -0.93352 254 254 254
0.02282 0.09868 -0.93247 254 254 251
0.02713 0.08831 -0.93053 254 254 254
0.03032 0.09619 -0.93129 254 254 253
0.03463 0.08581 -0.92935 254 254 254
0.21759 0.06020 -0.97881 63 37 31
0.22544 0.05747 -0.97721 48 33 42
0.23403 0.05519 -0.97753 44 26 41
0.26927 0.04634 -0.98038 33 24 34
0.27719 0.04358 -0.97875 36 30 44
0.28296 0.03963 -0.97186 44 44 53
0.28751 0.02869 -0.96981 55 49 57
0.30995 0.02614 -0.95426 76 76 77
0.31449 0.01523 -0.95222 30 30 40
0.46591 -0.03668 -0.89722 35 35 49
0.48045 -0.04276 -0.89124 46 43 47
0.51087 -0.04879 -0.89844 38 28 36
0.53186 -0.05269 -0.90415 38 28 44
0.54091 -0.05519 -0.90423 38 30 33
0.55295 -0.06223 -0.89336 27 29 50
0.55368 -0.06747 -0.87854 35 31 51
0.58947 -0.08291 -0.86244 47 43 44
0.59697 -0.08588 -0.85984 39 41 40
0.61119 -0.09206 -0.85332 43 50 45
0.60369 -0.08909 -0.85592 40 46 43
0.61903 -0.09493 -0.85130 57 61 46
0.62440 -0.09851 -0.84517 52 57 41
0.62990 -0.10204 -0.83930 45 45 46
0.65654 -0.10980 -0.83829 73 69 86
0.66433 -0.11269 -0.83617 62 51 52
0.66887 -0.12362 -0.83412 32 27 30
0.67700 -0.11924 -0.82728 43 48 45
0.68153 -0.13015 -0.82524 41 47 48
0.71015 -0.13981 -0.79393 62 70 71
0.70522 -0.14561 -0.77282 89 100 100
0.71209 -0.14863 -0.76956 93 100 104
0.72781 -0.15423 -0.76596 89 89 91
0.73171 -0.15790 -0.75837 65 61 53
0.73615 -0.16859 -0.75637 37 36 29
0.74029 -0.16054 -0.75763 39 40 32
0.74474 -0.17124 -0.75563 33 35 25
0.77415 -0.17999 -0.72816 59 85 78
0.77857 -0.19061 -0.72617 49 43 42
0.78144 -0.18288 -0.72563 64 82 72
0.78586 -0.19350 -0.72364 44 34 32
0.78127 -0.18718 -0.71286 52 50 48
0.78566 -0.19774 -0.71088 34 30 31
0.79153 -0.19370 -0.70208 41 47 62
0.80049 -0.20040 -0.68970 64 73 61
0.81446 -0.20208 -0.69621 42 39 40
0.81884 -0.21262 -0.69424 32 26 37
0.82266 -0.20478 -0.69498 34 30 50
0.82851 -0.20788 -0.69064 53 50 79
0.83616 -0.21068 -0.68867 71 68 85
0.84121 -0.21390 -0.68334 72 56 65
0.84558 -0.22442 -0.68137 58 46 54
0.88757 -0.22669 -0.68368 65 70 81
0.89197 -0.23729 -0.68169 63 59 66
0.89043 -0.23022 -0.67565 78 81 85
0.89482 -0.24079 -0.67368 52 46 47
0.96950 -0.26192 -0.64717 37 32 30
0.97389 -0.27248 -0.64519 36 33 30
0.97929 -0.26820 -0.63670 32 29 26
0.98252 -0.27151 -0.62961 45 43 47
0.98688 -0.28202 -0.62764 53 54 57
0.98816 -0.27454 -0.62532 49 45 51
0.98969 -0.27800 -0.61639 47 40 46
0.99403 -0.28846 -0.61444 37 34 26
0.99397 -0.28115 -0.61064 23 31 36
0.99907 -0.28420 -0.60584 80 91 123
1.01757 -0.28590 -0.61601 214 240 234
1.12580 -0.32195 -0.59860 254 250 217
1.12008 -0.32576 -0.58272 245 217 152
1.12812 -0.33191 -0.57123 180 198 182
1.14238 -0.33429 -0.57590 239 245 231
-0.66810 0.33369 -1.08191 177 88 32
-0.64755 0.32539 -1.07432 210 98 4
-0.64086 0.32622 -1.08234 212 102 5
-0.62714 0.32198 -1.08114 190 107 35
-0.62031 0.32191 -1.08662 186 92 27
-0.59950 0.32345 -1.10850 129 61 6
-0.59526 0.31325 -1.10659 91 34 17
-0.47698 0.25443 -1.00520 120 60 33
-0.47084 0.24821 -0.99182 123 78 56
-0.46410 0.24534 -0.98888 124 79 56
-0.45735 0.24249 -0.98602 120 62 33
-0.45122 0.23694 -0.97461 118 49 17
-0.44374 0.23737 -0.98211 130 72 44
-0.43615 0.23795 -0.99015 155 131 125
-0.41418 0.23532 -1.00060 146 65 35
-0.41003 0.22532 -0.99873 141 61 11
-0.38696 0.22368 -0.98862 77 21 24
-0.38044 0.21996 -0.98298 82 26 38
-0.37335 0.21791 -0.98279 156 88 48
-0.36647 0.21526 -0.98064 150 93 35
-0.35925 0.21353 -0.98150 86 39 19
-0.34451 0.21062 -0.98511 82 40 34
-0.26532 0.21972 -1.07802 204 137 117
-0.25914 0.21478 -1.06847 190 168 181
-0.25476 0.20424 -1.06649 170 150 158
-0.25169 0.21232 -1.06735 169 155 159
-0.24133 0.21513 -1.08433 151 103 90
-0.22809 0.22279 -1.11811 143 71 44
-0.11345 0.14693 -0.98790 115 44 52
-0.11778 0.15734 -0.98985 43 30 53
-0.12060 0.14976 -0.99038 53 36 55
-0.12342 0.14218 -0.99091 59 40 54
-0.10913 0.13652 -0.98595 138 46 53
-0.10038 0.13985 -0.97773 139 44 45
-0.09606 0.12947 -0.97579 117 29 48
-0.09486 0.13518 -0.96843 119 29 61
-0.08539 0.13502 -0.97584 156 146 165
-0.08025 0.12999 -0.96514 191 195 247
-0.07431 0.12590 -0.95794 183 170 235
-0.06997 0.12016 -0.94446 161 147 209
-0.05807 0.12242 -0.96108 136 116 173
-0.05107 0.11946 -0.95811 107 77 115
-0.04268 0.11793 -0.96053 86 29 97
-0.03921 0.11146 -0.94419 181 174 145
-0.02860 0.11207 -0.95483 138 104 62
-0.02481 0.10605 -0.94008 88 29 80
-0.01518 0.10563 -0.94683 166 176 194
-0.00881 0.10210 -0.94165 234 245 246
-0.00146 0.09950 -0.94002 252 254 254
0.00285 0.08913 -0.93808 254 254 254
0.21549 0.05280 -0.98159 90 31 17
0.22285 0.04977 -0.97871 78 35 28
0.23027 0.04678 -0.97599 75 37 23
0.23964 0.04492 -0.97827 71 39 21
0.24716 0.04198 -0.97576 73 44 21
0.25442 0.03888 -0.97259 74 55 17
0.26279 0.03640 -0.97218 42 32 24
0.26732 0.02548 -0.97013 38 34 38
0.27133 0.03401 -0.97216 40 35 44
0.27722 0.03016 -0.96562 48 46 55
0.30542 0.01739 -0.95110 27 32 48
0.45427 -0.04211 -0.89798 35 38 39
0.44385 -0.04707 -0.90113 87 100 81
0.45879 -0.05300 -0.89595 38 40 42
0.47946 -0.04997 -0.89556 64 55 63
0.51083 -0.06135 -0.88781 50 49 55
0.51776 -0.06452 -0.88417 64 60 67
0.53008 -0.06586 -0.89042 51 44 42
0.53464 -0.07683 -0.88836 39 39 37
0.53970 -0.06815 -0.89161 45 48 40
0.54426 -0.07914 -0.88955 26 35 33
0.54312 -0.07249 -0.88155 43 63 43
0.54117 -0.07852 -0.86200 78 79 42
0.55230 -0.08031 -0.86594 57 50 27
0.55682 -0.09120 -0.86391 24 20 18
0.56055 -0.08831 -0.84903 59 52 29
0.56701 -0.09155 -0.84476 57 45 52
0.57966 -0.09292 -0.85120 79 88 73
0.58227 -0.09731 -0.84031 43 40 29
0.58677 -0.10814 -0.83829 18 27 31
0.58977 -0.10024 -0.83785 32 38 41
0.59391 -0.10413 -0.82973 31 43 53
0.59940 -0.10761 -0.82395 85 82 50
0.60874 -0.11000 -0.82460 71 63 44
0.61737 -0.11260 -0.82405 47 31 24
0.62659 -0.11505 -0.82443 35 28 29
0.63747 -0.11708 -0.82746 31 31 42
0.64640 -0.11964 -0.82727 59 68 93
0.67721 -0.13600 -0.80426 65 73 88
