ply
format ascii 1.0
element face 0
property list uchar int vertex_indices
element vertex 1257
property float x
property float y
property float z
property uchar diffuse_red
property uchar diffuse_green
property uchar diffuse_blue
end_header
0.25317 -0.43529 -0.62325 245 244 242
0.26032 -0.43807 -0.62337 209 206 209
0.26593 -0.44061 -0.62047 202 201 197
0.27273 -0.44335 -0.61986 216 213 204
0.27824 -0.44587 -0.61679 237 238 227
0.28149 -0.45479 -0.61481 254 254 253
0.28375 -0.44840 -0.61372 251 253 248
0.28700 -0.45731 -0.61174 253 253 251
0.49143 -0.53931 -0.53330 253 251 239
0.48292 -0.54307 -0.53610 253 252 245
0.48880 -0.54566 -0.53371 252 251 244
0.49468 -0.54825 -0.53131 252 251 241
0.49692 -0.54182 -0.53034 253 249 223
0.49772 -0.54329 -0.52074 246 235 194
0.49761 -0.54456 -0.50994 232 213 167
0.50447 -0.54735 -0.50903 206 182 110
0.50534 -0.54881 -0.49975 177 148 51
0.51310 -0.55180 -0.50010 120 97 41
0.51819 -0.55420 -0.49675 75 68 84
0.52198 -0.55630 -0.49164 57 65 113
0.52723 -0.55873 -0.48853 54 45 113
0.53275 -0.56122 -0.48580 80 59 103
0.53968 -0.56403 -0.48497 106 87 104
0.54947 -0.56750 -0.48790 119 99 119
0.55586 -0.57019 -0.48628 126 110 137
0.55929 -0.57220 -0.48078 128 119 118
0.56299 -0.57426 -0.47567 121 104 93
0.56611 -0.57619 -0.46984 114 80 109
0.57017 -0.57833 -0.46528 118 87 132
0.57675 -0.58106 -0.46395 178 168 181
0.59068 -0.58554 -0.47192 235 236 234
0.59390 -0.59438 -0.46995 254 254 254
0.59700 -0.58822 -0.47018 252 253 252
0.60022 -0.59707 -0.46821 254 254 254
-0.71345 -0.03357 -0.87737 77 86 93
-0.72134 -0.03706 -0.87997 76 77 84
-0.69777 -0.03899 -0.88365 81 80 95
-0.69260 -0.04050 -0.88803 67 70 78
-0.68759 -0.04148 -0.89649 49 51 61
-0.66395 -0.05680 -0.84493 29 33 45
-0.67179 -0.06026 -0.84752 18 22 33
-0.65830 -0.06015 -0.83531 39 41 55
-0.65281 -0.06295 -0.82984 50 52 73
-0.64698 -0.06749 -0.81063 92 93 110
-0.64163 -0.06992 -0.80784 139 146 149
-0.63636 -0.07191 -0.80855 116 125 134
-0.63104 -0.07408 -0.80784 84 92 98
-0.62571 -0.07628 -0.80686 72 82 89
-0.61797 -0.07286 -0.80431 77 82 89
-0.62275 -0.08441 -0.80505 50 57 66
-0.52924 -0.14715 -0.52580 155 184 201
-0.53596 -0.15011 -0.52802 16 25 51
-0.53132 -0.15216 -0.52612 62 83 112
-0.52507 -0.15017 -0.51400 226 246 254
-0.52048 -0.15225 -0.51158 247 253 254
-0.51380 -0.14931 -0.50938 254 254 254
-0.51590 -0.15435 -0.50899 253 254 254
-0.50923 -0.15141 -0.50678 254 254 254
-0.51138 -0.15653 -0.50554 254 254 254
-0.50472 -0.15359 -0.50334 254 254 254
-0.50676 -0.15854 -0.50393 254 254 254
-0.50009 -0.15559 -0.50173 254 254 254
-0.50219 -0.16062 -0.50145 253 254 254
-0.49553 -0.15768 -0.49926 254 254 254
-0.49761 -0.16268 -0.49919 243 253 254
-0.49311 -0.16484 -0.49585 234 250 251
-0.48934 -0.16790 -0.48244 210 204 235
-0.48681 -0.17483 -0.48090 115 112 153
-0.48460 -0.16970 -0.48289 167 164 199
-0.47927 -0.17088 -0.49066 133 127 157
-0.47426 -0.17248 -0.49380 144 154 174
-0.46915 -0.17401 -0.49782 139 138 182
-0.33671 -0.18939 -0.80930 235 240 240
-0.33182 -0.19223 -0.80140 242 243 241
-0.32738 -0.19523 -0.79073 247 246 245
-0.32087 -0.19740 -0.79404 250 249 247
-0.31541 -0.19998 -0.79028 253 253 253
-0.30903 -0.20223 -0.79244 251 254 254
-0.30219 -0.20434 -0.79731 245 253 251
-0.29436 -0.20618 -0.80784 227 233 245
-0.28687 -0.20818 -0.81583 220 230 248
-0.27752 -0.20968 -0.83426 213 199 244
-0.27296 -0.21261 -0.82453 186 169 216
-0.26676 -0.21507 -0.82429 178 173 203
-0.26354 -0.22393 -0.82232 158 168 177
-0.26026 -0.21747 -0.82558 183 187 211
-0.25703 -0.22634 -0.82361 154 160 173
-0.25517 -0.22022 -0.81915 174 181 189
-0.24194 -0.22501 -0.82260 174 184 194
-0.23461 -0.22727 -0.82780 196 208 214
-0.23136 -0.23621 -0.82582 192 199 209
-0.22839 -0.22979 -0.82713 206 216 215
-0.22276 -0.23243 -0.82346 179 185 186
-0.21579 -0.23483 -0.82637 148 154 168
-0.20414 -0.24004 -0.82090 152 156 174
-0.19793 -0.24258 -0.81999 154 158 180
-0.19333 -0.24537 -0.81166 170 176 200
-0.19008 -0.24831 -0.79746 207 214 219
-0.18548 -0.25104 -0.78959 201 208 200
-0.18096 -0.25376 -0.78151 156 151 149
-0.17187 -0.25595 -0.79322 145 141 126
-0.16584 -0.25851 -0.79162 129 126 126
-0.16254 -0.26133 -0.77859 101 105 137
-0.15725 -0.26394 -0.77406 103 102 127
-0.15167 -0.26652 -0.77076 109 105 122
-0.14787 -0.26923 -0.76036 113 114 127
-0.13969 -0.27161 -0.76742 147 132 162
-0.13365 -0.27416 -0.76592 188 163 209
-0.11752 -0.27905 -0.77813 252 241 210
-0.11428 -0.28797 -0.77614 251 254 253
-0.11105 -0.28161 -0.77798 254 248 230
-0.10780 -0.29054 -0.77599 250 254 253
-0.09581 -0.28667 -0.78580 254 252 251
-0.08929 -0.28926 -0.78552 252 252 252
-0.07644 -0.29446 -0.78418 246 252 253
-0.06966 -0.29706 -0.78464 228 230 245
-0.06183 -0.29967 -0.78862 204 209 219
-0.05506 -0.30230 -0.78887 182 180 188
-0.04965 -0.30493 -0.78455 169 142 149
-0.04365 -0.30756 -0.78219 164 152 139
-0.03897 -0.31017 -0.77560 198 191 179
-0.03105 -0.31282 -0.77943 237 234 219
-0.02775 -0.32191 -0.77741 251 248 242
-0.02600 -0.31544 -0.77405 251 251 239
-0.02270 -0.32451 -0.77203 250 247 241
0.24252 -0.43868 -0.62176 251 252 243
0.23928 -0.42980 -0.62374 253 251 249
0.23667 -0.43611 -0.62415 253 253 251
0.25010 -0.44154 -0.62278 207 172 195
0.26043 -0.44485 -0.62906 167 129 134
0.26276 -0.44685 -0.61983 191 182 175
0.26791 -0.44931 -0.61608 233 228 226
0.27115 -0.45821 -0.61410 254 254 251
0.27332 -0.45182 -0.61285 252 248 248
0.27656 -0.46071 -0.61087 254 253 249
0.49521 -0.54963 -0.52128 253 251 236
0.48674 -0.55337 -0.52408 253 252 245
0.49259 -0.55595 -0.52169 252 251 242
0.49844 -0.55852 -0.51931 252 251 239
0.50001 -0.55197 -0.51741 253 249 224
0.50372 -0.55406 -0.51203 249 244 195
0.50722 -0.55609 -0.50639 243 233 157
0.50913 -0.55776 -0.49860 162 131 101
0.51502 -0.56033 -0.49636 93 74 75
0.51908 -0.56248 -0.49161 64 64 68
0.52442 -0.56493 -0.48864 80 71 49
0.53350 -0.56825 -0.49070 126 115 73
0.54002 -0.57097 -0.48929 145 121 74
0.54460 -0.57324 -0.48528 140 105 65
0.55345 -0.57652 -0.48694 132 90 71
0.55740 -0.57863 -0.48211 130 90 68
0.56061 -0.58057 -0.47634 129 94 67
0.56210 -0.58209 -0.46840 148 120 99
0.56896 -0.58489 -0.46744 187 170 160
0.58330 -0.58951 -0.47602 229 226 223
0.58652 -0.59836 -0.47405 254 254 254
0.58985 -0.59225 -0.47457 250 251 250
0.59307 -0.60111 -0.47260 254 254 254
-0.80921 -0.00822 -0.82920 57 57 74
-0.81209 -0.00032 -0.83096 47 51 66
-0.81441 -0.00593 -0.83132 48 49 69
-0.71570 -0.03987 -0.87477 71 84 95
-0.69430 -0.04848 -0.87316 74 77 81
-0.66603 -0.06388 -0.83570 27 31 43
-0.66036 -0.06730 -0.82524 37 40 56
-0.65475 -0.07069 -0.81488 49 54 76
-0.64938 -0.07319 -0.81154 93 97 121
-0.64401 -0.07568 -0.80821 131 140 159
-0.63877 -0.07750 -0.81037 88 93 122
-0.63347 -0.07955 -0.81064 62 66 83
-0.62822 -0.08112 -0.81500 54 59 75
-0.62525 -0.08929 -0.81318 35 36 48
-0.52673 -0.15432 -0.52303 144 173 212
-0.53344 -0.15728 -0.52524 13 22 57
-0.52880 -0.15933 -0.52335 74 97 148
-0.52233 -0.15683 -0.51618 198 209 238
-0.51795 -0.15931 -0.50949 216 227 253
-0.51340 -0.16144 -0.50654 222 233 251
-0.50882 -0.16351 -0.50424 222 231 252
-0.50404 -0.16529 -0.50514 214 216 249
-0.50149 -0.17230 -0.50358 101 109 160
-0.50034 -0.16858 -0.48906 187 189 229
-0.49781 -0.17552 -0.48752 99 99 144
-0.49530 -0.16999 -0.49407 157 156 201
-0.49276 -0.17697 -0.49252 100 113 140
-0.49062 -0.17190 -0.49353 122 123 168
-0.48133 -0.17585 -0.49098 123 136 149
-0.47634 -0.17747 -0.49393 124 124 158
-0.47059 -0.17840 -0.50570 117 98 149
-0.46802 -0.18547 -0.50413 104 117 147
-0.41508 -0.18832 -0.61069 193 201 230
-0.41786 -0.18068 -0.61239 248 250 250
-0.42011 -0.18610 -0.61274 231 247 251
-0.41283 -0.18289 -0.61034 234 236 243
-0.40780 -0.18510 -0.60829 235 246 252
-0.40982 -0.19040 -0.61061 190 199 207
-0.40254 -0.18718 -0.60821 249 253 253
-0.40479 -0.19261 -0.60856 222 240 244
-0.34040 -0.19601 -0.80160 242 247 246
-0.33557 -0.19885 -0.79341 250 254 252
-0.33083 -0.20169 -0.78484 239 252 253
-0.32422 -0.20382 -0.78899 229 247 252
-0.31772 -0.20602 -0.79215 226 229 244
-0.31053 -0.20802 -0.79952 220 208 234
-0.30574 -0.21082 -0.79145 205 201 225
-0.29527 -0.21188 -0.81839 175 182 204
-0.28800 -0.21399 -0.82497 150 159 187
-0.28261 -0.21667 -0.82012 128 128 168
-0.27690 -0.21924 -0.81726 133 135 164
-0.26964 -0.22143 -0.82312 152 163 175
-0.26642 -0.23028 -0.82115 174 186 187
-0.25257 -0.22921 -0.81384 147 162 181
-0.24671 -0.23176 -0.81170 147 169 188
-0.23887 -0.23393 -0.81975 167 183 202
-0.22564 -0.23882 -0.82263 185 188 200
-0.21911 -0.24130 -0.82345 166 172 192
-0.21335 -0.24391 -0.82044 176 187 197
-0.20847 -0.24665 -0.81326 193 205 211
-0.20410 -0.24943 -0.80391 202 213 218
-0.19899 -0.25210 -0.79813 219 230 231
-0.19393 -0.25476 -0.79226 240 248 246
-0.18784 -0.25730 -0.79106 222 227 232
-0.18315 -0.25998 -0.78371 184 193 205
-0.17674 -0.26248 -0.78393 190 195 189
-0.17197 -0.26514 -0.77706 200 199 186
-0.16568 -0.26766 -0.77673 207 202 184
-0.15835 -0.27010 -0.78063 210 208 186
-0.15397 -0.27277 -0.77235 226 234 205
-0.14743 -0.27528 -0.77291 236 241 216
-0.14082 -0.27780 -0.77363 245 249 231
-0.13759 -0.28667 -0.77166 248 252 253
-0.13482 -0.28036 -0.77190 250 251 248
-0.13159 -0.28923 -0.76992 248 248 250
-0.12815 -0.28289 -0.77275 251 253 253
-0.09846 -0.29306 -0.78621 249 253 253
-0.09194 -0.29566 -0.78593 244 253 253
-0.08631 -0.29827 -0.78247 234 239 246
-0.07836 -0.30087 -0.78714 206 210 219
-0.07108 -0.30348 -0.78933 172 159 175
-0.06376 -0.30612 -0.79155 156 139 102
-0.05918 -0.30873 -0.78439 151 138 101
-0.05313 -0.31136 -0.78225 182 166 143
-0.04620 -0.31400 -0.78302 226 213 181
-0.04289 -0.32308 -0.78100 253 250 238
-0.03821 -0.31668 -0.78715 248 244 222
-0.03489 -0.32579 -0.78513 250 247 240
-0.03283 -0.31930 -0.78273 252 251 241
-0.02951 -0.32840 -0.78071 249 245 241
0.23148 -0.44198 -0.61940 254 254 249
0.22825 -0.43313 -0.62137 252 252 249
0.22565 -0.43942 -0.62178 253 253 250
0.24340 -0.44558 -0.62909 228 210 213
0.24929 -0.44817 -0.62674 154 97 130
0.25638 -0.45096 -0.62671 153 122 127
0.25986 -0.45313 -0.61970 209 202 195
0.26551 -0.45567 -0.61691 245 244 242
0.26876 -0.46458 -0.61493 254 254 253
0.50087 -0.56030 -0.51209 253 252 233
0.49243 -0.56403 -0.51488 251 249 243
0.50483 -0.56243 -0.50709 253 243 204
0.50950 -0.56472 -0.50312 149 121 135
0.51143 -0.56636 -0.49539 85 72 71
0.51557 -0.56852 -0.49075 57 54 64
0.52455 -0.57183 -0.49274 121 120 102
0.52823 -0.57387 -0.48749 203 207 165
0.53545 -0.57677 -0.48704 228 221 171
0.54433 -0.58007 -0.48879 228 211 160
0.54771 -0.58204 -0.48318 226 202 157
0.55406 -0.58472 -0.48153 225 203 159
0.55888 -0.58704 -0.47787 225 207 167
0.56663 -0.59007 -0.47803 231 221 185
0.57666 -0.59367 -0.48111 242 238 217
0.57988 -0.60254 -0.47914 254 254 253
0.58277 -0.59631 -0.47909 251 251 246
0.58600 -0.60518 -0.47712 254 254 254
-0.73219 -0.04298 -0.84974 71 74 82
-0.73515 -0.03485 -0.85155 60 68 81
-0.73754 -0.04063 -0.85192 65 67 80
-0.72980 -0.03721 -0.84937 66 71 82
-0.72445 -0.03956 -0.84719 76 76 80
-0.72923 -0.05111 -0.84793 80 89 83
-0.72730 -0.04442 -0.85423 82 84 76
-0.72258 -0.04543 -0.86200 84 82 83
-0.71232 -0.04897 -0.86674 99 104 112
-0.70195 -0.05257 -0.87121 89 92 100
-0.69894 -0.06086 -0.86937 84 91 106
-0.69633 -0.05541 -0.86566 81 86 93
-0.66826 -0.07028 -0.83137 24 28 39
-0.66248 -0.07409 -0.81755 35 39 51
-0.65674 -0.07799 -0.80273 53 58 73
-0.65141 -0.08044 -0.79963 92 106 119
-0.64611 -0.08278 -0.79740 87 96 121
-0.64110 -0.08359 -0.80801 43 45 71
-0.63815 -0.09170 -0.80620 33 36 52
-0.63590 -0.08511 -0.81285 39 39 62
-0.63294 -0.09326 -0.81103 33 39 52
-0.63066 -0.08666 -0.81764 36 38 57
-0.62769 -0.09483 -0.81582 32 40 48
-0.52461 -0.16222 -0.51209 114 132 175
-0.53128 -0.16517 -0.51429 34 51 84
-0.52667 -0.16720 -0.51241 90 107 140
-0.52206 -0.16923 -0.51053 90 98 125
-0.51994 -0.16416 -0.51128 116 134 179
-0.51739 -0.17117 -0.50972 79 92 121
-0.51531 -0.16616 -0.50975 120 135 174
-0.51275 -0.17317 -0.50819 72 90 124
-0.51065 -0.16813 -0.50853 119 132 176
-0.50810 -0.17515 -0.50697 73 92 127
-0.50580 -0.16984 -0.51045 110 123 177
-0.50324 -0.17688 -0.50888 82 97 124
-0.48201 -0.17935 -0.50946 98 95 106
-0.47692 -0.18096 -0.51317 90 82 135
-0.47245 -0.18321 -0.50881 115 126 145
-0.42398 -0.18705 -0.64802 86 106 190
-0.42911 -0.18479 -0.65011 56 83 174
-0.42169 -0.18151 -0.64766 209 237 251
-0.42077 -0.19052 -0.62796 144 155 215
-0.41733 -0.19375 -0.61104 172 194 238
-0.41172 -0.19563 -0.61406 176 201 209
-0.40654 -0.19778 -0.61318 181 193 193
-0.39924 -0.19455 -0.61077 246 252 253
-0.40149 -0.20000 -0.61112 214 226 232
-0.34997 -0.20020 -0.79434 216 236 235
-0.35561 -0.19772 -0.79664 209 216 240
-0.34400 -0.20256 -0.79434 228 237 249
-0.33985 -0.20562 -0.78149 216 202 243
-0.32866 -0.20608 -0.81744 167 145 209
-0.32320 -0.20871 -0.81319 134 128 188
-0.31581 -0.21069 -0.82173 137 149 197
-0.30956 -0.21308 -0.82253 148 156 191
-0.30291 -0.21536 -0.82570 154 163 190
-0.29724 -0.21794 -0.82257 160 169 185
-0.29057 -0.22026 -0.82551 154 162 169
-0.28534 -0.22296 -0.81971 129 130 142
-0.27941 -0.22548 -0.81808 121 130 146
-0.27164 -0.22758 -0.82697 151 166 176
-0.26076 -0.23288 -0.81790 165 172 173
-0.25543 -0.23554 -0.81288 144 153 144
-0.24862 -0.23791 -0.81578 126 142 142
-0.24341 -0.24059 -0.81019 152 167 188
-0.23581 -0.24285 -0.81691 208 214 228
-0.23083 -0.24556 -0.81017 239 237 237
-0.22760 -0.25443 -0.80820 254 254 252
-0.22493 -0.24812 -0.80808 243 241 236
-0.22171 -0.25699 -0.80611 253 254 252
-0.21875 -0.25064 -0.80740 244 245 239
-0.21552 -0.25952 -0.80543 253 254 253
-0.21338 -0.25328 -0.80279 246 249 244
-0.20758 -0.25585 -0.80026 247 249 244
-0.20216 -0.25846 -0.79594 239 240 239
-0.19611 -0.26101 -0.79458 231 232 238
-0.19289 -0.26987 -0.79261 207 204 219
-0.19065 -0.26361 -0.79056 232 238 242
-0.18743 -0.27246 -0.78859 211 210 223
-0.18407 -0.26610 -0.79152 232 240 239
-0.18084 -0.27497 -0.78955 218 217 227
-0.17818 -0.26867 -0.78935 235 242 237
-0.17288 -0.27128 -0.78468 231 235 233
-0.16675 -0.27383 -0.78359 214 222 225
-0.16066 -0.27638 -0.78228 200 211 222
-0.15597 -0.27901 -0.77520 204 216 231
-0.15075 -0.28160 -0.77039 218 230 240
-0.14392 -0.28412 -0.77209 234 240 250
-0.12232 -0.29171 -0.78065 245 242 244
-0.10899 -0.29687 -0.78172 228 234 243
-0.10536 -0.29948 -0.77100 215 221 231
-0.09211 -0.30205 -0.79529 189 185 215
-0.08769 -0.30466 -0.78738 164 136 172
-0.08100 -0.30728 -0.78761 144 103 129
-0.07303 -0.30993 -0.79222 143 112 132
-0.06655 -0.31256 -0.79156 175 158 128
-0.05935 -0.31522 -0.79329 216 203 154
-0.05246 -0.31788 -0.79383 242 235 206
-0.04915 -0.32700 -0.79180 251 247 241
-0.04684 -0.32051 -0.79015 252 247 231
-0.04352 -0.32962 -0.78812 251 248 241
0.22224 -0.44557 -0.62056 254 253 253
0.21902 -0.43672 -0.62253 252 252 248
0.21642 -0.44301 -0.62293 253 253 252
0.21382 -0.44929 -0.62334 253 254 253
0.22912 -0.44831 -0.62029 242 237 237
0.24250 -0.45222 -0.63291 153 126 167
0.24533 -0.45426 -0.62452 128 95 116
0.25155 -0.45691 -0.62282 185 180 173
0.25687 -0.45939 -0.61938 236 240 232
0.26011 -0.46829 -0.61740 254 254 254
0.26266 -0.46195 -0.61687 252 253 251
0.26590 -0.47086 -0.61489 254 254 252
0.49498 -0.56581 -0.50786 253 251 237
0.48656 -0.56952 -0.51064 250 248 243
0.49912 -0.56796 -0.50314 247 233 195
0.50090 -0.56955 -0.49517 117 98 104
0.50598 -0.57192 -0.49183 55 49 62
0.51176 -0.57447 -0.48948 51 50 58
0.51643 -0.57674 -0.48560 148 157 150
0.52478 -0.57992 -0.48673 230 236 220
0.52798 -0.58871 -0.48477 251 248 240
0.53133 -0.58265 -0.48539 251 248 229
0.53454 -0.59146 -0.48343 251 248 240
0.53732 -0.58525 -0.48329 252 246 227
0.54053 -0.59406 -0.48133 251 248 240
0.54641 -0.58862 -0.48531 253 244 224
0.54962 -0.59745 -0.48334 251 248 242
0.55425 -0.59169 -0.48561 253 246 224
0.55747 -0.60054 -0.48364 252 249 244
0.55779 -0.59368 -0.48025 253 247 229
0.56100 -0.60251 -0.47828 253 252 250
0.56331 -0.59617 -0.47751 254 251 239
0.56653 -0.60499 -0.47554 254 254 254
0.56949 -0.59882 -0.47562 254 254 248
0.57271 -0.60765 -0.47365 254 254 254
-0.82098 -0.01466 -0.84836 57 58 79
-0.82857 -0.01801 -0.85086 53 56 73
-0.73434 -0.04921 -0.84676 74 78 85
-0.74207 -0.05263 -0.84931 76 73 86
-0.73673 -0.05498 -0.84713 78 79 91
-0.71995 -0.05289 -0.86587 95 92 112
-0.71294 -0.05869 -0.83748 113 120 135
-0.70751 -0.06123 -0.83389 112 121 131
-0.70409 -0.05914 -0.86624 88 93 108
-0.69310 -0.06423 -0.85941 78 84 93
-0.69553 -0.07009 -0.85978 90 98 103
-0.69010 -0.07248 -0.85757 77 77 84
-0.67041 -0.07688 -0.82517 25 24 32
-0.66454 -0.08098 -0.80859 36 35 49
-0.65891 -0.08444 -0.79702 56 63 69
-0.65376 -0.08623 -0.79940 85 105 104
-0.64838 -0.08894 -0.79407 45 52 68
-0.64545 -0.09698 -0.79228 28 37 42
-0.64334 -0.09007 -0.80223 25 32 41
-0.64039 -0.09815 -0.80043 36 37 47
-0.56167 -0.11579 -0.86512 12 16 27
-0.56978 -0.11937 -0.86779 8 8 17
-0.56417 -0.12183 -0.86551 10 8 17
-0.55857 -0.12430 -0.86322 8 8 16
-0.48805 -0.18155 -0.52162 65 67 97
-0.49483 -0.18454 -0.52386 64 66 101
-0.48330 -0.18355 -0.52052 81 73 107
-0.48071 -0.19068 -0.51893 53 70 97
-0.47944 -0.18643 -0.50782 90 104 118
-0.47396 -0.18771 -0.51624 82 100 111
-0.46834 -0.18896 -0.52552 62 65 105
-0.46362 -0.19103 -0.52360 67 59 99
-0.46573 -0.19613 -0.52392 59 62 99
-0.41265 -0.20034 -0.62628 124 153 200
-0.40831 -0.20297 -0.61776 176 200 206
-0.40384 -0.20549 -0.61071 177 184 212
-0.39654 -0.20227 -0.60830 230 245 252
-0.39879 -0.20772 -0.60866 181 187 216
-0.35027 -0.20542 -0.81126 161 167 199
-0.34456 -0.20792 -0.80899 159 163 191
-0.33849 -0.21030 -0.80935 130 131 167
-0.33188 -0.21250 -0.81330 90 78 127
-0.32871 -0.22120 -0.81136 81 83 92
-0.32624 -0.21505 -0.81035 83 84 118
-0.31985 -0.21736 -0.81246 105 119 139
-0.31362 -0.21974 -0.81333 112 123 142
-0.30752 -0.22218 -0.81322 110 122 147
-0.29965 -0.22415 -0.82408 127 140 160
-0.29307 -0.22650 -0.82645 144 156 165
-0.28800 -0.22923 -0.81971 128 126 132
-0.28192 -0.23172 -0.81897 110 104 119
-0.27627 -0.23431 -0.81575 131 133 152
-0.26967 -0.23670 -0.81790 156 162 174
-0.26332 -0.23916 -0.81850 160 167 171
-0.25740 -0.24170 -0.81666 166 170 166
-0.25093 -0.24415 -0.81773 191 198 183
-0.24509 -0.24672 -0.81542 222 230 222
-0.24186 -0.25559 -0.81345 254 254 253
-0.23932 -0.24930 -0.81268 245 248 247
-0.23610 -0.25816 -0.81070 254 254 254
-0.23304 -0.25180 -0.81258 253 253 252
-0.22981 -0.26068 -0.81061 254 253 253
-0.20996 -0.26212 -0.80173 253 254 252
-0.21840 -0.26585 -0.80451 253 253 253
-0.21256 -0.26842 -0.80213 253 253 253
-0.20456 -0.26473 -0.79732 239 243 244
-0.19901 -0.26732 -0.79364 215 218 228
-0.17604 -0.27760 -0.78269 222 222 230
-0.17062 -0.28019 -0.77864 224 225 229
-0.16502 -0.28276 -0.77536 223 226 227
-0.16180 -0.29159 -0.77339 250 248 244
-0.16006 -0.28535 -0.76946 224 224 228
-0.15358 -0.28788 -0.76987 231 230 235
-0.14700 -0.29042 -0.77058 248 250 251
-0.14042 -0.29297 -0.77121 251 253 254
-0.13364 -0.29552 -0.77251 239 247 249
-0.12649 -0.29807 -0.77517 222 231 228
-0.12080 -0.30065 -0.77211 203 200 199
-0.11757 -0.30955 -0.77013 135 99 104
-0.11501 -0.30323 -0.76950 176 159 183
-0.10827 -0.30581 -0.77037 148 113 128
-0.09913 -0.30843 -0.77988 132 96 111
-0.09174 -0.31105 -0.78279 141 109 134
-0.08390 -0.31370 -0.78718 178 153 129
-0.07203 -0.31646 -0.80546 210 194 159
-0.07053 -0.31897 -0.78745 232 223 189
-0.06723 -0.32803 -0.78544 251 247 239
-0.06315 -0.32165 -0.78985 247 241 219
-0.05985 -0.33073 -0.78783 250 246 241
-0.05601 -0.32432 -0.79135 251 247 236
-0.05269 -0.33343 -0.78932 249 246 242
0.22030 -0.45197 -0.62230 251 253 241
0.22678 -0.45465 -0.62124 182 158 176
0.23569 -0.45779 -0.62500 112 88 104
0.24079 -0.46023 -0.62112 157 158 148
0.24708 -0.46288 -0.61960 223 230 221
0.25031 -0.47177 -0.61762 254 254 253
0.25338 -0.46554 -0.61810 250 252 250
0.25662 -0.47444 -0.61612 253 254 253
0.48521 -0.57032 -0.49812 252 250 233
0.47685 -0.57401 -0.50088 252 249 244
0.49330 -0.57343 -0.49901 235 213 165
0.49545 -0.57508 -0.49157 105 67 55
0.49922 -0.57712 -0.48644 38 19 36
0.50926 -0.58073 -0.48999 95 91 84
0.50911 -0.58178 -0.47952 196 202 190
0.51971 -0.58554 -0.48376 243 245 236
0.52291 -0.59431 -0.48180 251 249 241
0.58195 -0.61720 -0.41835 249 253 254
0.57882 -0.60860 -0.42027 254 254 254
0.57629 -0.61471 -0.42066 252 254 254
0.58448 -0.61109 -0.41796 254 254 254
0.59014 -0.61358 -0.41565 254 254 254
0.58761 -0.61969 -0.41604 251 253 254
-0.81798 -0.02275 -0.84576 75 80 95
-0.81103 -0.02728 -0.82857 88 96 106
-0.80815 -0.03518 -0.82681 92 97 105
-0.73103 -0.05800 -0.83985 78 86 93
-0.72077 -0.06189 -0.84171 110 109 119
-0.70990 -0.06699 -0.83426 114 120 134
-0.70695 -0.07510 -0.83245 114 113 132
-0.70622 -0.06567 -0.86135 87 88 109
-0.69993 -0.07006 -0.84298 90 100 112
-0.68417 -0.07621 -0.84430 58 54 63
-0.67800 -0.08074 -0.82405 42 40 39
-0.67256 -0.08336 -0.81962 37 37 27
-0.66673 -0.08730 -0.80397 40 35 43
-0.66379 -0.09535 -0.80217 45 38 65
-0.66115 -0.09058 -0.79362 50 56 73
-0.65599 -0.09246 -0.79537 72 89 91
-0.65066 -0.09495 -0.79181 32 38 50
-0.64774 -0.10297 -0.79002 26 28 41
-0.49027 -0.18675 -0.52010 69 76 97
-0.48540 -0.18861 -0.52084 79 81 107
-0.47440 -0.19128 -0.53750 39 42 82
-0.43715 -0.19811 -0.61549 40 51 136
-0.44441 -0.20132 -0.61789 49 54 118
-0.42154 -0.20445 -0.61435 18 37 146
-0.41876 -0.21210 -0.61264 23 35 132
-0.41621 -0.20651 -0.61493 37 55 155
-0.40939 -0.20784 -0.62851 114 130 174
-0.40300 -0.20945 -0.63755 191 206 225
-0.40016 -0.21725 -0.63582 213 232 238
-0.35877 -0.20916 -0.81196 141 140 186
-0.36700 -0.21280 -0.81468 231 234 230
-0.35194 -0.21124 -0.81822 117 123 153
-0.34556 -0.21352 -0.82076 123 129 141
-0.33955 -0.21595 -0.82039 121 123 129
-0.33443 -0.21868 -0.81370 91 87 103
-0.32298 -0.22372 -0.80904 88 89 103
-0.31771 -0.22636 -0.80374 99 92 108
-0.31112 -0.22865 -0.80705 107 101 122
-0.30307 -0.23061 -0.81923 119 123 143
-0.29577 -0.23280 -0.82623 138 151 161
-0.28971 -0.23530 -0.82540 144 146 145
-0.28391 -0.23786 -0.82294 144 139 145
-0.27725 -0.24025 -0.82548 161 166 173
-0.27403 -0.24911 -0.82351 209 208 228
-0.27133 -0.24280 -0.82363 179 190 193
-0.26650 -0.24554 -0.81567 198 209 212
-0.26123 -0.24819 -0.81037 216 220 223
-0.25521 -0.25071 -0.80916 236 240 235
-0.24811 -0.25308 -0.81363 249 252 247
-0.24488 -0.26193 -0.81166 253 254 254
-0.20687 -0.27100 -0.79908 246 249 249
-0.21531 -0.27473 -0.80186 253 254 254
-0.20948 -0.27730 -0.79948 250 253 253
-0.20087 -0.27356 -0.79749 238 243 242
-0.19549 -0.27616 -0.79303 243 243 238
-0.19226 -0.28502 -0.79106 252 253 252
-0.18911 -0.27869 -0.79309 247 244 240
-0.18588 -0.28756 -0.79111 253 254 252
-0.18369 -0.28128 -0.78887 248 245 242
-0.17809 -0.28386 -0.78548 249 247 244
-0.17370 -0.28649 -0.77697 249 248 244
-0.16830 -0.28906 -0.77288 250 249 244
-0.15708 -0.29417 -0.76660 249 249 246
-0.15055 -0.29672 -0.76716 240 248 249
-0.14336 -0.29926 -0.77027 219 214 235
-0.13765 -0.30183 -0.76745 189 170 198
-0.13182 -0.30439 -0.76507 158 128 149
-0.12460 -0.30697 -0.76804 137 101 126
-0.11089 -0.31214 -0.77078 145 110 108
-0.10275 -0.31478 -0.77668 180 156 118
-0.08587 -0.32013 -0.79003 234 225 188
-0.08258 -0.32918 -0.78801 251 246 238
-0.07986 -0.32276 -0.78783 246 241 217
-0.07656 -0.33180 -0.78581 250 246 242
0.20978 -0.45530 -0.62079 254 254 249
0.20657 -0.44647 -0.62275 253 252 250
0.20397 -0.45274 -0.62315 253 253 252
0.21558 -0.45785 -0.61839 217 200 199
0.22601 -0.46130 -0.62533 115 93 97
0.23193 -0.46388 -0.62311 136 134 121
0.23681 -0.46627 -0.61883 210 209 203
0.24440 -0.46918 -0.61988 247 246 246
0.24764 -0.47807 -0.61791 254 254 254
0.47798 -0.57538 -0.49193 253 251 226
0.46966 -0.57905 -0.49467 253 251 245
0.47172 -0.57486 -0.47264 214 177 137
0.48992 -0.58055 -0.48783 99 47 41
0.49567 -0.58309 -0.48549 73 51 60
0.49766 -0.58465 -0.47794 167 170 155
0.50493 -0.58758 -0.47771 236 238 225
0.50811 -0.59630 -0.47577 252 250 241
0.57873 -0.62216 -0.42722 240 245 248
0.57558 -0.61352 -0.42914 254 254 254
0.57304 -0.61966 -0.42954 254 254 253
0.58163 -0.62391 -0.42147 227 233 245
0.58310 -0.62526 -0.41400 229 239 250
0.59127 -0.62165 -0.41130 253 254 254
0.57999 -0.62535 -0.40101 240 250 254
0.58810 -0.62177 -0.39834 254 254 254
0.58309 -0.63387 -0.39912 218 230 243
0.57755 -0.62562 -0.38898 249 253 254
0.58561 -0.62206 -0.38632 254 254 254
0.58312 -0.62807 -0.38670 253 254 254
-0.82788 -0.02328 -0.86740 64 66 83
-0.83554 -0.02666 -0.86993 57 63 76
-0.82107 -0.02749 -0.85241 75 80 95
-0.81816 -0.03548 -0.85063 84 93 107
-0.81477 -0.03110 -0.84128 86 94 104
-0.81188 -0.03906 -0.83951 91 95 106
-0.74261 -0.06150 -0.82574 76 75 84
-0.74552 -0.05349 -0.82753 69 69 79
-0.74788 -0.05918 -0.82789 68 67 84
-0.73802 -0.06264 -0.83280 84 82 86
-0.73298 -0.06450 -0.83431 85 83 103
-0.72806 -0.06612 -0.83783 96 106 116
-0.72191 -0.07003 -0.82324 122 127 132
-0.71793 -0.06979 -0.84169 141 149 156
-0.71243 -0.07244 -0.83711 127 131 146
-0.70167 -0.07731 -0.83143 119 128 136
-0.69676 -0.07868 -0.83745 119 129 130
-0.69152 -0.08074 -0.83774 110 119 123
-0.68596 -0.08359 -0.83148 96 106 109
-0.67992 -0.08774 -0.81391 86 96 93
-0.67430 -0.09095 -0.80421 75 82 68
-0.66889 -0.09362 -0.79904 58 58 54
-0.65816 -0.09882 -0.78991 42 45 68
-0.65297 -0.10086 -0.79023 25 26 49
-0.63238 -0.10714 -0.81003 14 14 36
-0.63534 -0.09899 -0.81184 31 37 53
-0.63774 -0.10478 -0.81222 25 22 47
-0.62998 -0.10135 -0.80966 25 32 50
-0.49149 -0.19088 -0.53317 52 61 90
-0.48888 -0.19805 -0.53158 12 16 69
-0.48558 -0.19178 -0.54796 37 39 81
-0.48061 -0.19370 -0.54866 21 27 83
-0.47074 -0.19764 -0.54873 40 47 87
-0.44027 -0.20409 -0.60672 35 43 123
-0.44250 -0.20948 -0.60707 26 35 119
-0.43486 -0.20604 -0.60882 33 50 137
-0.42390 -0.20994 -0.61365 28 45 141
-0.41400 -0.21446 -0.60809 36 47 135
-0.41625 -0.21989 -0.60844 22 38 125
-0.40657 -0.21558 -0.62678 130 155 191
-0.40376 -0.22332 -0.62506 152 183 221
-0.36063 -0.21505 -0.81769 168 167 187
-0.36318 -0.22121 -0.81809 204 216 219
-0.35469 -0.21748 -0.81715 139 141 149
-0.34195 -0.22210 -0.82197 126 125 124
-0.33632 -0.22466 -0.81888 103 102 107
-0.33136 -0.22740 -0.81115 87 82 90
-0.32514 -0.22979 -0.81214 106 98 105
-0.31827 -0.23202 -0.81735 145 142 139
-0.30939 -0.23381 -0.83518 171 178 170
-0.30343 -0.23634 -0.83371 167 169 155
-0.29721 -0.23882 -0.83384 164 163 154
-0.29128 -0.24136 -0.83203 187 193 184
-0.28541 -0.24392 -0.82988 206 210 208
-0.28002 -0.24657 -0.82494 216 220 223
-0.26960 -0.25189 -0.81326 217 223 238
-0.26390 -0.25446 -0.81033 231 242 248
-0.25792 -0.25699 -0.80896 240 250 252
-0.25070 -0.25937 -0.81411 248 253 253
-0.23798 -0.26438 -0.81482 247 251 254
-0.23137 -0.26688 -0.81631 246 252 254
-0.22289 -0.26314 -0.81351 254 253 253
-0.22551 -0.26946 -0.81392 252 254 254
-0.20281 -0.27982 -0.80097 245 251 252
-0.19774 -0.28243 -0.79503 248 251 252
-0.18277 -0.29022 -0.77685 249 253 253
-0.17846 -0.29281 -0.76808 242 252 253
-0.17136 -0.29533 -0.77131 233 249 251
-0.16619 -0.29789 -0.76632 226 240 242
-0.15801 -0.30042 -0.77378 217 202 221
-0.15234 -0.30298 -0.77080 182 143 189
-0.14474 -0.30555 -0.77555 140 112 134
-0.13943 -0.30812 -0.77109 131 99 114
-0.13420 -0.31068 -0.76636 133 96 91
-0.12726 -0.31327 -0.76823 146 111 107
-0.12171 -0.31583 -0.76475 184 162 127
-0.11176 -0.31853 -0.77770 217 200 158
-0.09110 -0.32644 -0.78125 251 244 227
-0.08782 -0.33544 -0.77925 249 245 240
0.19897 -0.45854 -0.61857 254 253 253
0.19577 -0.44974 -0.62053 252 252 249
0.19318 -0.45599 -0.62093 252 252 252
0.19059 -0.46224 -0.62134 253 253 254
0.20491 -0.46112 -0.61650 238 232 233
0.21228 -0.46398 -0.61737 136 109 155
0.22211 -0.46734 -0.62313 123 95 100
0.22781 -0.46989 -0.62050 189 184 165
0.23611 -0.47296 -0.62302 238 240 234
0.23935 -0.48184 -0.62104 254 254 254
0.24295 -0.47573 -0.62258 252 253 253
0.24619 -0.48463 -0.62059 254 254 254
0.46732 -0.57949 -0.48082 254 251 224
0.45906 -0.58314 -0.48354 254 253 247
0.46759 -0.58059 -0.47079 190 149 128
0.48446 -0.58601 -0.48419 85 46 50
0.47423 -0.58436 -0.45958 119 113 116
0.48838 -0.58908 -0.46904 211 220 211
0.49154 -0.59774 -0.46711 252 252 243
0.52229 -0.60503 -0.44485 243 237 240
0.51915 -0.59642 -0.44677 253 251 246
0.51662 -0.60254 -0.44716 254 253 245
0.52482 -0.59891 -0.44446 252 252 248
0.53049 -0.60141 -0.44214 253 253 252
0.52680 -0.60722 -0.44102 245 243 246
0.53499 -0.60360 -0.43831 254 254 254
0.57752 -0.62773 -0.43873 254 254 252
0.57436 -0.61904 -0.44067 254 254 254
0.57180 -0.62521 -0.44107 254 254 254
0.56925 -0.63138 -0.44146 254 254 254
0.57497 -0.63390 -0.43913 254 254 252
0.58378 -0.63039 -0.43707 235 233 238
0.57948 -0.63013 -0.42234 204 204 219
0.58195 -0.63174 -0.41608 186 197 214
0.58507 -0.64033 -0.41417 171 178 191
0.57903 -0.63184 -0.40329 195 209 226
0.57408 -0.63224 -0.37919 236 247 252
0.58210 -0.62871 -0.37655 254 254 254
0.57576 -0.63360 -0.37230 247 253 254
0.58374 -0.63007 -0.36966 254 254 254
0.58128 -0.63603 -0.37004 253 254 254
0.57881 -0.64199 -0.37043 234 244 251
-0.82422 -0.03220 -0.85948 75 80 95
-0.74861 -0.06743 -0.80824 68 65 88
-0.75150 -0.05951 -0.81000 65 68 80
-0.75383 -0.06514 -0.81037 65 65 84
-0.74449 -0.06796 -0.82010 81 81 93
-0.73954 -0.06976 -0.82201 103 104 103
-0.73465 -0.07144 -0.82497 110 113 126
-0.73172 -0.07947 -0.82318 155 163 176
-0.72917 -0.07411 -0.82005 122 135 148
-0.72531 -0.07386 -0.83894 141 153 160
-0.72051 -0.07521 -0.84501 145 159 171
-0.71044 -0.07863 -0.85156 139 144 164
-0.70529 -0.08051 -0.85349 143 146 161
-0.69947 -0.08380 -0.84353 142 147 155
-0.69397 -0.08643 -0.83902 136 142 148
-0.68826 -0.08961 -0.82980 129 136 142
-0.68278 -0.09226 -0.82499 121 127 135
-0.67680 -0.09632 -0.80765 108 114 118
-0.67123 -0.09940 -0.79879 84 86 91
-0.66588 -0.10192 -0.79483 59 51 65
-0.66053 -0.10446 -0.79072 34 34 50
-0.65526 -0.10677 -0.78861 26 25 51
-0.65008 -0.10878 -0.78946 33 34 49
-0.64244 -0.10540 -0.78694 31 25 35
-0.64494 -0.11049 -0.79311 39 37 49
-0.63992 -0.11154 -0.80319 36 38 57
-0.62944 -0.11513 -0.80974 19 11 33
-0.62416 -0.11687 -0.81369 15 8 18
-0.54762 -0.14642 -0.82603 13 11 14
-0.55067 -0.13804 -0.82789 8 8 11
-0.55313 -0.14399 -0.82827 9 9 11
-0.54516 -0.14047 -0.82564 8 8 11
-0.53965 -0.14290 -0.82340 11 9 15
-0.54211 -0.14884 -0.82378 18 15 20
-0.49162 -0.19395 -0.56315 25 26 70
-0.49857 -0.19702 -0.56545 30 37 71
-0.49376 -0.19914 -0.56348 22 23 68
-0.48896 -0.20125 -0.56152 17 23 76
-0.48156 -0.19778 -0.56530 17 22 78
-0.48371 -0.20299 -0.56563 17 25 79
-0.47889 -0.20511 -0.56367 19 29 83
-0.47661 -0.19980 -0.56496 26 32 82
-0.46679 -0.20393 -0.56292 45 52 97
-0.45979 -0.20084 -0.56061 62 68 113
-0.43791 -0.21191 -0.60087 29 45 132
-0.42705 -0.21584 -0.60541 52 66 147
-0.42191 -0.21798 -0.60461 46 65 137
-0.41094 -0.22198 -0.60880 39 61 138
-0.35750 -0.22373 -0.81557 197 205 195
-0.36575 -0.22738 -0.81830 159 174 191
-0.35274 -0.22654 -0.80613 175 181 155
-0.34440 -0.22826 -0.82324 134 131 129
-0.33801 -0.23061 -0.82548 119 117 121
-0.33182 -0.23303 -0.82618 125 117 115
-0.32443 -0.23516 -0.83486 176 178 171
-0.32122 -0.24398 -0.83289 228 237 238
-0.32086 -0.23824 -0.81760 212 219 207
-0.31471 -0.24069 -0.81783 215 222 217
-0.30790 -0.24301 -0.82215 198 205 190
-0.29985 -0.24511 -0.83402 172 171 168
-0.29405 -0.24769 -0.83143 161 160 175
-0.28804 -0.25022 -0.83012 171 172 193
-0.28217 -0.25278 -0.82797 181 186 207
-0.27679 -0.25542 -0.82303 168 172 206
-0.27144 -0.25805 -0.81796 168 171 204
-0.26614 -0.26068 -0.81267 185 188 210
-0.26016 -0.26321 -0.81124 203 205 217
-0.25371 -0.26570 -0.81235 225 225 234
-0.24809 -0.26828 -0.80889 241 239 245
-0.24249 -0.27086 -0.80539 216 212 234
-0.23420 -0.27322 -0.81561 213 218 237
-0.22783 -0.27576 -0.81583 238 244 247
-0.21934 -0.27201 -0.81303 253 254 254
-0.22347 -0.27844 -0.80604 246 246 247
-0.21202 -0.28359 -0.80022 239 239 242
-0.20609 -0.28616 -0.79826 222 219 224
-0.20037 -0.28873 -0.79535 220 222 226
-0.19061 -0.29391 -0.78208 227 226 245
-0.18543 -0.29648 -0.77697 212 203 234
-0.17863 -0.29902 -0.77892 187 167 206
-0.16947 -0.30157 -0.79079 161 130 167
-0.16623 -0.31047 -0.78881 130 95 81
-0.16469 -0.30414 -0.78390 139 115 132
-0.15865 -0.30672 -0.78232 130 105 119
-0.15275 -0.30929 -0.78016 128 88 104
-0.14737 -0.31186 -0.77589 133 95 89
-0.14202 -0.31442 -0.77157 153 120 115
-0.13694 -0.31696 -0.76624 185 164 128
-0.12967 -0.31958 -0.76940 219 206 155
-0.12239 -0.32221 -0.77251 240 230 197
-0.11914 -0.33112 -0.77052 251 247 240
-0.10872 -0.32747 -0.77490 251 246 229
-0.10547 -0.33641 -0.77291 249 245 237
0.19340 -0.46419 -0.61276 249 252 240
0.20600 -0.46813 -0.62450 173 151 182
0.20746 -0.46979 -0.61322 116 88 132
0.21711 -0.47314 -0.61868 167 164 162
0.22509 -0.47616 -0.62067 227 232 219
0.22832 -0.48502 -0.61870 254 254 253
0.23299 -0.47916 -0.62240 250 252 248
0.23622 -0.48804 -0.62043 254 254 254
0.45996 -0.58438 -0.47434 254 249 230
0.46519 -0.58676 -0.47139 157 124 156
0.46678 -0.58817 -0.46332 100 75 113
0.47729 -0.59196 -0.46778 171 174 180
0.48613 -0.59531 -0.46985 237 242 236
0.48929 -0.60397 -0.46792 252 251 243
0.51446 -0.60876 -0.44806 254 252 241
0.51133 -0.60014 -0.44998 253 253 244
0.50879 -0.60626 -0.45037 254 253 243
0.50626 -0.61238 -0.45077 253 252 242
0.52213 -0.61181 -0.44838 226 216 228
0.52899 -0.61463 -0.44763 224 219 234
0.53441 -0.61706 -0.44495 244 246 249
0.58128 -0.63658 -0.43754 246 241 243
0.57300 -0.64024 -0.44027 254 254 254
0.57792 -0.63653 -0.42395 217 214 221
0.57336 -0.63612 -0.40900 184 189 193
0.57647 -0.64467 -0.40710 201 203 203
0.57348 -0.63790 -0.39085 174 187 200
0.57098 -0.64391 -0.39124 195 202 202
0.56860 -0.63736 -0.37594 190 201 209
0.57166 -0.64576 -0.37407 194 201 208
0.57047 -0.63875 -0.36930 215 223 233
-0.83223 -0.03515 -0.86503 65 69 84
-0.83987 -0.03853 -0.86756 57 62 77
-0.76020 -0.07017 -0.79949 63 67 85
-0.76306 -0.06230 -0.80124 66 70 81
-0.76538 -0.06789 -0.80160 66 68 81
-0.75788 -0.06458 -0.79913 64 68 83
-0.75531 -0.07202 -0.80078 74 75 94
-0.74978 -0.07482 -0.79453 93 90 108
-0.74446 -0.07732 -0.79070 114 116 131
-0.74144 -0.07617 -0.81646 134 144 154
-0.73623 -0.07841 -0.81496 143 157 169
-0.72759 -0.07981 -0.83768 162 170 178
-0.72234 -0.08201 -0.83677 152 164 181
-0.71778 -0.08292 -0.84687 140 152 180
-0.71272 -0.08470 -0.84976 143 151 175
-0.69636 -0.09225 -0.83924 166 171 174
-0.69031 -0.09614 -0.82338 164 168 169
-0.68512 -0.09816 -0.82420 160 165 165
-0.67943 -0.10138 -0.81409 144 152 150
-0.67387 -0.10435 -0.80606 115 122 124
-0.66838 -0.10722 -0.79887 84 91 94
-0.66285 -0.11027 -0.78995 67 72 72
-0.65767 -0.11231 -0.79049 61 62 77
-0.65231 -0.11490 -0.78568 62 69 79
-0.64728 -0.11633 -0.79229 61 69 82
-0.64221 -0.11769 -0.79970 59 69 81
-0.63699 -0.11956 -0.80231 60 67 79
-0.63177 -0.12126 -0.80670 55 51 64
-0.62641 -0.12367 -0.80397 40 38 38
-0.62105 -0.12605 -0.80147 22 12 16
-0.61331 -0.12263 -0.79891 10 9 12
-0.55570 -0.15032 -0.82404 16 14 16
-0.55874 -0.14197 -0.82590 9 8 13
-0.56120 -0.14790 -0.82628 12 10 14
-0.55023 -0.15281 -0.82093 22 19 22
-0.54454 -0.15468 -0.82552 28 28 31
-0.53656 -0.15116 -0.82289 23 22 29
-0.53880 -0.15656 -0.83019 34 37 43
-0.53079 -0.15303 -0.82754 30 31 41
-0.53327 -0.15900 -0.82793 39 43 50
-0.53574 -0.16497 -0.82831 42 46 54
-0.46867 -0.20895 -0.56666 37 44 98
-0.46332 -0.21074 -0.57073 49 55 109
-0.45762 -0.21234 -0.57832 52 63 117
-0.45491 -0.21978 -0.57666 26 35 115
-0.45219 -0.21417 -0.58220 34 37 116
-0.44140 -0.21797 -0.58817 26 41 133
-0.43533 -0.21957 -0.59743 42 58 146
-0.43014 -0.22165 -0.59751 57 75 153
-0.42514 -0.22384 -0.59559 50 70 148
-0.41902 -0.22554 -0.60401 34 50 129
-0.41624 -0.23316 -0.60231 14 23 98
-0.41361 -0.22759 -0.60546 11 21 104
-0.40736 -0.22933 -0.61395 93 109 163
-0.40004 -0.22610 -0.61153 223 236 243
-0.35706 -0.23319 -0.79303 217 220 200
-0.34835 -0.23484 -0.81343 165 160 165
-0.34164 -0.23709 -0.81830 157 161 161
-0.33413 -0.23919 -0.82844 176 170 159
-0.33079 -0.24229 -0.80931 219 230 222
-0.31733 -0.24692 -0.81793 212 217 225
-0.30927 -0.24902 -0.83044 203 208 205
-0.30247 -0.25141 -0.83433 177 183 182
-0.29682 -0.25400 -0.83080 147 139 159
-0.29030 -0.25646 -0.83266 146 136 156
-0.28521 -0.25914 -0.82580 160 159 178
-0.28004 -0.26179 -0.81964 164 171 185
-0.27484 -0.26442 -0.81379 157 155 163
-0.26851 -0.26692 -0.81437 175 178 193
-0.26529 -0.27575 -0.81240 224 234 234
-0.26248 -0.26945 -0.81318 195 202 210
-0.25688 -0.27203 -0.80965 207 213 222
-0.25102 -0.27459 -0.80755 217 221 230
-0.24381 -0.27704 -0.81247 185 188 213
-0.23789 -0.27961 -0.81053 182 192 214
-0.23060 -0.28209 -0.81545 215 226 231
-0.22567 -0.28472 -0.80847 221 231 235
-0.21763 -0.28720 -0.81677 216 228 232
-0.21406 -0.28987 -0.80333 202 214 215
-0.20094 -0.29224 -0.83516 172 178 182
-0.18357 -0.30010 -0.82571 155 142 176
-0.18536 -0.30273 -0.78909 142 125 155
-0.17850 -0.30531 -0.79116 135 110 134
-0.17281 -0.30788 -0.78810 132 99 107
-0.16120 -0.31303 -0.78297 134 102 85
-0.15541 -0.31560 -0.78037 153 118 111
-0.15168 -0.31811 -0.76943 185 160 132
-0.14459 -0.32072 -0.77210 219 207 167
-0.13806 -0.32332 -0.77248 240 234 200
-0.13482 -0.33220 -0.77050 252 249 237
-0.13200 -0.32590 -0.77090 250 245 212
-0.12877 -0.33478 -0.76892 250 248 241
-0.12585 -0.32849 -0.76970 252 247 233
-0.12261 -0.33738 -0.76772 250 247 243
0.18233 -0.46731 -0.60979 253 254 248
0.17915 -0.45857 -0.61174 252 252 252
0.17658 -0.46477 -0.61214 253 253 253
0.19844 -0.47203 -0.62909 205 191 196
0.20077 -0.47385 -0.61946 113 87 104
0.20442 -0.47594 -0.61270 149 144 148
0.21770 -0.48011 -0.62557 218 218 216
0.22093 -0.48898 -0.62360 253 253 253
0.22299 -0.48256 -0.62210 248 249 246
0.22622 -0.49143 -0.62012 254 253 254
0.44825 -0.58706 -0.47204 254 254 246
0.44512 -0.57846 -0.47395 253 253 247
0.44258 -0.58457 -0.47435 254 253 249
0.44005 -0.59068 -0.47474 254 254 251
0.45488 -0.58982 -0.47111 250 236 210
0.45837 -0.59172 -0.46569 135 93 141
0.46739 -0.59513 -0.46813 136 119 167
0.47237 -0.59744 -0.46485 215 220 225
0.47551 -0.60606 -0.46293 252 252 245
0.48416 -0.60162 -0.47105 248 251 243
0.48732 -0.61029 -0.46912 253 252 244
0.51828 -0.61666 -0.45694 254 252 239
0.51003 -0.62031 -0.45966 253 252 242
0.52190 -0.61859 -0.45185 230 216 215
0.58255 -0.64386 -0.44272 254 252 252
0.57424 -0.64753 -0.44546 254 254 254
0.57998 -0.65005 -0.44312 254 254 254
0.58535 -0.64554 -0.43673 244 243 243
0.58124 -0.64521 -0.42224 222 226 218
0.56613 -0.64333 -0.37633 197 203 203
0.56366 -0.64929 -0.37671 233 236 237
0.56314 -0.64407 -0.35501 194 211 207
0.56070 -0.64997 -0.35539 215 223 203
0.56616 -0.65237 -0.35316 220 227 211
-0.76173 -0.07685 -0.79105 87 89 107
-0.75534 -0.08087 -0.77474 111 119 132
-0.75192 -0.08066 -0.79284 140 148 160
-0.74700 -0.08257 -0.79381 160 169 177
-0.74236 -0.08401 -0.79867 161 171 184
-0.73789 -0.08517 -0.80616 158 167 200
-0.73354 -0.08605 -0.81614 169 173 204
-0.72948 -0.08638 -0.83105 189 187 199
-0.72489 -0.08747 -0.83971 195 192 201
-0.71568 -0.08950 -0.85909 196 200 206
-0.70957 -0.09320 -0.84506 209 212 207
-0.70356 -0.09682 -0.83157 221 225 227
-0.69769 -0.10024 -0.81957 225 230 228
-0.69248 -0.10237 -0.81943 226 229 225
-0.68735 -0.10428 -0.82124 222 225 217
-0.68227 -0.10603 -0.82472 201 207 193
-0.67665 -0.10905 -0.81624 155 162 153
-0.67105 -0.11211 -0.80718 109 117 121
-0.66554 -0.11502 -0.79938 93 97 106
-0.66020 -0.11748 -0.79598 90 92 108
-0.65486 -0.11996 -0.79229 87 91 104
-0.64963 -0.12209 -0.79215 86 92 106
-0.64427 -0.12467 -0.78747 89 95 108
-0.63908 -0.12661 -0.78928 94 101 111
-0.63376 -0.12902 -0.78633 93 98 106
-0.62862 -0.13047 -0.79345 81 90 84
-0.62342 -0.13200 -0.80002 60 55 46
-0.61809 -0.13423 -0.79914 26 27 22
-0.61276 -0.13634 -0.79974 9 10 8
-0.60500 -0.13291 -0.79718 8 9 9
-0.60740 -0.13870 -0.79755 9 8 10
-0.56922 -0.15179 -0.82430 14 12 15
-0.57226 -0.14345 -0.82616 9 8 15
-0.57471 -0.14937 -0.82654 11 9 17
-0.56677 -0.14587 -0.82392 9 8 11
-0.56373 -0.15415 -0.82268 20 17 20
-0.55816 -0.15626 -0.82432 27 23 27
-0.55259 -0.15843 -0.82522 32 31 37
-0.54954 -0.16680 -0.82336 45 44 54
-0.54694 -0.16047 -0.82807 38 39 44
-0.54389 -0.16885 -0.82621 43 46 51
-0.54133 -0.16267 -0.82881 40 45 50
-0.53827 -0.17107 -0.82694 44 46 54
-0.47071 -0.21409 -0.56866 29 40 96
-0.47773 -0.21719 -0.57097 16 29 83
-0.46565 -0.21610 -0.56911 40 52 104
-0.46034 -0.21796 -0.57238 38 53 112
-0.45765 -0.22536 -0.57074 23 34 115
-0.44990 -0.22187 -0.57592 20 34 118
-0.45209 -0.22716 -0.57626 22 42 117
-0.44420 -0.22361 -0.58233 26 40 133
-0.43803 -0.22517 -0.59297 39 56 147
-0.43257 -0.22713 -0.59589 53 74 158
-0.42150 -0.23105 -0.60212 42 62 138
-0.41142 -0.23544 -0.59859 50 60 117
-0.40865 -0.24305 -0.59690 106 125 144
-0.34805 -0.24419 -0.79061 212 219 212
-0.33378 -0.24855 -0.80669 221 232 236
-0.32622 -0.25071 -0.81697 213 218 224
-0.31794 -0.25279 -0.83140 189 195 202
-0.31094 -0.25514 -0.83683 178 184 183
-0.30506 -0.25770 -0.83482 168 170 173
-0.29973 -0.26034 -0.82930 150 146 164
-0.29286 -0.26276 -0.83335 161 152 165
-0.28786 -0.26543 -0.82597 192 193 203
-0.28258 -0.26806 -0.82040 215 219 218
-0.27762 -0.27070 -0.81310 203 202 199
-0.27170 -0.27325 -0.81139 210 218 222
-0.25945 -0.27830 -0.81022 220 229 229
-0.24662 -0.28335 -0.81183 178 186 196
-0.24006 -0.28588 -0.81319 170 181 191
-0.23517 -0.28850 -0.80597 183 191 203
-0.21336 -0.29611 -0.81967 122 109 139
-0.20559 -0.29869 -0.82615 85 83 111
-0.20064 -0.30130 -0.81921 70 79 109
-0.19561 -0.30390 -0.81275 90 97 123
-0.19183 -0.30648 -0.80079 116 111 115
-0.18660 -0.30905 -0.79560 123 112 106
-0.18167 -0.31161 -0.78917 127 112 101
-0.17483 -0.31421 -0.79105 141 126 100
-0.16990 -0.31676 -0.78474 162 138 97
-0.16464 -0.31931 -0.77992 196 177 130
-0.15813 -0.32191 -0.78031 222 207 175
-0.15185 -0.32450 -0.77970 239 232 204
-0.14862 -0.33339 -0.77772 253 251 241
-0.14621 -0.32707 -0.77646 249 245 219
-0.14298 -0.33595 -0.77448 253 250 245
-0.14039 -0.32964 -0.77397 253 251 236
-0.13716 -0.33853 -0.77199 251 249 244
0.17019 -0.47015 -0.60438 254 254 252
0.16702 -0.46146 -0.60632 252 252 252
0.16447 -0.46763 -0.60671 253 253 253
0.16191 -0.47381 -0.60711 254 253 254
0.18221 -0.47405 -0.61536 235 227 224
0.18637 -0.47623 -0.60964 123 119 137
0.19193 -0.47872 -0.60688 125 114 109
0.20610 -0.48314 -0.62187 202 199 190
0.21258 -0.48585 -0.62086 244 244 241
0.21580 -0.49469 -0.61889 253 253 253
0.44118 -0.59192 -0.46588 254 254 241
0.43302 -0.59552 -0.46857 254 254 249
0.44727 -0.59453 -0.46422 233 213 178
0.45578 -0.59781 -0.46601 115 85 99
0.46071 -0.60010 -0.46266 156 159 174
0.47326 -0.60452 -0.47005 234 239 238
0.47641 -0.61317 -0.46812 253 251 244
0.52116 -0.62525 -0.45465 245 226 209
0.52191 -0.62719 -0.43599 197 202 214
0.51862 -0.62709 -0.42202 237 251 254
0.52780 -0.63060 -0.42438 251 254 254
0.53593 -0.62700 -0.42169 254 254 254
0.53342 -0.63307 -0.42208 254 254 254
0.58117 -0.65124 -0.43511 254 254 253
0.57290 -0.65489 -0.43784 254 254 254
0.57862 -0.65741 -0.43551 254 254 254
0.58433 -0.65992 -0.43317 254 254 253
0.58134 -0.65212 -0.42591 249 251 246
0.58264 -0.65332 -0.41818 241 240 237
0.57122 -0.65074 -0.39496 237 235 237
-0.77741 -0.07824 -0.77655 67 69 80
-0.78023 -0.07049 -0.77827 70 76 83
-0.78251 -0.07599 -0.77863 66 73 82
-0.77513 -0.07274 -0.77619 70 72 83
-0.76808 -0.08159 -0.78166 105 109 120
-0.76333 -0.08335 -0.78368 134 143 153
-0.75869 -0.08494 -0.78723 156 166 176
-0.75406 -0.08648 -0.79118 167 179 197
-0.74941 -0.08802 -0.79536 183 187 208
-0.74461 -0.08975 -0.79801 199 190 210
-0.73980 -0.09144 -0.80101 202 200 226
-0.73501 -0.09310 -0.80451 210 212 238
-0.73103 -0.09341 -0.81999 236 233 242
-0.72811 -0.10143 -0.81820 254 254 254
-0.71676 -0.09766 -0.83831 254 253 244
-0.71380 -0.10579 -0.83650 254 254 254
-0.71133 -0.10016 -0.83478 254 254 245
-0.70837 -0.10828 -0.83297 254 254 254
-0.70566 -0.10311 -0.82701 254 254 251
-0.70272 -0.11121 -0.82521 254 254 254
-0.70016 -0.10581 -0.82157 254 253 250
-0.69721 -0.11389 -0.81977 254 254 253
-0.69497 -0.10788 -0.82199 253 252 249
-0.69202 -0.11597 -0.82019 252 253 253
-0.68969 -0.11012 -0.82081 249 249 245
-0.68439 -0.11239 -0.81938 234 235 229
-0.67889 -0.11514 -0.81321 193 196 194
-0.67390 -0.11666 -0.81923 137 140 150
-0.66796 -0.12059 -0.80126 105 108 125
-0.66256 -0.12319 -0.79635 99 101 124
-0.65734 -0.12533 -0.79619 104 106 123
-0.65216 -0.12725 -0.79831 115 117 130
-0.64697 -0.12915 -0.80070 126 131 139
-0.64189 -0.13056 -0.80853 131 139 144
-0.63659 -0.13265 -0.80921 127 133 141
-0.63125 -0.13495 -0.80770 112 125 132
-0.62588 -0.13732 -0.80539 100 106 106
-0.62042 -0.14046 -0.79446 72 79 75
-0.61515 -0.14216 -0.79962 29 34 31
-0.58276 -0.15402 -0.81495 17 13 18
-0.58577 -0.14575 -0.81679 8 7 12
-0.58820 -0.15163 -0.81717 12 10 15
-0.58033 -0.14815 -0.81457 11 8 15
-0.57722 -0.15573 -0.82135 18 17 20
-0.57167 -0.15768 -0.82502 24 23 24
-0.56615 -0.15995 -0.82456 32 30 33
-0.56060 -0.16211 -0.82569 37 36 41
-0.55755 -0.17047 -0.82383 45 47 53
-0.55497 -0.16414 -0.82869 40 42 50
-0.55192 -0.17252 -0.82682 46 47 54
-0.47255 -0.21911 -0.57317 22 36 92
-0.47959 -0.22222 -0.57550 14 27 80
-0.46784 -0.22135 -0.56923 28 43 100
-0.46267 -0.22331 -0.57095 27 40 108
-0.45998 -0.23071 -0.56931 21 36 114
-0.44771 -0.22957 -0.56872 16 30 123
-0.44085 -0.23080 -0.58713 48 68 154
-0.43521 -0.23268 -0.59204 64 89 169
-0.42430 -0.23667 -0.59723 46 70 132
-0.36299 -0.24559 -0.78697 207 217 237
-0.35691 -0.24796 -0.78815 222 223 226
-0.35285 -0.25078 -0.77425 241 246 241
-0.33448 -0.25437 -0.82011 190 195 212
-0.32754 -0.25670 -0.82596 186 189 192
-0.31988 -0.25895 -0.83622 170 173 173
-0.31413 -0.26152 -0.83338 157 165 167
-0.30743 -0.26396 -0.83669 175 184 193
-0.30132 -0.26649 -0.83608 186 194 196
-0.29478 -0.26898 -0.83803 205 217 212
-0.28459 -0.27428 -0.82424 221 230 232
-0.28009 -0.27695 -0.81420 195 199 212
-0.27422 -0.27950 -0.81224 190 202 226
-0.26717 -0.28197 -0.81685 192 197 222
-0.24520 -0.28949 -0.83352 141 124 141
-0.23321 -0.29468 -0.82968 114 91 107
-0.22619 -0.29726 -0.83289 106 81 106
-0.20898 -0.30507 -0.82300 98 75 75
-0.20328 -0.30767 -0.81962 104 90 79
-0.19812 -0.31026 -0.81373 116 106 89
-0.19353 -0.31283 -0.80542 126 116 89
-0.18922 -0.31537 -0.79601 124 107 83
-0.18404 -0.31793 -0.79062 113 97 77
-0.17825 -0.32050 -0.78798 120 116 99
-0.17227 -0.32308 -0.78617 173 159 152
-0.16568 -0.32569 -0.78692 232 230 200
-0.16244 -0.33459 -0.78494 252 250 243
-0.16025 -0.32824 -0.78279 251 247 225
-0.15701 -0.33714 -0.78081 251 249 245
-0.15436 -0.33082 -0.78055 252 250 238
-0.15112 -0.33972 -0.77857 252 250 246
0.16584 -0.47592 -0.60094 247 248 242
0.18225 -0.48087 -0.62131 165 143 184
0.18036 -0.48166 -0.60282 123 98 123
0.19412 -0.48603 -0.61721 178 174 159
0.20233 -0.48914 -0.61985 233 236 227
0.20554 -0.49797 -0.61789 253 253 253
0.20806 -0.49168 -0.61733 252 253 250
0.21127 -0.50051 -0.61537 253 253 253
0.44681 -0.60120 -0.46758 197 168 165
0.45190 -0.60353 -0.46447 116 90 106
0.45688 -0.60583 -0.46121 176 187 184
0.46823 -0.60995 -0.46694 241 246 239
0.47137 -0.61858 -0.46502 252 250 243
0.52445 -0.63312 -0.46283 252 241 215
0.51615 -0.63678 -0.46557 253 252 242
0.52189 -0.63931 -0.46323 254 251 226
0.50412 -0.62797 -0.42594 199 172 146
0.50653 -0.62950 -0.41946 175 168 166
0.51363 -0.63240 -0.41917 195 198 223
0.52157 -0.63556 -0.41994 228 231 247
0.52755 -0.63814 -0.41814 250 251 253
0.53566 -0.63456 -0.41547 254 254 254
0.53316 -0.64061 -0.41586 254 254 254
0.53066 -0.64666 -0.41625 253 254 254
0.57596 -0.65819 -0.41345 254 253 252
0.56779 -0.66180 -0.41615 254 254 254
0.57343 -0.66428 -0.41385 254 254 254
0.57908 -0.66677 -0.41154 254 254 254
0.56494 -0.65563 -0.39071 251 248 251
0.56802 -0.66409 -0.38883 251 253 254
0.56314 -0.65584 -0.37947 246 248 252
0.56620 -0.66425 -0.37759 247 247 253
-0.78375 -0.08273 -0.76891 70 73 88
-0.78655 -0.07502 -0.77062 71 78 84
-0.78882 -0.08049 -0.77097 70 75 83
-0.77932 -0.08419 -0.77319 86 91 101
-0.77526 -0.08515 -0.78175 116 127 133
-0.77066 -0.08675 -0.78513 150 159 167
-0.76574 -0.08875 -0.78527 168 177 186
-0.76156 -0.08975 -0.79398 186 191 204
-0.75676 -0.09154 -0.79608 205 206 219
-0.75245 -0.09263 -0.80434 220 213 230
-0.74819 -0.09358 -0.81402 244 231 243
-0.74529 -0.10155 -0.81224 254 254 254
-0.74304 -0.09577 -0.81296 253 252 249
-0.74013 -0.10374 -0.81119 254 254 254
-0.73808 -0.09766 -0.81462 254 254 252
