ply
format ascii 1.0
element face 0
property list uchar int vertex_indices
element vertex 1322
property float x
property float y
property float z
property uchar diffuse_red
property uchar diffuse_green
property uchar diffuse_blue
end_header
1.05224 -0.16036 -0.64130 59 84 122
1.04930 -0.16850 -0.64215 59 84 120
1.04636 -0.17664 -0.64300 59 84 120
1.07318 -0.17373 -0.64399 52 72 97
1.08305 -0.17657 -0.64305 54 55 68
1.15268 -0.17381 -0.69367 134 131 118
1.12261 -0.18045 -0.65813 202 189 165
1.12734 -0.19183 -0.65607 222 198 176
-0.72275 0.47218 -1.16079 168 163 184
-0.72049 0.45280 -1.11311 217 222 234
-0.54207 0.37371 -1.02628 234 103 17
-0.55170 0.36905 -1.02968 251 119 10
-0.52724 0.36978 -1.02577 183 104 97
-0.52888 0.35267 -0.98137 204 176 179
-0.52344 0.34768 -0.97217 234 233 241
-0.51759 0.34344 -0.96516 249 249 251
-0.50818 0.34800 -0.96183 249 247 249
-0.51081 0.34072 -0.96259 247 244 246
-0.37806 0.30406 -0.95419 254 254 254
-0.37205 0.30027 -0.94843 252 254 252
-0.36477 0.29793 -0.94715 251 247 244
-0.35468 0.29868 -0.95545 253 244 197
-0.33845 0.30597 -0.98426 226 118 59
-0.32598 0.30893 -0.99972 144 29 13
-0.14692 0.19224 -0.81801 96 23 49
-0.15630 0.18770 -0.82133 98 18 40
-0.04628 0.19955 -0.90062 190 178 160
-0.05616 0.19477 -0.90412 182 183 189
-0.05680 0.18584 -0.85918 81 68 63
-0.05252 0.17555 -0.85732 37 21 40
-0.04993 0.18297 -0.85628 65 59 66
-0.04647 0.17805 -0.84602 103 88 120
-0.03104 0.18028 -0.86148 111 102 113
-0.02354 0.17774 -0.85982 176 189 188
-0.01365 0.17658 -0.86318 201 192 172
-0.00017 0.17742 -0.87390 207 209 206
0.02015 0.17514 -0.88106 206 209 208
0.03674 0.17747 -0.89753 166 161 170
0.05647 0.18138 -0.91998 103 101 104
0.06586 0.17957 -0.92139 117 121 136
0.07169 0.17586 -0.91569 93 96 141
0.07992 0.17341 -0.91474 112 115 110
0.10420 0.17248 -0.92783 166 148 138
0.12168 0.17462 -0.94437 179 178 187
0.12583 0.16999 -0.93530 151 131 154
0.13658 0.16865 -0.93876 112 55 77
0.14115 0.15769 -0.93677 94 12 30
0.17401 0.18023 -0.99192 95 13 35
0.17870 0.16896 -0.98988 91 16 31
0.22567 0.17771 -1.01845 78 21 51
0.21487 0.17248 -1.02226 83 25 39
0.23770 0.17653 -1.02311 51 38 65
0.28030 0.17558 -1.04781 89 81 99
0.28137 0.16941 -1.03287 91 102 128
0.26859 0.15737 -0.99421 104 140 169
0.26805 0.15074 -0.97706 101 144 195
0.27330 0.14661 -0.96995 101 148 203
0.27788 0.14224 -0.96178 106 149 200
0.28555 0.13916 -0.95887 112 154 208
0.29075 0.13509 -0.95186 114 159 212
0.30981 0.13657 -0.96776 111 159 222
0.32394 0.13600 -0.97531 116 158 221
0.33446 0.13396 -0.97683 114 159 220
0.35542 0.11771 -0.94899 105 167 217
0.35861 0.11295 -0.93896 106 170 220
0.36272 0.10856 -0.93046 110 170 224
0.37198 0.10606 -0.93001 119 173 226
0.38112 0.09772 -0.91470 152 201 248
0.37864 0.09115 -0.89647 226 248 254
0.41353 0.08047 -0.89161 254 254 253
0.42553 0.07884 -0.89512 218 227 242
0.44917 0.07536 -0.90136 191 222 246
0.47018 0.07645 -0.91751 200 229 248
0.50206 0.07522 -0.93470 200 229 244
0.52206 0.07574 -0.94875 175 205 215
0.52990 0.07255 -0.94565 175 180 173
0.54361 0.07109 -0.95068 169 145 122
0.56937 0.07308 -0.97213 123 86 73
0.59535 0.07501 -0.99356 60 35 33
0.60033 0.06303 -0.99139 41 31 31
0.57533 0.04238 -0.89812 37 35 59
0.56448 0.03712 -0.90195 40 38 51
0.57230 0.03399 -0.89899 36 38 56
0.57653 0.03748 -0.88647 40 50 71
0.58527 0.03461 -0.88476 51 64 86
0.60274 0.02375 -0.86837 69 74 81
0.60653 0.01965 -0.86038 50 56 74
0.61127 0.00824 -0.85831 40 40 62
0.62093 0.01318 -0.85315 43 49 69
0.94753 -0.10426 -0.76349 38 65 110
0.95841 -0.09900 -0.75965 58 77 115
0.95537 -0.10740 -0.76052 53 70 115
1.02376 -0.11940 -0.77368 58 76 115
1.02684 -0.11086 -0.77279 57 78 111
1.02751 -0.12311 -0.76665 48 69 113
1.02996 -0.12697 -0.75843 42 63 97
1.03455 -0.13465 -0.74189 55 55 78
1.02698 -0.13961 -0.72449 52 57 85
1.02707 -0.14363 -0.71438 54 57 87
1.02477 -0.14789 -0.70212 66 65 91
1.02951 -0.15930 -0.70005 84 93 107
1.02790 -0.15150 -0.69495 75 76 94
1.03436 -0.15474 -0.69087 77 75 89
1.04208 -0.15783 -0.68795 75 71 84
1.06270 -0.17885 -0.64781 61 84 115
1.05212 -0.18397 -0.65155 60 85 118
1.08266 -0.18075 -0.65571 40 53 91
1.07846 -0.18491 -0.64248 89 84 91
1.11289 -0.18555 -0.66278 177 166 155
1.11443 -0.18919 -0.65453 218 199 183
1.11915 -0.20054 -0.65247 226 203 182
-0.74497 0.48068 -1.19032 162 134 126
-0.75497 0.47584 -1.19385 144 141 146
-0.74776 0.47296 -1.19113 163 130 119
-0.72300 0.47333 -1.18573 146 126 142
-0.71893 0.45977 -1.15366 187 187 208
-0.70799 0.44357 -1.11932 250 251 251
-0.69823 0.44830 -1.11587 254 254 254
-0.70095 0.44076 -1.11665 254 254 253
-0.53778 0.36356 -1.02464 210 86 15
-0.52812 0.36537 -1.03552 181 74 32
-0.52318 0.35920 -1.02291 182 108 87
-0.51646 0.32871 -0.94927 246 245 249
-0.50711 0.33323 -0.94597 245 245 246
-0.50972 0.32601 -0.94672 245 244 246
-0.37667 0.30131 -0.96952 252 234 234
-0.35785 0.31191 -1.00879 247 196 186
-0.35108 0.30870 -1.00497 243 185 207
-0.34457 0.30523 -1.00030 251 218 165
-0.33327 0.30692 -1.01192 199 88 84
-0.32929 0.30072 -0.99864 146 42 35
-0.31752 0.30276 -1.01145 125 22 13
-0.31037 0.29989 -1.00874 106 21 13
-0.30125 0.29902 -1.01239 101 31 33
-0.06389 0.43806 -1.52140 101 60 59
-0.05840 0.42485 -1.51901 65 33 31
-0.14967 0.18490 -0.81846 94 16 37
-0.15905 0.18035 -0.82177 98 22 40
-0.15229 0.17765 -0.81921 96 17 29
-0.06595 0.17442 -0.84575 138 119 99
-0.04952 0.17038 -0.84603 110 107 144
-0.03975 0.16924 -0.84943 190 192 175
-0.02855 0.16888 -0.85575 189 198 195
-0.01445 0.17012 -0.86804 172 172 184
-0.00215 0.17025 -0.87630 186 200 215
0.00688 0.16847 -0.87760 185 195 204
0.01756 0.16758 -0.88222 191 194 187
0.04747 0.17708 -0.92585 123 118 107
0.05499 0.17427 -0.92351 94 94 94
0.06298 0.17170 -0.92212 93 85 102
0.07281 0.17009 -0.92434 114 119 139
0.08294 0.16860 -0.92707 144 138 134
0.09901 0.17010 -0.94129 185 186 163
0.11114 0.16951 -0.94761 199 201 189
0.11711 0.16579 -0.94196 162 143 157
0.12984 0.16541 -0.94923 116 63 79
0.13441 0.15441 -0.94723 96 13 33
0.15563 0.17132 -0.98101 96 17 35
0.16029 0.16013 -0.97898 92 16 27
0.21923 0.16780 -1.01309 60 24 45
0.20846 0.16258 -1.01690 59 23 27
0.23024 0.16615 -1.01600 47 43 58
0.26244 0.17391 -1.05664 80 88 86
0.27236 0.17160 -1.05714 98 100 110
0.28448 0.16360 -1.04451 82 95 117
0.28926 0.15908 -1.03605 48 79 127
0.29332 0.15430 -1.02645 38 82 136
0.28621 0.14493 -0.99789 41 85 144
0.29372 0.14170 -0.99446 41 82 149
0.30575 0.14028 -0.99862 46 82 154
0.31171 0.13641 -0.99258 52 86 160
0.33512 0.12703 -0.98369 63 101 172
0.34433 0.12443 -0.98301 67 111 174
0.36083 0.11849 -0.97848 79 128 169
0.36793 0.11510 -0.97438 82 131 175
0.37561 0.11191 -0.97120 85 137 189
0.37551 0.10596 -0.95591 88 142 199
0.37465 0.09980 -0.93960 102 150 205
0.37903 0.09555 -0.93154 108 158 209
0.37545 0.08858 -0.91142 130 182 225
0.37708 0.08348 -0.89942 193 238 251
0.38245 0.07968 -0.89318 217 248 254
0.39308 0.07765 -0.89486 222 246 254
0.40217 0.07509 -0.89418 227 250 254
0.41058 0.07230 -0.89247 232 251 254
0.41963 0.06970 -0.89168 217 237 244
0.42660 0.06644 -0.88784 175 210 226
0.44046 0.06533 -0.89395 161 213 247
0.46230 0.06663 -0.91139 165 223 252
0.47875 0.06618 -0.92086 170 227 251
0.49543 0.06573 -0.93050 175 231 250
0.51536 0.06618 -0.94454 177 222 233
0.52980 0.06493 -0.95067 176 190 184
0.52597 0.05836 -0.93138 160 147 126
0.53760 0.05628 -0.93358 111 79 69
0.58001 0.06285 -0.97779 62 36 31
0.58495 0.05097 -0.97564 43 28 22
0.57983 0.03078 -0.89564 38 46 69
0.58740 0.02758 -0.89236 49 58 82
0.59331 0.02396 -0.88692 63 72 90
0.59858 0.02020 -0.88068 69 80 85
0.60588 0.01695 -0.87710 61 69 78
0.61096 0.01316 -0.87069 47 50 71
0.62353 0.00621 -0.86105 43 45 66
0.63029 0.00287 -0.85686 48 55 80
1.01223 -0.12897 -0.76645 76 85 116
1.02072 -0.13208 -0.76399 53 69 114
1.01801 -0.13652 -0.75088 46 63 97
1.02092 -0.14026 -0.74319 55 56 65
1.01522 -0.14497 -0.72746 72 63 80
1.00799 -0.14979 -0.71044 66 67 89
1.00457 -0.15414 -0.69712 68 76 93
1.00929 -0.16549 -0.69506 77 93 104
1.01108 -0.15736 -0.69310 82 90 99
1.03704 -0.16632 -0.68694 77 78 86
1.04774 -0.16114 -0.68316 67 68 85
1.04475 -0.16941 -0.68402 63 69 87
1.05065 -0.17268 -0.67947 56 75 103
1.05538 -0.18403 -0.67742 58 82 120
1.06705 -0.18635 -0.65510 59 80 101
1.08636 -0.18837 -0.66241 53 53 75
1.09633 -0.19501 -0.65189 200 194 180
1.10104 -0.20631 -0.64984 227 207 189
1.10632 -0.19789 -0.65098 224 206 188
1.11103 -0.20921 -0.64893 229 207 188
-0.72023 0.45710 -1.16826 158 151 166
-0.71026 0.43746 -1.12408 238 243 247
-0.70271 0.43620 -1.12579 250 251 253
-0.69292 0.44095 -1.12233 254 254 254
-0.69566 0.43338 -1.12311 253 253 254
-0.67780 0.41577 -1.08935 242 215 197
-0.67326 0.38566 -1.01460 218 100 6
-0.66912 0.37570 -1.01280 222 105 11
-0.54415 0.36462 -1.04496 246 114 6
-0.55385 0.35992 -1.04839 245 114 18
-0.54686 0.35712 -1.04574 245 113 18
-0.53838 0.35970 -1.03604 232 104 7
-0.52617 0.35125 -1.02222 183 76 42
-0.51844 0.32247 -0.95299 232 207 221
-0.40933 0.30241 -0.97275 254 254 254
-0.41358 0.31262 -0.97460 254 254 254
-0.41626 0.30518 -0.97537 254 254 254
-0.40665 0.30984 -0.97198 254 254 254
-0.39971 0.30706 -0.96935 254 254 254
-0.39975 0.30280 -0.98005 253 254 253
-0.39312 0.29961 -0.97616 254 251 222
-0.37349 0.31150 -1.01972 250 185 138
-0.36689 0.30806 -1.01517 249 164 165
-0.36031 0.30463 -1.01063 249 200 178
-0.35943 0.29492 -0.98615 251 216 208
-0.35118 0.29343 -0.98772 253 222 180
-0.34103 0.29394 -0.99568 184 75 108
-0.33108 0.29412 -1.00266 203 109 79
-0.32003 0.29536 -1.01311 199 113 59
-0.31257 0.29280 -1.01140 135 41 13
-0.30260 0.29277 -1.01785 114 48 31
-0.08640 0.19921 -0.91808 170 177 188
-0.08203 0.18870 -0.91618 179 176 182
-0.07206 0.17191 -0.85700 185 182 183
-0.08173 0.16723 -0.86042 180 181 190
-0.07476 0.16443 -0.85778 181 180 187
-0.07462 0.16338 -0.83330 167 151 135
-0.05738 0.15988 -0.83559 156 161 165
-0.04284 0.16153 -0.84938 211 214 199
-0.02205 0.16663 -0.87619 163 143 145
-0.00680 0.16841 -0.89079 93 78 109
-0.00199 0.16425 -0.88320 123 149 188
0.02859 0.17431 -0.92922 109 127 164
0.03019 0.16829 -0.91472 157 173 182
0.04455 0.16920 -0.92648 127 118 135
0.05370 0.16725 -0.92746 111 110 112
0.05837 0.16293 -0.91936 80 94 78
0.07206 0.16331 -0.92932 102 127 139
0.08242 0.16190 -0.93249 143 138 145
0.09612 0.16214 -0.94208 184 188 187
0.10340 0.15910 -0.93902 172 168 171
0.10905 0.15527 -0.93282 125 78 85
0.11358 0.14437 -0.93084 100 17 36
0.14000 0.16374 -0.97499 100 21 40
0.14463 0.15260 -0.97297 94 19 33
0.22400 0.15637 -1.01104 40 44 41
0.27240 0.16442 -1.06357 86 91 98
0.26887 0.15629 -1.04027 67 60 79
0.27371 0.14465 -1.03816 47 43 64
0.27213 0.15116 -1.02917 35 38 73
0.27695 0.13957 -1.02707 45 48 62
0.27765 0.14703 -1.02211 34 42 72
0.28247 0.13545 -1.02001 43 46 67
0.27685 0.14030 -1.00422 32 43 76
0.28163 0.12881 -1.00214 40 46 68
0.27440 0.13299 -0.98374 32 40 78
0.27914 0.12159 -0.98168 36 45 62
0.28100 0.12943 -0.97888 29 37 78
0.28574 0.11804 -0.97681 31 43 59
0.30240 0.12557 -0.98294 14 36 80
0.30716 0.11413 -0.98087 22 38 57
0.31441 0.12411 -0.98705 9 33 79
0.31919 0.11263 -0.98497 21 38 60
0.33808 0.12092 -0.99433 8 37 90
0.35769 0.11609 -0.99472 13 47 92
0.35907 0.11057 -0.98138 19 54 96
0.37134 0.10904 -0.98547 24 59 100
0.37659 0.10496 -0.97839 25 57 110
0.37070 0.09119 -0.93898 32 67 129
0.38626 0.09079 -0.94816 40 65 135
0.40010 0.08974 -0.95451 42 82 132
0.40956 0.08718 -0.95411 82 97 166
0.41754 0.08411 -0.95142 98 92 168
0.42727 0.08161 -0.95134 106 109 178
0.43105 0.07718 -0.94239 120 115 190
0.43703 0.07348 -0.93675 132 128 200
0.44109 0.06919 -0.92835 105 108 199
0.43890 0.06300 -0.91091 71 105 183
0.44813 0.06038 -0.91019 62 117 184
0.45468 0.05693 -0.90560 67 127 190
0.46271 0.05394 -0.90314 75 137 200
0.47711 0.05282 -0.90970 82 146 208
0.50278 0.05494 -0.93201 101 157 206
0.50454 0.05005 -0.92053 131 131 170
0.51807 0.04854 -0.92552 122 91 103
0.55735 0.05422 -0.96593 81 51 54
0.57417 0.05345 -0.97498 56 30 27
0.57623 0.04321 -0.94989 36 32 35
0.57623 0.03789 -0.93615 34 36 46
0.57802 0.03309 -0.92493 34 39 49
0.57714 0.02764 -0.91030 34 41 53
0.58289 0.02395 -0.90453 38 43 62
0.58477 0.01930 -0.89375 46 52 70
0.59315 0.01630 -0.89152 52 60 75
0.59794 0.00478 -0.88943 48 27 38
0.59826 0.01250 -0.88504 54 65 74
0.60304 0.00099 -0.88296 47 26 33
0.60484 0.00907 -0.88051 49 58 69
0.61240 0.00589 -0.87724 42 45 67
0.62073 0.00288 -0.87496 38 41 63
0.62673 -0.00066 -0.86974 39 41 63
0.63151 -0.01215 -0.86766 47 27 46
0.64680 -0.00589 -0.86940 39 43 65
0.65159 -0.01741 -0.86731 46 27 54
0.65248 -0.00950 -0.86379 38 43 70
0.65726 -0.02101 -0.86171 44 28 49
0.67884 -0.01341 -0.87099 32 44 64
0.68365 -0.02499 -0.86889 42 29 53
0.69544 -0.01468 -0.87860 37 42 73
0.70028 -0.02632 -0.87650 40 29 55
0.69930 -0.01870 -0.87075 37 43 73
0.71023 -0.01341 -0.86688 31 44 73
0.70413 -0.03031 -0.86864 36 30 56
0.99088 -0.13964 -0.74972 81 93 113
0.99569 -0.15121 -0.74763 58 76 114
0.99989 -0.14265 -0.74787 56 73 115
1.00470 -0.15422 -0.74577 56 76 109
1.00196 -0.14647 -0.73938 52 68 103
1.00675 -0.15800 -0.73729 59 81 105
1.00026 -0.15068 -0.72739 61 71 86
1.00504 -0.16216 -0.72531 62 81 102
0.99977 -0.15472 -0.71663 76 76 89
1.00452 -0.16615 -0.71456 59 78 106
0.99593 -0.15909 -0.70283 70 74 96
1.00066 -0.17046 -0.70077 60 81 104
0.99106 -0.16353 -0.68818 68 86 98
1.00907 -0.16940 -0.68484 74 86 109
1.00610 -0.17763 -0.68570 60 81 113
1.01377 -0.18070 -0.68279 57 80 108
1.01598 -0.17255 -0.68123 63 81 102
1.02068 -0.18385 -0.67918 58 80 106
1.04559 -0.17731 -0.68835 55 73 100
1.04259 -0.18560 -0.68921 58 81 107
1.05032 -0.18870 -0.68629 60 82 112
1.04944 -0.18078 -0.68193 55 78 112
1.07099 -0.19019 -0.67176 63 84 115
1.07529 -0.19358 -0.66583 54 67 100
1.08058 -0.19687 -0.66082 84 77 99
1.10270 -0.20247 -0.66085 213 203 189
1.10742 -0.21383 -0.65879 230 209 192
-0.71670 0.44371 -1.15836 164 167 187
-0.72661 0.43891 -1.16186 127 83 72
-0.71198 0.43313 -1.13394 198 205 229
-0.70515 0.42956 -1.12917 227 231 247
-0.67570 0.42150 -1.12778 239 226 216
-0.67577 0.37871 -1.01620 217 105 23
-0.63368 0.38414 -1.05836 219 113 42
-0.64330 0.37948 -1.06176 229 106 17
-0.63636 0.37670 -1.05914 222 112 41
-0.62943 0.37392 -1.05651 211 111 46
-0.62636 0.38222 -1.05823 216 115 45
-0.61840 0.38165 -1.06206 216 111 21
-0.61414 0.37140 -1.06020 212 105 13
-0.54285 0.34919 -1.02775 241 114 16
-0.55249 0.34453 -1.03115 239 112 17
-0.54554 0.34175 -1.02852 240 115 16
-0.53571 0.34674 -1.02612 222 101 12
-0.52332 0.33874 -1.01351 197 86 25
-0.52601 0.33132 -1.01428 202 82 9
-0.51919 0.31811 -0.96250 212 132 124
-0.51166 0.31655 -0.96344 218 178 185
-0.48260 0.29618 -0.92969 252 251 250
-0.47327 0.30070 -0.92640 254 254 254
-0.47588 0.29349 -0.92715 253 254 254
-0.44421 0.28881 -0.93602 254 254 254
-0.44837 0.29880 -0.93783 254 254 254
-0.45099 0.29152 -0.93858 254 254 254
-0.44158 0.29608 -0.93526 254 254 254
-0.43480 0.29336 -0.93269 254 254 254
-0.43556 0.28842 -0.94078 252 253 253
-0.42546 0.28974 -0.95093 252 247 243
-0.42610 0.27795 -0.91978 254 218 219
-0.41935 0.27524 -0.91722 252 228 218
-0.38359 0.30645 -1.02234 251 192 161
-0.39235 0.28535 -0.96152 251 165 92
-0.36774 0.30260 -1.02286 249 185 144
-0.36143 0.29882 -1.01722 247 177 169
-0.35859 0.29128 -0.99946 245 143 132
-0.34971 0.29041 -1.00310 241 129 110
-0.34800 0.28185 -0.98193 186 78 48
-0.33433 0.28598 -1.00180 211 111 62
-0.11329 0.18332 -0.88136 108 74 93
-0.09129 0.19019 -0.91390 166 171 182
-0.07247 0.15886 -0.84478 182 172 172
-0.08208 0.15420 -0.84818 183 183 190
-0.06866 0.15425 -0.83529 165 152 147
-0.04164 0.15628 -0.85857 208 209 204
-0.02479 0.15904 -0.87698 171 152 138
0.00713 0.17008 -0.92699 51 48 50
0.00384 0.16135 -0.90205 80 110 120
0.03083 0.16237 -0.92268 120 141 148
0.04134 0.16116 -0.92654 85 69 140
0.05124 0.15960 -0.92904 112 98 133
0.06122 0.15803 -0.93161 126 119 103
0.07170 0.15670 -0.93511 131 132 142
0.08445 0.15646 -0.94298 159 156 164
0.09424 0.15469 -0.94487 167 164 165
0.10500 0.15336 -0.94856 131 94 89
0.12526 0.15660 -0.97049 105 30 36
0.12987 0.14550 -0.96848 100 22 35
0.34825 0.11135 -1.00097 13 36 65
0.33732 0.10606 -1.00483 18 35 57
0.34520 0.10290 -1.00185 15 35 59
0.35307 0.09975 -0.99887 17 34 57
0.35444 0.10758 -0.99528 14 32 64
0.35926 0.09599 -0.99318 18 35 59
0.35926 0.10333 -0.98742 15 31 68
0.36407 0.09178 -0.98532 19 36 61
0.36683 0.10009 -0.98401 17 34 70
0.37164 0.08854 -0.98192 20 37 61
0.36018 0.08607 -0.94304 9 32 77
0.36491 0.07471 -0.94098 18 40 64
0.36218 0.08103 -0.93122 7 30 79
0.37041 0.07814 -0.92917 9 26 82
0.38717 0.07808 -0.94019 35 51 95
0.39191 0.06669 -0.93812 70 79 82
0.40088 0.07695 -0.94635 56 73 102
0.40564 0.06550 -0.94427 77 78 80
0.41122 0.07467 -0.94730 62 66 103
0.41599 0.06320 -0.94522 79 78 77
0.42481 0.07341 -0.95307 60 65 104
0.42960 0.06190 -0.95098 77 77 82
0.43046 0.06960 -0.94688 50 58 105
0.43684 0.06602 -0.94181 45 56 107
0.44321 0.06246 -0.93676 27 43 108
0.44799 0.05098 -0.93468 23 50 76
0.44533 0.05760 -0.92553 15 41 96
0.45008 0.04618 -0.92346 24 51 74
0.44952 0.05342 -0.91741 13 42 94
0.45426 0.04202 -0.91535 27 51 74
0.45469 0.04956 -0.91079 13 44 95
0.45943 0.03818 -0.90872 29 53 75
0.46274 0.04656 -0.90832 15 48 99
0.46824 0.04281 -0.90223 13 43 98
0.47872 0.04052 -0.90322 19 39 97
0.49723 0.04046 -0.91540 102 100 108
0.50798 0.03817 -0.91658 155 125 93
0.51641 0.03522 -0.91449 129 84 71
0.58021 0.04731 -0.98847 88 47 43
0.57718 0.04108 -0.97021 64 31 25
0.57571 0.03533 -0.95426 51 23 19
0.57785 0.03060 -0.94336 47 19 19
0.58327 0.02676 -0.93694 46 17 20
0.57602 0.01970 -0.91374 44 17 22
0.58706 0.01734 -0.91493 48 20 27
0.59644 0.01455 -0.91391 47 21 31
0.59883 0.01005 -0.90375 46 23 38
0.60638 -0.00318 -0.87429 47 24 37
0.60996 -0.00728 -0.86600 46 25 44
0.74666 -0.04081 -0.86960 37 51 85
0.74180 -0.02913 -0.87172 36 48 80
0.73873 -0.03763 -0.87260 38 46 78
0.74974 -0.03230 -0.86871 37 49 85
0.75767 -0.03548 -0.86571 37 51 85
0.75460 -0.04399 -0.86660 39 52 84
0.97028 -0.14605 -0.74415 71 94 118
0.97699 -0.14931 -0.74013 67 82 113
0.99411 -0.17499 -0.68461 61 84 110
1.05688 -0.19190 -0.68231 60 83 114
1.06435 -0.19501 -0.67916 63 82 112
1.07216 -0.19810 -0.67631 68 82 100
1.08202 -0.20102 -0.67528 70 68 89
1.11507 -0.20580 -0.68480 178 169 167
1.09200 -0.21134 -0.65500 217 201 190
1.09670 -0.22266 -0.65295 232 209 198
-0.70915 0.44337 -1.18537 145 144 181
-0.70118 0.44276 -1.18916 174 178 212
-0.69752 0.42905 -1.15557 207 211 232
-0.67815 0.37207 -1.01872 219 114 46
-0.67007 0.37270 -1.02585 222 102 12
-0.66064 0.37727 -1.02251 227 107 12
-0.66327 0.36998 -1.02327 227 105 11
-0.66590 0.36269 -1.02403 225 106 9
-0.62097 0.37446 -1.06364 210 107 23
-0.61671 0.36420 -1.06178 206 100 14
-0.53440 0.33169 -1.00958 216 97 9
-0.51924 0.32828 -1.01087 203 86 17
-0.50300 0.31324 -0.98225 206 145 151
-0.50315 0.30027 -0.94804 215 192 217
-0.48996 0.29443 -0.94158 230 228 235
-0.48469 0.28968 -0.93265 241 237 242
-0.47824 0.28660 -0.92890 246 244 244
-0.46892 0.29112 -0.92561 253 254 254
-0.47042 0.28538 -0.93097 247 242 245
-0.46107 0.28991 -0.92767 254 254 254
-0.46289 0.28372 -0.93168 248 244 248
-0.45442 0.28323 -0.93612 247 244 248
-0.44958 0.27806 -0.92580 245 220 235
-0.43928 0.27977 -0.93726 236 162 199
-0.42578 0.28525 -0.96077 236 132 143
-0.41891 0.28249 -0.95817 244 143 148
-0.40971 0.28247 -0.96432 246 154 152
-0.38143 0.29346 -1.01236 239 113 38
-0.36949 0.29609 -1.02732 235 116 50
-0.36471 0.29062 -1.01617 226 111 57
-0.35902 0.28622 -1.00843 216 95 35
-0.35219 0.28309 -1.00480 209 92 35
-0.34807 0.27711 -0.99188 195 80 40
-0.33856 0.27683 -0.99756 204 105 39
-0.32808 0.27746 -1.00629 197 91 18
-0.31684 0.27873 -1.01724 179 61 22
-0.10490 0.18299 -0.90852 90 44 70
-0.08708 0.17961 -0.91165 178 180 187
-0.07721 0.18439 -0.90816 178 179 183
-0.07997 0.17676 -0.90895 180 180 186
-0.08272 0.16913 -0.90975 183 181 188
-0.07143 0.15362 -0.85383 183 184 188
-0.08109 0.14894 -0.85724 185 185 194
-0.07413 0.14615 -0.85461 185 184 193
-0.06421 0.15098 -0.85178 187 184 190
-0.04090 0.15073 -0.86685 206 209 212
0.00562 0.16301 -0.93059 65 58 62
-0.00520 0.15023 -0.88965 128 136 126
0.01366 0.15367 -0.91145 79 83 127
0.03799 0.15306 -0.92628 117 84 137
0.04705 0.15104 -0.92709 142 119 160
0.05539 0.14863 -0.92639 200 201 188
0.06591 0.14732 -0.93005 206 206 191
0.07819 0.14683 -0.93706 185 183 167
0.09640 0.14921 -0.95560 140 103 95
0.11356 0.15093 -0.97174 114 37 39
0.11817 0.13985 -0.96973 107 23 36
0.12261 0.14865 -0.97186 108 20 32
0.12723 0.13756 -0.96985 97 22 33
0.16733 0.13674 -0.97071 55 21 34
0.16268 0.14790 -0.97273 80 21 28
0.15975 0.13977 -0.97358 72 26 31
0.36969 0.07064 -0.93353 23 35 69
0.35901 0.06547 -0.93730 18 36 61
0.38864 0.07125 -0.94792 47 68 78
0.43393 0.05769 -0.94284 77 80 87
0.44217 0.05470 -0.94054 42 59 83
0.44694 0.04321 -0.93845 24 48 75
0.46368 0.03409 -0.90086 18 42 73
0.47484 0.03198 -0.90282 50 54 84
0.48750 0.03025 -0.90683 151 150 132
0.50620 0.03014 -0.91918 210 186 138
0.51636 0.02765 -0.91949 200 158 116
0.53819 0.02825 -0.93582 182 135 87
0.54566 0.02498 -0.93225 176 131 83
0.55146 0.02127 -0.92641 175 137 97
0.55609 0.01728 -0.91903 170 136 98
0.56281 0.01384 -0.91452 170 135 91
0.56150 0.00840 -0.89933 169 129 81
0.57853 0.00754 -0.90857 163 116 66
0.58613 0.00433 -0.90526 134 78 39
0.59478 0.00137 -0.90332 104 49 38
0.59615 -0.00332 -0.89191 112 64 50
0.60241 -0.00682 -0.88692 124 78 33
0.61101 -0.00978 -0.88496 122 79 18
0.62921 -0.02035 -0.86943 110 72 19
0.63775 -0.02331 -0.86740 106 68 23
0.63815 -0.02803 -0.85527 103 66 28
0.65096 -0.03007 -0.85854 98 65 32
0.69161 -0.03593 -0.87060 86 57 41
0.70593 -0.03779 -0.87536 81 53 39
0.71689 -0.03248 -0.87149 35 34 59
0.71693 -0.04035 -0.87607 79 53 41
0.72792 -0.03503 -0.87219 38 40 67
0.72591 -0.04331 -0.87434 74 57 46
0.72677 -0.04785 -0.86299 58 52 55
0.74226 -0.04957 -0.86892 50 37 56
0.75274 -0.05227 -0.86890 51 45 61
0.76375 -0.04694 -0.86501 41 47 84
0.75251 -0.05695 -0.85643 63 57 75
0.76347 -0.05164 -0.85256 42 46 84
0.75584 -0.06095 -0.84817 74 60 69
0.76677 -0.05565 -0.84430 42 46 85
0.75636 -0.06541 -0.83676 76 59 71
0.76725 -0.06014 -0.83292 42 46 86
0.74797 -0.07141 -0.81531 73 57 75
0.75875 -0.06619 -0.81150 42 50 87
0.74661 -0.07611 -0.80204 68 60 72
0.75734 -0.07091 -0.79825 45 53 87
0.74946 -0.08004 -0.79361 64 62 67
0.76015 -0.07486 -0.78983 45 54 88
0.75297 -0.08383 -0.78600 64 63 68
0.76364 -0.07867 -0.78223 42 55 90
0.75905 -0.08718 -0.78131 67 63 73
0.76971 -0.08202 -0.77754 43 51 91
0.76561 -0.09044 -0.77715 70 60 75
0.77626 -0.08529 -0.77339 44 51 89
0.77090 -0.09390 -0.77163 73 60 75
0.78154 -0.08875 -0.76787 42 54 86
0.77634 -0.09733 -0.76630 71 63 79
0.78697 -0.09218 -0.76254 41 55 86
0.78492 -0.10025 -0.76439 69 67 75
0.79555 -0.09511 -0.76063 45 55 88
0.79290 -0.10327 -0.76183 71 67 76
0.80353 -0.09813 -0.75808 45 53 90
0.80384 -0.10585 -0.76245 72 66 85
0.81449 -0.10069 -0.75868 46 55 89
0.81744 -0.10805 -0.76585 75 69 84
0.82813 -0.10287 -0.76207 49 55 90
0.82801 -0.11072 -0.76597 78 69 83
0.83871 -0.10553 -0.76219 52 55 91
0.82892 -0.11478 -0.75589 81 68 87
0.83959 -0.10962 -0.75212 51 54 93
0.83875 -0.12171 -0.74429 86 67 94
0.84938 -0.11657 -0.74054 54 56 94
0.84532 -0.12493 -0.74026 88 67 92
0.85575 -0.12763 -0.74022 88 73 104
0.86045 -0.13893 -0.73817 123 103 131
0.95059 -0.15631 -0.72881 69 77 109
0.95533 -0.16772 -0.72675 62 66 86
0.95692 -0.15957 -0.72452 64 73 105
0.96166 -0.17097 -0.72245 59 63 93
0.97197 -0.17745 -0.68764 54 73 106
0.97070 -0.18139 -0.67641 58 76 102
0.98094 -0.18419 -0.67597 57 76 104
0.98738 -0.18735 -0.67199 57 73 107
0.99499 -0.19040 -0.66911 58 72 99
1.01291 -0.19252 -0.67565 60 72 96
1.02830 -0.19490 -0.67979 58 73 98
1.03677 -0.19791 -0.67760 59 72 99
1.04763 -0.20072 -0.67754 56 71 96
1.05885 -0.20351 -0.67778 63 70 93
1.06697 -0.20656 -0.67522 82 91 84
1.08319 -0.20898 -0.67983 122 113 91
1.11264 -0.21039 -0.69602 167 148 136
1.07955 -0.21664 -0.65721 202 183 176
1.07983 -0.22027 -0.64785 222 201 193
1.08451 -0.23153 -0.64581 235 211 200
-0.70385 0.43542 -1.19122 132 126 152
-0.69647 0.43288 -1.18952 155 156 187
-0.69253 0.39714 -1.09729 222 228 240
-0.68616 0.39262 -1.08966 239 239 237
-0.66985 0.37262 -1.04770 220 100 11
-0.66565 0.36251 -1.04587 220 104 5
-0.64692 0.36985 -1.05608 231 109 11
-0.65116 0.38004 -1.05792 229 105 6
-0.65383 0.37262 -1.05869 229 105 3
-0.65651 0.36521 -1.05947 227 105 5
-0.63863 0.37022 -1.06275 228 117 35
-0.63117 0.36859 -1.06352 212 111 45
-0.53663 0.32500 -1.01255 222 105 9
-0.52348 0.31843 -1.00411 193 81 7
-0.51338 0.32058 -1.01677 195 85 10
-0.50514 0.31975 -1.02021 194 88 22
-0.49787 0.31741 -1.01897 189 88 65
-0.49315 0.31135 -1.00611 187 108 119
-0.49380 0.29776 -0.96956 190 149 166
-0.49212 0.28782 -0.94432 203 194 217
-0.48783 0.28173 -0.93107 223 221 232
-0.48094 0.27927 -0.92927 230 233 237
-0.47295 0.27826 -0.93207 231 227 230
-0.46175 0.28136 -0.94797 227 201 209
-0.45318 0.28089 -0.95261 221 156 175
-0.44294 0.28245 -0.96378 213 113 106
-0.43889 0.27622 -0.95000 206 92 79
-0.42293 0.28456 -0.98310 204 86 41
-0.41798 0.27940 -0.97279 212 98 59
-0.40590 0.28267 -0.98976 215 102 75
-0.39533 0.28400 -1.00055 221 103 27
-0.38603 0.28377 -1.00629 226 103 9
-0.37539 0.28493 -1.01669 225 102 7
-0.36245 0.27787 -1.00678 201 89 14
-0.35811 0.26742 -1.00489 188 91 7
-0.34942 0.27099 -0.99746 185 82 19
-0.33972 0.27085 -1.00375 159 60 22
-0.33121 0.26944 -1.00583 145 42 6
-0.32210 0.26857 -1.00976 163 58 8
-0.29541 0.26500 -1.01859 207 150 139
-0.29100 0.25440 -1.01667 219 181 166
-0.09407 0.17665 -0.92196 129 121 155
-0.08843 0.17286 -0.91575 174 182 189
-0.08406 0.16236 -0.91384 184 184 188
-0.06379 0.14531 -0.85946 184 182 195
-0.07348 0.14062 -0.86288 189 186 199
-0.02839 0.14490 -0.88263 214 202 196
0.00332 0.15548 -0.93250 89 60 122
0.00056 0.14716 -0.90851 109 114 106
0.01109 0.14604 -0.91275 101 91 110
0.03919 0.14063 -0.91764 224 224 215
0.04637 0.13766 -0.91468 224 227 218
0.06730 0.14155 -0.93936 200 194 179
0.08575 0.14405 -0.95865 150 107 101
0.10006 0.14439 -0.96937 123 43 43
0.11118 0.14312 -0.97363 116 28 35
0.14751 0.13390 -0.97404 76 28 33
0.14288 0.14505 -0.97606 91 24 33
0.13995 0.13693 -0.97691 88 28 33
0.15045 0.14201 -0.97320 83 25 32
0.15468 0.13069 -0.97043 70 28 32
0.16114 0.12716 -0.96549 75 37 40
0.18099 0.12952 -0.98537 88 65 53
0.19545 0.12941 -0.99500 90 76 60
0.36953 0.06331 -0.93876 23 36 66
0.35883 0.05813 -0.94254 16 33 61
0.36654 0.05504 -0.93962 15 34 64
0.38291 0.06204 -0.94458 41 68 70
0.39791 0.06125 -0.95277 60 82 86
0.40612 0.05826 -0.95045 65 81 78
0.42441 0.05285 -0.94862 67 82 78
0.43080 0.04930 -0.94355 66 78 74
0.43824 0.04606 -0.94007 37 55 77
0.44301 0.03458 -0.93799 25 44 65
0.45346 0.02905 -0.90530 29 52 71
0.44575 0.03214 -0.90822 27 50 73
0.44276 0.02387 -0.90908 24 47 70
0.45904 0.02537 -0.89935 15 34 78
0.45854 0.02002 -0.88480 81 77 128
0.48658 0.02251 -0.91064 189 181 183
0.49417 0.01935 -0.90745 236 215 183
0.49892 0.00791 -0.90538 242 221 193
0.50779 0.01779 -0.91266 238 208 165
0.52208 0.01637 -0.91867 233 198 149
0.55637 0.00968 -0.92441 211 175 146
0.56149 0.00076 -0.90422 224 198 158
0.56898 -0.00246 -0.90082 227 204 162
0.57378 -0.01399 -0.89873 218 196 177
0.56958 -0.00732 -0.88833 221 185 135
0.58476 -0.00870 -0.89506 191 132 79
0.60420 -0.00915 -0.90721 176 132 75
0.62722 -0.02365 -0.88446 221 196 120
0.62666 -0.02861 -0.87090 220 193 119
0.62991 -0.03271 -0.86224 215 188 112
0.64133 -0.03506 -0.86382 214 188 114
0.65596 -0.03677 -0.86932 212 188 121
0.66428 -0.03981 -0.86696 206 181 124
0.67976 -0.04141 -0.87333 205 181 125
0.68152 -0.04577 -0.86293 205 183 130
0.67899 -0.05094 -0.84746 199 177 125
0.68125 -0.05972 -0.82570 195 175 131
0.67912 -0.06466 -0.81111 177 157 119
0.72511 -0.06067 -0.85325 156 121 91
0.73657 -0.06773 -0.84235 132 114 88
0.75379 -0.06922 -0.85021 151 147 112
0.75528 -0.07349 -0.83988 168 163 135
0.75855 -0.07742 -0.83168 172 164 139
0.76780 -0.08032 -0.83032 164 159 127
0.77569 -0.08345 -0.82741 157 160 120
0.77617 -0.08780 -0.81619 154 157 118
0.78637 -0.09054 -0.81589 151 150 116
0.79688 -0.09325 -0.81592 151 147 111
0.80120 -0.09693 -0.80909 148 143 109
0.80765 -0.10027 -0.80464 145 140 115
0.81507 -0.10346 -0.80126 139 132 107
0.82265 -0.10663 -0.79806 138 130 108
0.82914 -0.10995 -0.79368 137 127 119
0.83550 -0.11328 -0.78919 136 125 119
0.83798 -0.11715 -0.78060 130 121 113
0.83760 -0.12140 -0.76905 131 120 113
0.85114 -0.12786 -0.76117 132 118 118
0.85145 -0.13194 -0.75055 129 114 114
0.85940 -0.13499 -0.74790 127 107 125
0.87458 -0.14119 -0.74185 117 97 121
0.88340 -0.14413 -0.74007 108 98 106
0.90007 -0.15414 -0.72492 94 87 83
0.92017 -0.15976 -0.72378 78 87 88
0.92085 -0.16362 -0.71399 73 79 88
0.93103 -0.16642 -0.71354 68 67 80
0.95554 -0.17934 -0.69602 56 60 77
0.96023 -0.19061 -0.69397 56 53 60
0.96149 -0.18257 -0.69151 54 58 76
0.96618 -0.19384 -0.68947 55 52 64
0.97124 -0.18543 -0.69059 53 59 78
0.97593 -0.19671 -0.68855 52 51 64
0.97767 -0.18862 -0.68655 54 61 82
0.98537 -0.19168 -0.68370 53 57 85
0.99149 -0.19488 -0.67939 58 60 88
1.00251 -0.19764 -0.67961 74 76 90
1.01456 -0.20033 -0.68074 78 69 70
1.04106 -0.20555 -0.68504 56 49 65
1.04578 -0.21691 -0.68298 51 48 51
1.05625 -0.21175 -0.67899 55 48 60
1.05603 -0.21545 -0.66899 79 82 89
1.06316 -0.22222 -0.65589 212 197 172
1.06759 -0.22912 -0.64061 231 208 196
-0.68978 0.42875 -1.20675 147 144 174
-0.66966 0.37246 -1.06976 216 99 18
-0.64725 0.36791 -1.07317 232 114 16
-0.57838 0.33858 -1.04241 235 113 23
-0.58264 0.34881 -1.04427 235 116 30
-0.58533 0.34136 -1.04505 232 114 37
-0.57569 0.34603 -1.04164 239 116 27
-0.56874 0.34324 -1.03901 238 112 13
-0.57568 0.32814 -1.01630 234 109 8
-0.56614 0.33276 -1.01293 236 111 9
-0.56725 0.32811 -1.02210 230 107 7
-0.55768 0.33275 -1.01871 235 112 10
-0.56039 0.32529 -1.01930 226 106 6
-0.55501 0.31995 -1.00871 220 102 9
-0.54982 0.31438 -0.99741 210 94 16
-0.51817 0.30993 -1.00749 172 74 5
-0.49251 0.30872 -1.02210 164 68 35
-0.48845 0.30176 -1.00626 163 77 65
-0.49092 0.28589 -0.96196 173 115 128
-0.48763 0.27835 -0.94403 196 170 188
-0.48138 0.27496 -0.93929 204 178 201
-0.46443 0.28569 -0.97987 204 139 151
-0.45873 0.28138 -0.97227 201 114 84
-0.44729 0.28443 -0.98843 198 95 58
-0.44041 0.28157 -0.98556 193 82 21
-0.43616 0.27136 -0.98371 175 76 13
-0.43038 0.28258 -0.99525 188 82 15
-0.42611 0.27231 -0.99339 173 73 9
-0.42470 0.27822 -0.98750 184 79 10
-0.42044 0.26797 -0.98564 171 72 19
-0.41726 0.27601 -0.98675 182 77 26
-0.41036 0.27313 -0.98383 184 80 43
-0.40127 0.27278 -0.98921 196 84 29
-0.39163 0.27297 -0.99643 200 90 24
-0.37974 0.27554 -1.01162 199 93 22
-0.37327 0.27203 -1.00669 195 90 15
-0.36894 0.26161 -1.00481 189 94 9
-0.35278 0.26276 -0.99610 180 85 6
-0.36258 0.25801 -0.99956 185 90 6
-0.34146 0.26428 -1.00805 153 50 17
-0.32458 0.26119 -1.01152 180 78 5
-0.32020 0.25067 -1.00961 213 97 21
-0.30233 0.26311 -1.03214 208 92 27
-0.29790 0.25245 -1.03021 200 86 32
-0.15270 0.30789 -1.25643 87 72 59
-0.15583 0.29923 -1.25734 94 77 85
-0.14463 0.30466 -1.25338 52 27 24
-0.14775 0.29600 -1.25428 55 30 38
-0.13278 0.14656 -0.83754 102 81 108
-0.09065 0.16555 -0.91780 167 181 189
-0.05869 0.14225 -0.87756 187 185 198
-0.06847 0.13752 -0.88102 193 194 205
-0.06142 0.13470 -0.87835 193 192 202
-0.05438 0.13187 -0.87568 201 203 208
-0.00714 0.14356 -0.91695 138 107 141
0.00339 0.14242 -0.92124 114 92 111
0.00661 0.13740 -0.91001 144 124 129
0.00902 0.13202 -0.89725 201 201 198
0.02501 0.13365 -0.91276 223 226 224
0.05195 0.13405 -0.93257 185 176 174
0.07389 0.13829 -0.95923 144 98 91
0.08600 0.13758 -0.96575 130 50 51
0.09692 0.13624 -0.96976 125 34 41
0.10792 0.13489 -0.97380 113 25 37
0.11739 0.13278 -0.97473 101 18 37
0.12552 0.13004 -0.97304 96 23 37
0.13834 0.12942 -0.98030 99 32 33
0.14710 0.12691 -0.97967 105 48 48
0.17970 0.13497 -1.02398 125 96 102
0.17927 0.12828 -1.00573 173 163 140
0.17524 0.12013 -0.98106 188 163 98
0.37918 0.05351 -0.94432 21 37 65
0.36844 0.04831 -0.94812 17 32 55
0.37618 0.04520 -0.94519 14 32 57
0.38392 0.04210 -0.94226 16 31 56
0.38579 0.05005 -0.93965 18 38 66
0.39407 0.04712 -0.93755 19 39 72
0.39881 0.03572 -0.93549 18 35 61
0.40013 0.04351 -0.93209 19 38 76
0.40487 0.03212 -0.93002 20 37 63
0.40638 0.03996 -0.92693 20 43 73
0.41111 0.02859 -0.92487 18 39 62
0.41459 0.03702 -0.92473 19 44 67
0.41932 0.02564 -0.92267 22 40 59
0.42229 0.03392 -0.92178 23 43 62
0.42703 0.02254 -0.91972 25 41 62
0.44635 0.01964 -0.90022 25 49 65
0.43568 0.01447 -0.90399 25 45 66
0.44337 0.01139 -0.90108 27 45 58
0.45125 0.01579 -0.89333 14 31 61
0.47165 0.01616 -0.90853 91 97 103
0.48358 0.01418 -0.91150 190 185 163
0.49317 0.01155 -0.91113 233 219 193
0.51423 0.00674 -0.91288 245 220 190
0.52433 0.00419 -0.91308 244 217 186
0.53464 0.00169 -0.91355 241 213 180
0.54806 -0.00007 -0.91817 238 206 175
0.55367 -0.00376 -0.91216 229 196 168
0.56595 -0.01085 -0.90170 209 189 169
0.57702 -0.01818 -0.88976 221 192 152
0.58375 -0.02155 -0.88540 192 169 135
0.59872 -0.02307 -0.89174 176 171 156
0.59721 -0.03308 -0.86384 231 233 207
0.60906 -0.04006 -0.85337 239 235 204
0.61809 -0.04289 -0.85206 237 235 200
0.62996 -0.04514 -0.85429 233 235 199
0.64210 -0.04736 -0.85678 230 234 201
0.65878 -0.04870 -0.86480 226 231 205
0.67033 -0.05110 -0.86639 221 228 203
0.68268 -0.05337 -0.86891 217 227 203
0.68515 -0.05755 -0.85943 215 222 201
0.68601 -0.06200 -0.84809 215 214 206
0.68813 -0.06618 -0.83835 216 208 210
0.69774 -0.06896 -0.83758 213 200 198
0.69349 -0.07424 -0.82045 198 179 170
0.71532 -0.07484 -0.83404 171 150 131
0.73086 -0.07661 -0.84011 144 123 111
0.74836 -0.07808 -0.84834 114 114 126
0.75223 -0.08191 -0.84076 150 156 169
0.75413 -0.08605 -0.83097 174 165 184
0.76476 -0.08873 -0.83120 172 161 173
0.77265 -0.09186 -0.82828 161 159 162
0.77315 -0.09617 -0.81706 156 158 159
0.78334 -0.09893 -0.81677 144 149 152
0.79385 -0.10165 -0.81679 129 139 141
0.79817 -0.10532 -0.80996 118 129 133
0.80498 -0.10860 -0.80589 117 122 116
0.81205 -0.11184 -0.80213 108 110 106
0.82010 -0.11493 -0.79944 104 104 109
0.82612 -0.11831 -0.79455 101 99 114
0.83182 -0.12173 -0.78936 102 100 119
0.83497 -0.12549 -0.78147 101 96 118
0.82709 -0.13071 -0.76197 101 95 105
0.83617 -0.13362 -0.76049 93 94 105
0.83192 -0.13827 -0.74507 88 90 107
0.83847 -0.14148 -0.74102 91 88 111
0.84996 -0.14406 -0.74208 94 88 117
0.86287 -0.14649 -0.74457 90 71 111
0.86921 -0.14973 -0.74027 80 65 104
0.87707 -0.15279 -0.73754 74 60 95
0.88537 -0.15580 -0.73524 82 74 97
0.88852 -0.15940 -0.72777 87 71 93
0.89558 -0.16255 -0.72425 72 59 77
0.90028 -0.17384 -0.72221 50 46 61
0.90259 -0.16569 -0.72070 59 52 61
0.90729 -0.17698 -0.71865 54 54 62
0.90622 -0.16920 -0.71381 55 54 63
0.91075 -0.17260 -0.70785 52 53 61
0.91832 -0.17567 -0.70489 52 48 61
0.92540 -0.17878 -0.70146 68 72 87
0.93038 -0.18211 -0.69601 76 77 95
0.94186 -0.18478 -0.69683 84 82 92
0.94915 -0.18788 -0.69360 67 62 67
0.95383 -0.19913 -0.69156 59 53 66
0.98852 -0.19934 -0.69026 43 39 75
0.99633 -0.20240 -0.68749 63 71 99
1.03655 -0.20271 -0.71465 103 127 138
1.04534 -0.20575 -0.71260 116 112 102
1.02977 -0.21078 -0.68829 84 67 68
1.03801 -0.21383 -0.68585 62 50 58
1.05433 -0.22360 -0.67099 27 35 67
1.04950 -0.22758 -0.65694 89 112 140
1.06491 -0.23010 -0.66092 194 199 199
1.05831 -0.23415 -0.64547 239 221 207
1.06496 -0.24081 -0.63223 238 219 205
1.07549 -0.23571 -0.62851 239 212 201
1.06666 -0.24422 -0.62426 236 219 203
1.07715 -0.23914 -0.62055 240 214 201
1.07455 -0.24723 -0.62168 234 217 203
1.08504 -0.24215 -0.61797 239 215 202
1.08211 -0.25026 -0.61881 235 218 205
-0.68529 0.41800 -1.20488 142 136 161
-0.68851 0.38608 -1.11615 178 180 208
-0.67900 0.36852 -1.07531 222 164 141
-0.66257 0.36925 -1.08887 215 97 5
-0.65569 0.36617 -1.08541 222 102 10
-0.64902 0.36261 -1.08047 229 113 20
-0.64269 0.35833 -1.07336 237 131 46
-0.63572 0.35554 -1.07072 227 126 60
-0.58000 0.33310 -1.04932 224 105 12
-0.57624 0.32454 -1.02877 220 100 5
-0.56927 0.32186 -1.02644 211 95 6
-0.56174 0.32016 -1.02717 203 90 5
-0.55597 0.31544 -1.01845 192 80 7
-0.55014 0.31089 -1.01024 177 67 12
-0.54350 0.30773 -1.00638 160 55 16
-0.53929 0.29759 -1.00455 134 47 13
-0.53802 0.30275 -0.99675 149 51 12
-0.53382 0.29264 -0.99492 130 45 10
-0.52900 0.30335 -1.00477 143 49 11
-0.52478 0.29320 -1.00293 125 43 9
-0.52046 0.30310 -1.01013 140 53 11
-0.51622 0.29291 -1.00828 122 43 7
-0.51188 0.30281 -1.01539 140 53 9
-0.50762 0.29257 -1.01354 125 45 10
-0.50382 0.30164 -1.01793 138 54 11
-0.49956 0.29139 -1.01608 126 46 16
-0.49538 0.30099 -1.02213 139 54 18
-0.49110 0.29070 -1.02027 127 50 18
-0.49014 0.29573 -1.01158 144 56 27
-0.48855 0.28551 -0.98503 150 67 43
-0.48184 0.28252 -0.98167 160 93 78
-0.47788 0.27587 -0.96646 164 92 82
-0.46845 0.27653 -0.97489 171 81 51
-0.46304 0.27190 -0.96618 179 85 13
-0.45255 0.27374 -0.97858 180 85 8
-0.44832 0.26357 -0.97674 162 72 8
-0.44642 0.27002 -0.97283 177 78 7
-0.44219 0.25986 -0.97099 160 71 13
-0.41280 0.26597 -0.98563 175 76 27
-0.40182 0.26774 -0.99819 177 80 23
-0.39435 0.26543 -0.99721 175 79 22
-0.39004 0.25508 -0.99534 162 70 14
-0.38544 0.26469 -1.00149 171 78 25
-0.37716 0.26320 -1.00330 172 77 22
-0.34609 0.25475 -1.00238 145 44 19
-0.33781 0.25308 -1.00370 158 53 9
-0.10784 0.16351 -0.92360 91 22 43
-0.11773 0.15872 -0.92710 100 25 35
-0.11060 0.15587 -0.92440 89 23 37
-0.08974 0.16014 -0.92726 150 160 169
-0.08054 0.15849 -0.92929 178 182 186
-0.07059 0.16331 -0.92577 184 185 191
-0.07337 0.15562 -0.92658 180 181 188
-0.07615 0.14792 -0.92738 178 179 184
-0.02599 0.13394 -0.90134 208 207 207
-0.03592 0.12913 -0.90485 203 206 213
-0.02877 0.12627 -0.90214 205 208 213
-0.02161 0.12340 -0.89943 208 211 215
-0.01400 0.13365 -0.90903 188 177 188
-0.00878 0.12973 -0.90210 203 201 186
-0.00282 0.12623 -0.89682 218 220 202
0.02207 0.12581 -0.91329 197 198 206
0.06509 0.13405 -0.96600 130 68 84
0.07513 0.13232 -0.96841 132 49 54
0.08451 0.13024 -0.96940 132 41 48
0.09367 0.12803 -0.96990 125 31 42
0.10426 0.12647 -0.97316 125 28 37
0.11317 0.12410 -0.97303 133 45 55
0.10850 0.11553 -0.94653 137 79 105
0.18634 0.14416 -1.07909 169 131 151
0.15300 0.12270 -0.99738 220 199 187
0.18098 0.12853 -1.03296 249 245 222
0.18575 0.11706 -1.03088 254 254 254
0.19398 0.12766 -1.03980 254 253 234
0.20855 0.12740 -1.04939 254 245 205
0.19069 0.11343 -0.99891 231 194 127
0.23489 0.12551 -1.06287 170 111 58
0.38712 0.03762 -0.93238 18 33 60
0.37642 0.03244 -0.93616 21 32 47
0.38413 0.02935 -0.93324 23 30 44
0.39185 0.02625 -0.93032 20 33 53
0.44863 0.00766 -0.89469 21 39 56
0.43799 0.00251 -0.89846 33 46 57
0.48047 0.01100 -0.92623 115 136 130
0.48116 0.00601 -0.91320 189 191 178
0.48969 0.00310 -0.91134 205 202 194
0.49914 0.00041 -0.91075 215 214 203
0.51121 -0.00163 -0.91376 221 220 207
0.52195 -0.00402 -0.91486 220 222 209
0.53130 -0.00678 -0.91399 219 222 206
0.54235 -0.00914 -0.91542 214 218 201
0.55601 -0.01590 -0.90677 197 204 182
0.56292 -0.01925 -0.90257 189 189 176
0.56355 -0.02402 -0.89007 176 171 177
0.56720 -0.02808 -0.88168 161 150 170
0.58978 -0.02790 -0.89810 149 136 157
0.60598 -0.02922 -0.90598 127 120 148
0.60617 -0.03885 -0.88004 143 149 180
0.62019 -0.04068 -0.88500 158 150 189
0.62063 -0.04535 -0.87266 159 144 181
0.62569 -0.04903 -0.86626 151 138 175
0.63461 -0.05192 -0.86473 141 133 170
0.65857 -0.05654 -0.86915 119 125 162
0.67298 -0.05842 -0.87425 101 114 155
0.68958 -0.05992 -0.88191 88 110 150
0.71025 -0.06071 -0.89437 80 98 138
0.71670 -0.06418 -0.88952 80 86 127
0.71080 -0.06988 -0.86993 89 90 133
0.71494 -0.07371 -0.86247 86 86 131
0.71759 -0.07778 -0.85332 81 83 124
0.72841 -0.08042 -0.85382 83 83 111
0.73958 -0.08301 -0.85470 73 69 92
0.75567 -0.08479 -0.86123 49 47 85
0.75790 -0.08890 -0.85168 57 61 105
0.75341 -0.09407 -0.83450 65 58 123
0.76123 -0.09722 -0.83151 66 61 122
0.76332 -0.10126 -0.82203 67 68 118
0.77735 -0.10343 -0.82607 61 62 113
0.79971 -0.10871 -0.82756 39 44 101
0.79548 -0.11365 -0.81121 51 62 113
0.79396 -0.11813 -0.79799 54 58 78
0.77609 -0.12489 -0.76704 31 28 48
0.78078 -0.13618 -0.76499 39 37 38
0.78811 -0.12735 -0.76888 26 25 46
0.79282 -0.13867 -0.76683 37 34 34
0.79705 -0.13026 -0.76732 23 23 47
0.80752 -0.13296 -0.76740 14 20 55
0.81206 -0.13647 -0.76111 40 45 75
0.82638 -0.14276 -0.75419 34 31 57
0.83109 -0.15407 -0.75214 40 30 46
0.83039 -0.14630 -0.74743 24 23 59
0.83633 -0.14958 -0.74272 30 31 73
0.85203 -0.15167 -0.74817 57 68 113
0.85515 -0.15530 -0.74054 64 53 89
0.85393 -0.15942 -0.72853 32 25 50
0.86538 -0.16204 -0.72952 20 16 55
0.88037 -0.16428 -0.73405 62 74 92
0.88056 -0.16818 -0.72361 88 90 99
0.89098 -0.17095 -0.72348 61 56 60
0.89922 -0.18167 -0.70027 60 61 65
0.89627 -0.18982 -0.70112 62 71 71
0.90902 -0.18449 -0.69954 55 56 68
0.92113 -0.18710 -0.70103 73 82 93
0.92437 -0.19058 -0.69390 86 93 98
0.92574 -0.19422 -0.68502 108 108 112
0.97904 -0.20439 -0.69513 68 59 62
0.97607 -0.21262 -0.69598 74 71 66
0.98375 -0.21570 -0.69308 60 56 65
0.98968 -0.20721 -0.69499 51 45 69
0.99722 -0.21031 -0.69194 70 80 101
1.03353 -0.21108 -0.71552 103 128 148
1.04133 -0.21420 -0.71257 112 123 133
1.03676 -0.21828 -0.69829 88 91 99
1.03055 -0.22244 -0.68264 65 61 70
1.03527 -0.23378 -0.68059 53 51 62
1.03337 -0.22588 -0.67532 56 51 59
1.03808 -0.23719 -0.67327 55 51 63
1.03686 -0.22925 -0.66863 55 49 58
1.04155 -0.24054 -0.66659 54 47 58
1.03967 -0.23266 -0.66138 40 39 62
1.05919 -0.23492 -0.66907 54 76 110
1.08161 -0.23702 -0.67921 150 175 185
1.05383 -0.24242 -0.64497 221 214 212
1.05292 -0.24600 -0.63462 228 202 206
1.05816 -0.24918 -0.62971 214 192 195
1.06500 -0.25226 -0.62621 193 185 186
1.07877 -0.25493 -0.62869 180 186 182
1.11279 -0.25650 -0.64849 177 184 179
1.12345 -0.25133 -0.64472 234 218 208
1.12221 -0.25949 -0.64706 176 181 184
1.13289 -0.25432 -0.64329 235 220 208
-0.68608 0.69770 -1.99383 147 146 141
-0.70998 0.41923 -1.21485 117 94 90
-0.72014 0.41431 -1.21844 94 52 30
-0.70550 0.40845 -1.21290 114 91 91
-0.68507 0.37334 -1.10718 175 172 188
-0.68063 0.36382 -1.08433 205 164 156
-0.67018 0.36983 -1.10826 211 114 56
-0.66290 0.36759 -1.10735 213 95 4
-0.65858 0.35720 -1.10547 214 99 5
-0.65585 0.36478 -1.10472 217 97 9
-0.65020 0.35867 -1.09207 224 105 15
-0.58214 0.32665 -1.05328 209 94 7
-0.55658 0.31149 -1.03016 166 65 5
-0.55072 0.30694 -1.02192 152 55 8
-0.54648 0.29674 -1.02008 125 47 9
-0.54496 0.30230 -1.01336 140 49 13
-0.54073 0.29213 -1.01152 124 45 8
-0.49022 0.27950 -0.99027 129 50 13
-0.49978 0.27487 -0.99365 120 47 11
-0.49289 0.27211 -0.99104 121 48 7
-0.48599 0.26935 -0.98843 124 46 6
-0.48471 0.27487 -0.98154 132 53 16
-0.48091 0.26804 -0.96558 136 52 23
-0.47503 0.26406 -0.95893 141 57 24
-0.46560 0.26466 -0.96731 153 65 18
-0.45548 0.26601 -0.97828 159 73 10
-0.45125 0.25585 -0.97644 146 65 8
-0.42403 0.25945 -0.98291 164 74 23
-0.43098 0.26224 -0.98554 160 64 11
-0.42173 0.25133 -0.96232 171 106 64
-0.41195 0.25183 -0.97073 171 113 65
-0.39831 0.25652 -0.99334 166 76 13
-0.39401 0.24620 -0.99147 156 69 7
-0.38151 0.25390 -0.99822 166 73 14
-0.38423 0.24634 -0.99901 164 76 7
-0.37292 0.25270 -1.00110 176 85 12
-0.36566 0.25008 -0.99913 172 86 24
-0.34051 0.24552 -1.00471 178 81 5
-0.33275 0.24330 -1.00422 208 93 4
-0.32839 0.23282 -1.00232 209 93 6
-0.21408 0.27366 -1.17242 101 74 58
-0.22484 0.26845 -1.17623 199 172 161
-0.15834 0.28129 -1.23329 67 44 50
-0.14724 0.28667 -1.22936 34 17 20
-0.10078 0.15465 -0.92813 71 34 65
-0.11070 0.14985 -0.93163 95 21 35
-0.07666 0.16200 -0.96554 132 140 152
-0.07885 0.15345 -0.94057 172 179 185
-0.06118 0.14954 -0.94256 183 182 190
-0.05114 0.15441 -0.93901 189 192 199
-0.05316 0.14709 -0.94162 188 188 197
-0.04591 0.14419 -0.93887 192 192 202
-0.04872 0.13642 -0.93968 190 189 201
-0.01059 0.12254 -0.90497 202 209 215
0.01581 0.12286 -0.92481 166 141 162
0.04881 0.12611 -0.95738 121 33 62
0.06335 0.12661 -0.96918 132 34 43
0.07126 0.12383 -0.96725 155 44 41
0.08188 0.12234 -0.97078 156 50 60
0.08605 0.11779 -0.96133 155 86 111
0.10010 0.11783 -0.97153 186 137 150
0.14767 0.13304 -1.04725 227 198 188
0.13450 0.12051 -1.00353 250 240 223
0.13918 0.10925 -1.00149 254 254 254
0.15138 0.12154 -1.01846 254 252 238
0.15610 0.11019 -1.01641 254 254 254
0.16749 0.12212 -1.03163 254 254 248
0.17225 0.11069 -1.02955 254 254 254
0.17813 0.12025 -1.03412 254 254 254
0.18289 0.10878 -1.03204 254 254 254
0.20339 0.11809 -1.04633 254 254 250
0.20035 0.10967 -1.04721 254 254 254
0.20820 0.10652 -1.04424 254 254 254
0.20651 0.11298 -1.03460 254 251 229
0.21649 0.11073 -1.03560 235 219 189
0.19445 0.09553 -0.97820 170 138 117
0.29029 0.07772 -0.99825 23 33 52
0.28551 0.08922 -1.00033 32 41 58
0.28248 0.08085 -1.00121 32 41 54
0.29331 0.08609 -0.99738 24 35 57
0.30112 0.08296 -0.99442 18 32 50
0.44990 0.00055 -0.90165 39 52 63
0.44692 -0.00770 -0.90251 43 45 59
0.47397 0.00173 -0.92214 96 115 134
0.48185 -0.00137 -0.91932 136 135 162
0.48941 -0.00454 -0.91606 129 111 154
0.49480 -0.00826 -0.90976 118 102 154
0.50530 -0.01070 -0.91061 110 102 149
0.51108 -0.01431 -0.90489 102 100 145
0.52126 -0.01685 -0.90525 97 97 145
0.53317 -0.01900 -0.90792 90 91 143
0.54176 -0.02194 -0.90603 78 91 142
0.55029 -0.02491 -0.90402 58 78 125
0.56240 -0.02707 -0.90680 50 63 104
0.57029 -0.03020 -0.90390 55 58 98
0.57908 -0.03313 -0.90218 57 52 93
0.58997 -0.03562 -0.90321 55 50 86
0.59875 -0.03857 -0.90143 51 53 87
0.60594 -0.04186 -0.89757 42 48 88
0.61429 -0.04491 -0.89524 49 51 104
0.62091 -0.04832 -0.89066 57 53 116
0.62646 -0.05193 -0.88476 50 45 103
0.63208 -0.05551 -0.87899 47 45 99
0.64270 -0.05811 -0.87951 55 51 112
0.65466 -0.06046 -0.88166 61 57 119
0.65947 -0.06419 -0.87489 50 51 102
0.66333 -0.06809 -0.86701 39 43 91
0.67486 -0.07055 -0.86856 32 40 81
0.68827 -0.07268 -0.87234 31 32 68
0.70018 -0.07512 -0.87421 30 31 67
0.72021 -0.07615 -0.88576 46 44 78
0.73251 -0.07859 -0.88793 39 38 69
0.74043 -0.08179 -0.88485 31 31 62
0.74458 -0.08563 -0.87732 34 37 62
0.74210 -0.09054 -0.86209 51 64 73
0.74693 -0.09421 -0.85553 56 73 78
0.75376 -0.09754 -0.85131 36 43 62
0.76195 -0.10066 -0.84867 29 27 62
0.76533 -0.10452 -0.84053 35 33 74
0.77636 -0.10719 -0.84113 50 55 85
0.78363 -0.11044 -0.83745 42 44 74
0.77742 -0.11568 -0.81867 31 32 55
0.78099 -0.11943 -0.81098 26 29 62
0.79245 -0.12203 -0.81208 49 63 87
0.80448 -0.12457 -0.81375 60 73 75
0.77794 -0.13245 -0.77318 43 39 44
0.78265 -0.14376 -0.77112 32 33 30
0.80092 -0.14169 -0.76437 21 25 43
0.79026 -0.14685 -0.76813 36 34 32
0.79794 -0.14993 -0.76522 25 21 30
0.80426 -0.14533 -0.75681 52 70 68
0.81192 -0.14840 -0.75391 74 77 45
0.81751 -0.15173 -0.74882 49 44 51
0.82220 -0.16300 -0.74677 37 27 33
0.82718 -0.15853 -0.73713 39 43 63
0.84779 -0.16007 -0.74771 82 91 119
0.86319 -0.16226 -0.75276 92 79 98
0.84409 -0.16838 -0.72232 49 29 18
0.84875 -0.17959 -0.72029 25 20 23
0.85444 -0.17113 -0.72224 25 19 37
0.86872 -0.17346 -0.72611 56 65 81
0.87887 -0.17625 -0.72574 71 74 87
0.87049 -0.18099 -0.70676 48 46 36
0.87827 -0.18402 -0.70407 39 43 51
0.88523 -0.18712 -0.70058 49 60 61
0.89938 -0.19330 -0.69383 55 56 66
0.90059 -0.19694 -0.68474 44 46 68
0.90810 -0.19997 -0.68183 48 60 73
0.92390 -0.20225 -0.68692 71 81 104
0.92855 -0.21344 -0.68490 53 48 61
0.93525 -0.20496 -0.68765 62 53 68
0.96188 -0.21010 -0.69272 64 67 72
0.95892 -0.21830 -0.69357 53 54 76
0.99558 -0.21845 -0.69405 56 61 83
1.01419 -0.22069 -0.70125 68 72 105
1.01266 -0.22449 -0.68978 70 67 102
1.02206 -0.22745 -0.68843 64 61 86
1.02544 -0.23084 -0.68157 56 53 68
1.02381 -0.24524 -0.64100 33 48 62
1.01331 -0.25032 -0.64471 56 51 61
1.02088 -0.25335 -0.64185 42 47 55
1.06756 -0.24602 -0.67026 85 118 122
1.09037 -0.24819 -0.68069 159 152 156
1.08770 -0.25191 -0.66859 185 133 151
1.08931 -0.25536 -0.66032 177 113 136
1.09910 -0.25833 -0.65923 153 109 130
1.11138 -0.26117 -0.66026 131 114 136
-0.69822 0.69637 -2.01382 156 151 150
-0.70418 0.71070 -2.01641 149 147 153
-0.70795 0.70027 -2.01750 150 150 154
-0.71172 0.68984 -2.01859 145 147 151
-0.68852 0.69241 -2.00993 141 137 132
-0.67904 0.36747 -1.11893 167 135 135
-0.67224 0.36398 -1.11424 192 115 70
-0.66541 0.36057 -1.10981 207 99 11
-0.66109 0.35018 -1.10793 204 98 9
