ply
format ascii 1.0
element face 0
property list uchar int vertex_indices
element vertex 1329
property float x
property float y
property float z
property uchar diffuse_red
property uchar diffuse_green
property uchar diffuse_blue
end_header
0.65749 -0.46722 -0.49485 18 36 119
0.65584 -0.48131 -0.49280 50 56 81
0.65828 -0.47510 -0.48454 22 33 108
0.65865 -0.49118 -0.46252 201 218 226
0.66950 -0.50367 -0.45358 244 248 252
0.67894 -0.50317 -0.44288 254 254 254
0.67340 -0.51044 -0.44721 253 254 254
0.66785 -0.51770 -0.45154 253 254 254
0.97436 -0.96803 -0.04535 245 253 252
0.98637 -0.97440 -0.04582 228 244 234
0.98092 -0.98188 -0.03122 208 191 191
1.00866 -0.99455 -0.03511 95 80 118
1.00697 -1.00894 -0.03301 87 75 63
1.01970 -1.00828 -0.02461 84 66 70
1.01801 -1.02269 -0.02251 90 78 68
1.07186 -1.04916 -0.00827 90 89 72
1.09373 -1.06292 -0.00611 71 66 35
1.09201 -1.07760 -0.00397 11 12 14
1.82815 -1.45753 -0.02711 47 44 34
1.81611 -1.45817 -0.04077 33 30 15
1.85152 -1.46831 -0.03024 88 82 70
1.84941 -1.48633 -0.02761 98 83 71
2.80211 -1.94093 -0.11033 83 65 50
2.78708 -1.94173 -0.12736 82 64 51
2.79714 -1.94936 -0.09479 72 48 38
2.79506 -1.95835 -0.08071 55 12 27
2.79245 -1.98058 -0.07747 42 4 6
2.81626 -1.97229 -0.07778 45 4 15
2.81364 -1.99461 -0.07453 38 5 5
2.90264 -2.07634 -0.00030 49 17 14
2.90528 -2.05386 -0.00357 42 14 23
2.89640 -2.06550 -0.01051 40 14 22
2.88752 -2.07714 -0.01744 37 10 13
2.89829 -2.08466 0.01461 71 45 18
2.89981 -2.09435 0.02687 89 74 28
2.90151 -2.10405 0.03902 98 81 56
2.90534 -2.11426 0.05021 102 88 58
2.90491 -2.12340 0.06323 103 86 66
2.82065 -2.11163 0.11212 137 126 110
2.84464 -2.12667 0.11440 177 162 139
2.85393 -2.13805 0.12301 203 187 157
2.85652 -2.14774 0.13444 221 193 145
2.84465 -2.15368 0.15187 148 107 111
2.84302 -2.16220 0.16496 125 120 123
2.85950 -2.17544 0.17058 157 174 202
2.84710 -2.18109 0.18800 185 199 211
2.81471 -2.18132 0.21339 120 124 174
2.80990 -2.18880 0.22749 146 159 190
2.81179 -2.19806 0.23886 182 191 204
2.83255 -2.22990 0.26697 182 188 189
2.82407 -2.24102 0.26035 179 186 192
2.84090 -2.24092 0.27580 178 175 165
2.83231 -2.24717 0.29113 135 119 102
2.87572 -2.26815 0.28662 80 67 55
2.88408 -2.28794 0.30760 31 48 87
2.84928 -2.28649 0.33253 63 89 140
2.81832 -2.28599 0.35580 103 140 187
2.86115 -2.30710 0.35194 175 199 225
2.85520 -2.31388 0.36594 211 218 228
2.85270 -2.33519 0.36904 218 222 225
2.86191 -2.33289 0.38711 218 217 206
2.82011 -2.32868 0.41363 140 104 120
2.79747 -2.33012 0.43315 84 50 61
2.81283 -2.34313 0.43931 80 68 61
2.81814 -2.35307 0.44899 79 72 48
2.83222 -2.35232 0.46495 68 62 50
2.75751 -2.38288 0.53727 78 73 90
2.73230 -2.38273 0.55658 125 133 145
2.76514 -2.40138 0.55703 155 165 171
2.76274 -2.42179 0.56000 162 166 176
2.87190 -2.47695 0.57924 167 163 160
0.48309 -0.23590 -0.69927 69 65 76
0.47924 -0.22921 -0.70557 68 66 74
0.48858 -0.22871 -0.69499 80 87 105
0.49243 -0.23541 -0.68868 80 84 105
0.48695 -0.24260 -0.69296 72 64 82
0.49144 -0.24896 -0.68761 72 56 59
0.49693 -0.24177 -0.68333 77 75 94
0.50078 -0.24847 -0.67702 74 74 85
0.50236 -0.25205 -0.69186 74 62 45
0.50711 -0.25833 -0.68683 92 80 76
0.51549 -0.27148 -0.67509 159 156 147
0.51385 -0.28544 -0.67305 126 122 166
0.52288 -0.27649 -0.67390 180 193 176
0.53690 -0.28697 -0.67027 158 166 192
0.54718 -0.29935 -0.66109 67 63 121
0.55191 -0.30574 -0.65589 29 26 94
0.55026 -0.31981 -0.65384 106 71 49
0.55424 -0.31325 -0.64725 35 13 62
0.55258 -0.32731 -0.64520 170 129 116
0.59028 -0.33134 -0.65027 188 141 119
0.58466 -0.33871 -0.65465 250 247 224
0.61963 -0.42056 -0.54903 211 210 220
0.61415 -0.43092 -0.53033 53 39 133
0.62076 -0.43665 -0.52752 27 35 116
0.61912 -0.45068 -0.52548 70 71 101
0.62805 -0.44215 -0.52557 52 55 112
0.62640 -0.45621 -0.52352 70 73 94
0.64507 -0.46058 -0.51323 65 66 88
0.63951 -0.46788 -0.51757 66 68 94
0.64342 -0.47468 -0.51117 63 68 89
0.64117 -0.47014 -0.49687 63 68 93
0.63952 -0.48417 -0.49483 59 71 97
0.63676 -0.47980 -0.47997 62 73 99
0.63512 -0.49377 -0.47793 43 53 83
0.65024 -0.50742 -0.45206 228 217 237
0.65504 -0.51385 -0.44687 244 248 252
0.65340 -0.52781 -0.44484 253 254 254
0.94341 -0.95578 -0.05729 252 254 253
0.94508 -0.94160 -0.05935 254 254 254
0.93948 -0.94894 -0.06373 254 254 254
0.94901 -0.94844 -0.05292 254 254 254
0.95582 -0.96915 -0.04839 217 227 225
0.95415 -0.98336 -0.04632 93 72 108
0.98109 -0.98179 -0.05056 137 118 146
0.97941 -0.99611 -0.04847 81 70 60
0.98119 -0.98892 -0.04072 90 79 88
0.97951 -1.00322 -0.03863 87 79 68
0.98927 -0.99559 -0.03775 86 75 98
0.98758 -1.00992 -0.03566 96 83 67
0.99858 -1.00223 -0.03580 84 67 76
0.99690 -1.01659 -0.03371 96 86 64
1.07599 -1.04928 -0.03087 78 77 47
1.06612 -1.04980 -0.04207 52 50 48
1.07019 -1.05688 -0.03540 31 25 24
1.07427 -1.06396 -0.02873 23 16 15
1.11955 -1.06265 -0.04634 35 30 33
1.11780 -1.07756 -0.04417 14 10 12
1.82853 -1.46768 -0.03725 51 42 36
1.81645 -1.46832 -0.05094 29 32 19
1.84445 -1.47765 -0.03582 89 79 72
1.84233 -1.49567 -0.03320 98 85 78
2.79710 -1.95330 -0.11908 79 60 42
2.78206 -1.95410 -0.13613 79 62 53
2.79916 -1.96320 -0.10692 68 42 30
2.79185 -1.97106 -0.09026 51 8 18
2.78923 -1.99332 -0.08701 42 4 6
2.89053 -2.08721 -0.00578 49 16 11
2.87542 -2.08801 -0.02290 35 9 10
2.88284 -2.09468 0.01064 71 53 14
2.89249 -2.10631 0.01929 86 67 29
2.88986 -2.12872 0.02255 92 73 34
2.89342 -2.11582 0.03179 95 75 40
2.89079 -2.13820 0.03505 94 76 45
2.88709 -2.12350 0.04743 95 76 49
2.88447 -2.14581 0.05068 103 83 51
2.88864 -2.13309 0.05958 101 78 55
2.87425 -2.13864 0.07857 113 96 67
2.81576 -2.13287 0.11630 134 113 100
2.82662 -2.14462 0.12416 157 144 131
2.82981 -2.15441 0.13529 188 169 134
2.81689 -2.16886 0.16552 137 91 62
2.82452 -2.17975 0.17470 108 82 91
2.81664 -2.18649 0.19025 108 113 134
2.81219 -2.20286 0.21652 113 138 174
2.80580 -2.20985 0.23125 159 180 210
2.81026 -2.21979 0.24160 175 187 201
2.81760 -2.23052 0.25080 180 189 194
2.83311 -2.25224 0.26890 173 178 178
2.83859 -2.26247 0.27885 159 151 143
2.83946 -2.27136 0.29055 103 95 87
2.87170 -2.28933 0.29033 76 65 59
2.87592 -2.29922 0.30081 65 58 62
2.88032 -2.30917 0.31121 41 39 66
2.88646 -2.31962 0.32095 23 47 93
2.81992 -2.30839 0.35738 128 159 176
2.83414 -2.32111 0.36397 199 212 225
2.84507 -2.34134 0.38358 209 204 185
2.81482 -2.34049 0.40607 133 100 106
2.81202 -2.34797 0.41867 107 78 80
2.80956 -2.36898 0.42173 104 87 60
2.82607 -2.36066 0.42533 110 98 86
2.82643 -2.36909 0.43679 105 100 77
2.82397 -2.39010 0.43985 92 91 79
2.82177 -2.37592 0.44994 96 89 69
2.81931 -2.39688 0.45300 99 98 80
2.81489 -2.38200 0.46379 90 77 66
2.82895 -2.38125 0.47973 74 65 59
2.79295 -2.38322 0.48266 86 71 67
2.80691 -2.38248 0.49848 77 67 64
2.77495 -2.38559 0.50006 85 71 65
2.77290 -2.39303 0.51201 85 68 77
2.75352 -2.39479 0.52963 89 89 101
2.73682 -2.39733 0.54623 133 144 156
2.74367 -2.40754 0.55507 160 165 179
2.81023 -2.46161 0.57828 166 157 165
2.83834 -2.47913 0.58067 171 162 168
2.83591 -2.49982 0.58369 193 193 197
0.47479 -0.23585 -0.71144 73 58 68
0.47642 -0.22195 -0.71347 69 74 87
0.47093 -0.22915 -0.71775 73 74 84
0.46930 -0.24304 -0.71573 119 103 128
0.48074 -0.24145 -0.70832 76 58 66
0.48093 -0.25006 -0.69644 91 77 88
0.47930 -0.26394 -0.69442 185 203 172
0.48121 -0.25859 -0.68474 124 108 109
0.49187 -0.26180 -0.68869 159 151 130
0.49496 -0.26890 -0.68121 183 194 172
0.50134 -0.27435 -0.67865 180 198 176
0.50732 -0.28002 -0.67546 158 168 170
0.53287 -0.28485 -0.68892 77 78 122
0.53122 -0.29894 -0.68687 63 23 23
0.52072 -0.29933 -0.65909 36 42 89
0.51908 -0.31328 -0.65706 96 61 45
0.53514 -0.30107 -0.66806 32 13 64
0.53349 -0.31511 -0.66602 154 113 87
0.53961 -0.30757 -0.66252 47 9 29
0.54304 -0.31456 -0.65546 63 23 26
0.58430 -0.32161 -0.67825 224 186 183
0.57470 -0.32212 -0.68914 247 243 220
0.58070 -0.33186 -0.66109 246 239 215
0.57903 -0.34608 -0.65902 254 254 252
0.62149 -0.41668 -0.57484 250 249 250
0.61196 -0.41719 -0.58565 254 254 254
0.61726 -0.42663 -0.55761 197 193 206
0.60481 -0.43961 -0.52963 56 42 93
0.61124 -0.44540 -0.52663 60 63 96
0.60960 -0.45939 -0.52459 68 74 93
0.62645 -0.50473 -0.45576 94 75 98
0.63881 -0.51659 -0.44897 233 220 236
0.63718 -0.53050 -0.44695 248 251 253
0.92784 -0.94961 -0.07265 246 253 251
0.93270 -0.95637 -0.06705 231 242 234
0.93992 -0.96297 -0.06354 214 203 205
0.96602 -0.96831 -0.07672 167 148 185
0.95022 -0.97651 -0.05278 109 101 138
0.94855 -0.99072 -0.05071 85 74 68
1.83015 -1.47803 -0.04821 49 45 39
1.81804 -1.47867 -0.06193 36 35 17
1.84536 -1.48797 -0.04635 89 82 78
1.84324 -1.50604 -0.04371 99 83 64
2.81024 -1.96959 -0.13678 76 58 43
2.79511 -1.97039 -0.15392 78 61 53
2.81620 -1.98037 -0.12644 65 37 30
2.80627 -1.98767 -0.10838 50 6 19
2.80364 -2.01006 -0.10512 44 10 8
2.88903 -2.10063 -0.01604 51 17 14
2.90143 -2.11298 -0.00859 73 60 16
2.89878 -2.13552 -0.00531 84 67 42
2.89104 -2.11974 0.00907 85 67 33
2.88841 -2.14219 0.01234 89 73 34
2.87151 -2.15166 0.06912 114 91 53
2.85658 -2.15245 0.05219 101 85 49
2.86274 -2.16316 0.06227 112 89 54
2.86890 -2.17387 0.07236 119 90 62
2.84085 -2.15287 0.09506 121 93 72
2.82858 -2.15869 0.11290 123 102 84
2.80853 -2.16239 0.13393 139 117 97
2.81796 -2.17378 0.14238 159 134 111
2.81006 -2.18056 0.15810 164 135 79
2.80586 -2.18827 0.17220 146 109 51
2.80103 -2.19577 0.18649 119 91 60
2.81367 -2.20799 0.19358 82 61 63
2.81427 -2.21693 0.20559 65 70 91
2.80320 -2.22260 0.22227 94 116 160
2.79783 -2.22979 0.23656 122 140 173
2.81026 -2.24196 0.24372 148 164 186
2.81836 -2.25292 0.25264 161 179 198
2.82621 -2.26383 0.26166 162 172 181
2.82900 -2.27327 0.27265 163 164 161
2.84140 -2.28551 0.27993 129 126 115
2.84056 -2.29388 0.29230 88 81 67
2.86029 -2.30830 0.29684 72 74 59
2.87367 -2.32090 0.30385 59 49 67
2.87048 -2.32856 0.31707 51 65 87
2.81061 -2.31908 0.35120 138 172 186
2.82438 -2.33170 0.35793 196 209 219
2.82789 -2.34121 0.36844 214 220 221
2.84035 -2.35346 0.37570 196 193 176
2.81686 -2.35460 0.39587 137 119 101
2.80912 -2.36053 0.41028 113 93 68
2.82416 -2.38188 0.42821 93 83 71
2.79293 -2.39660 0.47348 109 100 80
2.77895 -2.39734 0.45763 96 89 76
2.78472 -2.40737 0.46707 105 94 77
2.79049 -2.41740 0.47651 98 84 79
2.77499 -2.39893 0.49093 99 90 69
2.77322 -2.40645 0.50283 91 84 73
2.73518 -2.40201 0.52673 105 109 105
2.72520 -2.40668 0.54114 145 151 164
2.72282 -2.42700 0.54410 169 183 195
2.72495 -2.41451 0.55229 167 173 190
2.72256 -2.43480 0.55525 166 172 178
2.74050 -2.42762 0.55829 168 172 176
2.75418 -2.42689 0.57380 154 155 169
2.74551 -2.44511 0.57876 173 170 170
2.74850 -2.45400 0.58882 186 184 190
2.71081 -2.44894 0.61156 191 190 199
2.69344 -2.45841 0.63854 196 191 192
2.70025 -2.46846 0.64720 198 189 180
0.46737 -0.25276 -0.70056 149 145 146
0.45806 -0.25325 -0.71112 177 198 177
0.46190 -0.25993 -0.70483 164 175 188
0.47746 -0.25621 -0.70379 177 191 169
0.48676 -0.26881 -0.69356 169 172 184
0.49450 -0.27358 -0.69306 137 125 180
0.50495 -0.27704 -0.69657 89 88 128
0.49845 -0.28888 -0.67476 44 52 93
0.50594 -0.29383 -0.67382 42 30 79
0.51618 -0.29750 -0.67687 55 17 38
0.51454 -0.31149 -0.67483 203 165 133
0.55491 -0.31381 -0.68497 216 176 138
0.54931 -0.32115 -0.68935 251 246 228
0.55325 -0.32799 -0.68290 254 253 248
0.55594 -0.32198 -0.67434 239 232 191
0.56817 -0.33369 -0.66771 253 249 246
0.56256 -0.34104 -0.67208 254 254 254
0.56650 -0.34788 -0.66564 254 254 254
0.57508 -0.33922 -0.66548 254 254 251
0.57341 -0.35344 -0.66340 254 254 254
0.59421 -0.43234 -0.55021 248 247 247
0.58479 -0.43284 -0.56089 254 254 254
0.59112 -0.44990 -0.52312 61 38 79
0.59920 -0.45505 -0.52236 57 68 100
0.59756 -0.46900 -0.52032 68 75 91
0.61038 -0.50751 -0.45776 38 45 90
0.60492 -0.51466 -0.46202 23 38 87
0.62432 -0.51877 -0.45310 216 235 237
0.62269 -0.53265 -0.45108 237 220 227
0.62817 -0.52546 -0.44680 239 223 233
0.88381 -0.93872 -0.07184 251 254 254
0.88545 -0.92473 -0.07388 254 254 254
0.87993 -0.93197 -0.07819 254 254 254
0.88933 -0.93148 -0.06753 254 254 254
0.89741 -0.94467 -0.07437 240 250 250
0.90390 -0.95124 -0.07035 221 225 234
0.92340 -0.95686 -0.07806 194 172 201
0.96008 -0.96136 -0.10109 147 130 150
0.92916 -0.97067 -0.06330 110 97 116
0.92750 -0.98483 -0.06124 92 81 83
0.95626 -0.98315 -0.06748 85 69 84
0.95458 -0.99744 -0.06540 97 87 68
1.83078 -1.48831 -0.05861 52 50 35
1.81864 -1.48896 -0.07237 36 34 13
1.84839 -1.49862 -0.05824 90 83 69
1.84626 -1.51674 -0.05560 101 82 76
2.82264 -1.98586 -0.15424 73 54 39
2.80744 -1.98666 -0.17148 77 60 53
2.82102 -1.99502 -0.14010 62 33 26
2.80876 -2.00178 -0.12082 50 11 18
2.80612 -2.02424 -0.11755 41 11 7
2.89370 -2.10625 -0.04229 36 11 10
2.89636 -2.08363 -0.04558 30 9 6
2.88743 -2.09534 -0.05255 30 9 5
2.87849 -2.10705 -0.05953 31 10 5
2.89613 -2.11621 -0.03026 54 26 17
2.90154 -2.12689 -0.01961 74 63 20
2.89889 -2.14947 -0.01632 83 67 50
2.81571 -2.16892 0.10796 124 93 63
2.80100 -2.16970 0.09128 118 90 60
2.80707 -2.18025 0.10121 123 93 58
2.81314 -2.19080 0.11115 126 96 56
2.80544 -2.17512 0.12487 125 98 67
2.80288 -2.19691 0.12805 127 98 61
2.81316 -2.18608 0.13406 128 106 75
2.80328 -2.19228 0.15066 140 121 77
2.79743 -2.19951 0.16547 161 146 93
2.78293 -2.20431 0.18380 184 152 93
2.78763 -2.21434 0.19411 146 115 78
2.80155 -2.22694 0.20064 87 65 51
2.78762 -2.23174 0.21851 86 82 79
2.79985 -2.24387 0.22573 93 74 74
2.79976 -2.25251 0.23791 103 87 110
2.79150 -2.25876 0.25328 104 114 155
2.80288 -2.27065 0.26086 121 137 160
2.81429 -2.28258 0.26845 143 157 167
2.82373 -2.29394 0.27684 145 155 157
2.82834 -2.30390 0.28711 101 94 95
2.84035 -2.31605 0.29454 84 77 60
2.83345 -2.32254 0.30917 103 99 86
2.84412 -2.33431 0.31712 95 98 84
2.79741 -2.32858 0.34646 148 166 161
2.81119 -2.34122 0.35315 181 190 197
2.81847 -2.35188 0.36227 199 205 214
2.82447 -2.36214 0.37187 177 172 174
2.81977 -2.36905 0.38532 136 123 106
2.81247 -2.37510 0.39963 125 111 83
2.81287 -2.38354 0.41114 105 92 66
2.82366 -2.39527 0.41897 79 73 62
2.81903 -2.40207 0.43220 80 79 76
2.71827 -2.40964 0.52339 123 139 136
2.72160 -2.41868 0.53340 157 171 176
2.69273 -2.44031 0.58683 199 209 209
2.69037 -2.46039 0.58975 218 219 223
2.69728 -2.44964 0.59627 204 208 211
2.71564 -2.46375 0.60136 190 179 193
2.69298 -2.46362 0.61931 185 176 192
2.62334 -2.48442 0.70416 114 107 124
2.62471 -2.49234 0.71418 149 148 155
2.58227 -2.48431 0.73686 217 224 195
0.45546 -0.24592 -0.71933 176 189 166
0.45709 -0.23206 -0.72135 81 66 73
0.45161 -0.23924 -0.72563 154 144 132
0.44614 -0.24641 -0.72990 170 182 182
0.46926 -0.26480 -0.70393 138 136 179
0.46764 -0.27867 -0.70191 58 21 56
0.47864 -0.26868 -0.70604 98 96 140
0.47930 -0.27701 -0.69486 49 54 114
0.47767 -0.29090 -0.69284 79 47 70
0.48649 -0.28205 -0.69358 39 29 83
0.48485 -0.29597 -0.69155 134 90 94
0.48655 -0.29063 -0.68155 53 16 43
0.49433 -0.29542 -0.68110 58 21 33
0.49858 -0.30195 -0.67535 81 54 68
0.51729 -0.30157 -0.69101 143 104 105
0.51564 -0.31562 -0.68896 249 243 226
0.53792 -0.31776 -0.68491 243 237 207
0.53234 -0.32508 -0.68926 254 254 250
0.53626 -0.33189 -0.68285 254 254 252
0.57017 -0.45476 -0.51822 161 154 183
0.57081 -0.46261 -0.50769 63 38 72
0.58130 -0.46682 -0.51024 60 71 98
0.57967 -0.48067 -0.50822 68 70 88
0.58689 -0.51282 -0.45003 62 65 89
0.58850 -0.49911 -0.45203 64 71 92
0.58308 -0.50621 -0.45626 64 69 92
0.57766 -0.51331 -0.46049 68 72 95
0.60071 -0.52399 -0.44548 112 88 147
0.59527 -0.53112 -0.44973 129 103 149
0.59909 -0.53775 -0.44348 229 242 239
0.61002 -0.52883 -0.44620 221 236 237
0.60840 -0.54264 -0.44419 240 223 224
0.84784 -0.92746 -0.07757 253 254 254
0.84947 -0.91360 -0.07959 254 254 254
0.84399 -0.92077 -0.08386 254 254 254
0.85331 -0.92028 -0.07330 254 254 254
0.85716 -0.92696 -0.06701 254 254 254
0.85781 -0.93360 -0.07699 247 253 251
0.86544 -0.93998 -0.07419 235 242 235
0.89739 -0.95151 -0.08379 174 158 185
0.94292 -0.95519 -0.11541 127 116 143
0.94123 -0.96956 -0.11332 88 73 81
0.91931 -0.96409 -0.08380 104 77 120
0.91764 -0.97828 -0.08174 96 83 82
0.93833 -0.97705 -0.08095 87 76 76
0.93666 -0.99131 -0.07888 99 90 81
1.01274 -1.03042 -0.06601 77 63 65
1.01444 -1.01588 -0.06812 99 87 67
1.00870 -1.02341 -0.07261 89 80 49
1.01103 -1.04496 -0.06389 51 38 42
1.02069 -1.03730 -0.06276 61 50 44
1.01898 -1.05186 -0.06064 47 37 39
2.03437 -1.29937 -0.51356 21 13 32
2.04793 -1.29865 -0.49819 9 7 13
2.03457 -1.30876 -0.50050 20 10 22
2.04810 -1.30804 -0.48516 7 9 7
2.04002 -1.31845 -0.49127 17 9 21
2.05356 -1.31774 -0.47593 9 10 4
2.04561 -1.32816 -0.48213 14 9 6
1.82950 -1.49841 -0.06785 53 49 35
1.81734 -1.49905 -0.08164 32 35 14
1.84807 -1.50889 -0.06811 90 82 76
1.84593 -1.52706 -0.06546 98 82 75
2.83386 -2.00202 -0.17124 70 49 35
2.82129 -2.00875 -0.15160 58 27 21
2.81905 -2.01773 -0.13715 47 12 12
2.81640 -2.04030 -0.13386 33 6 5
2.79261 -2.20295 0.14485 123 100 67
2.77802 -2.20372 0.12830 128 99 62
2.78404 -2.21419 0.13815 124 99 60
2.79007 -2.22465 0.14801 125 97 63
2.78126 -2.20862 0.16200 126 108 84
2.78157 -2.21745 0.17418 141 121 88
2.77257 -2.22365 0.19018 131 105 84
2.76831 -2.23113 0.20414 124 106 85
2.76611 -2.23914 0.21720 173 167 111
2.77181 -2.24939 0.22701 186 154 76
2.79551 -2.26484 0.22959 153 115 53
2.80647 -2.27666 0.23736 104 77 59
2.82098 -2.28954 0.24375 92 60 54
2.81443 -2.29623 0.25846 100 80 87
2.80165 -2.30101 0.27552 101 111 142
2.80440 -2.31037 0.28647 103 107 118
2.80663 -2.31956 0.29759 111 109 110
2.79361 -2.32409 0.31450 138 147 141
2.80095 -2.33478 0.32361 142 148 135
2.78764 -2.33911 0.34046 170 176 165
2.79854 -2.35087 0.34820 181 180 188
2.79605 -2.37206 0.35128 191 206 214
2.80356 -2.36082 0.35813 183 183 194
2.82105 -2.37469 0.36351 165 161 167
2.84921 -2.39198 0.36508 149 132 121
2.83517 -2.39592 0.38197 138 124 93
2.80689 -2.39520 0.40381 97 81 60
2.78483 -2.39634 0.42326 50 37 39
2.81881 -2.41559 0.42288 65 67 64
2.80998 -2.42095 0.43756 98 90 76
2.81581 -2.43108 0.44709 110 96 83
2.79471 -2.43228 0.46584 96 78 78
2.78289 -2.43647 0.48129 78 70 80
2.70666 -2.41898 0.51832 112 122 127
2.70478 -2.42625 0.53006 144 157 170
2.70946 -2.43571 0.53959 152 159 176
2.71382 -2.44506 0.54923 155 163 170
2.71252 -2.45246 0.56069 174 181 196
2.70092 -2.45628 0.57544 206 210 218
2.69819 -2.47086 0.59816 219 221 218
2.69583 -2.49095 0.60109 222 223 224
2.66787 -2.46793 0.61855 212 213 212
2.65534 -2.47114 0.63320 190 186 185
2.61532 -2.49437 0.69825 154 150 157
2.59159 -2.49312 0.71567 181 202 173
2.57595 -2.49472 0.73057 228 249 181
2.57559 -2.50188 0.74094 249 254 164
0.45185 -0.25211 -0.72652 146 147 180
0.44252 -0.25260 -0.73710 59 70 112
0.45501 -0.25916 -0.71915 96 99 139
0.45863 -0.26597 -0.71249 55 65 112
0.46448 -0.27163 -0.70928 48 40 90
0.47245 -0.28488 -0.69707 60 22 48
0.47082 -0.29877 -0.69505 218 196 177
0.49913 -0.29763 -0.70088 191 148 118
0.49359 -0.30488 -0.70520 248 241 219
0.49748 -0.31164 -0.69884 253 251 246
0.51326 -0.29947 -0.70983 224 210 186
0.51160 -0.31356 -0.70778 254 254 250
0.51298 -0.30825 -0.69719 239 231 211
0.51133 -0.32231 -0.69515 254 254 252
0.55039 -0.45921 -0.51460 243 240 240
0.54115 -0.45970 -0.52507 254 254 253
0.54018 -0.47107 -0.48950 133 113 169
0.55558 -0.47336 -0.49885 59 38 68
0.56509 -0.47790 -0.50022 62 68 94
0.56557 -0.52528 -0.43370 67 72 99
0.57072 -0.53137 -0.42931 35 43 93
0.83285 -0.92144 -0.09269 251 254 254
0.83447 -0.90760 -0.09471 254 254 254
0.82900 -0.91477 -0.09898 254 254 254
0.83832 -0.91427 -0.08842 254 254 254
0.84164 -0.93470 -0.08116 226 228 236
0.87500 -0.94596 -0.09252 158 145 155
0.90558 -0.95063 -0.11091 120 108 123
0.90391 -0.96484 -0.10884 91 80 79
0.96027 -1.00425 -0.07989 98 87 73
0.95629 -0.99733 -0.08642 98 88 81
0.95460 -1.01169 -0.08432 83 71 60
0.96993 -1.00374 -0.06894 93 87 67
1.01479 -1.03049 -0.08740 58 49 46
1.00901 -1.03806 -0.09191 46 40 45
1.01307 -1.04511 -0.08527 49 42 41
1.01820 -1.03756 -0.08020 56 42 52
1.01649 -1.05218 -0.07807 49 42 34
2.01781 -1.29991 -0.52672 15 16 21
2.00426 -1.30063 -0.54208 9 5 11
2.03175 -1.31951 -0.51044 59 60 57
2.03029 -1.32875 -0.49619 43 45 29
2.03816 -1.33861 -0.48870 31 20 7
2.05170 -1.33790 -0.47335 10 9 3
2.05000 -1.34877 -0.48403 19 9 10
2.06356 -1.34805 -0.46865 8 9 4
2.05560 -1.35849 -0.47487 12 7 6
1.83576 -1.50953 -0.08191 54 51 34
1.84916 -1.51941 -0.07891 90 83 75
1.84702 -1.53762 -0.07626 96 83 68
2.83089 -2.00556 -0.19476 75 57 53
2.83356 -1.98277 -0.19808 80 62 56
2.82456 -1.99457 -0.20511 77 61 56
2.81556 -2.00637 -0.21213 76 58 51
2.83965 -2.01709 -0.18563 67 46 38
2.83137 -2.02477 -0.16802 52 20 23
2.82870 -2.04749 -0.16471 32 5 9
2.83862 -2.03594 -0.15817 39 7 9
2.83595 -2.05867 -0.15486 27 5 4
2.93037 -2.14331 -0.08154 36 16 12
2.91496 -2.14412 -0.09901 25 11 8
2.75177 -2.22263 0.17645 123 98 59
2.73734 -2.22340 0.16009 125 100 59
2.74330 -2.23374 0.16984 125 99 55
2.75882 -2.23329 0.18575 120 92 61
2.75630 -2.25475 0.18887 86 67 47
2.76489 -2.24367 0.19544 95 81 58
2.76193 -2.25145 0.20885 135 134 111
2.75577 -2.25826 0.22350 177 165 114
2.75453 -2.26646 0.23609 195 176 118
2.75469 -2.27504 0.24808 198 168 102
2.75219 -2.29632 0.25118 193 173 125
2.78097 -2.29135 0.24964 184 139 54
2.79466 -2.30398 0.25629 150 102 41
2.81891 -2.31983 0.25885 101 69 53
2.80576 -2.32441 0.27606 93 64 54
2.81764 -2.33656 0.28350 102 87 92
2.77746 -2.33271 0.31091 102 109 139
2.77589 -2.34063 0.32338 105 122 144
2.78645 -2.35230 0.33123 155 179 187
2.79202 -2.36242 0.34097 182 198 216
2.80403 -2.38294 0.36013 202 207 197
2.83143 -2.40843 0.37372 175 166 113
2.81138 -2.41026 0.39271 99 80 58
2.77657 -2.40718 0.41680 49 35 33
2.81544 -2.42813 0.41463 73 72 71
2.81498 -2.43622 0.42642 98 91 79
2.80511 -2.44115 0.44145 102 90 72
2.79050 -2.44443 0.45802 83 65 67
2.78223 -2.44976 0.47231 76 68 82
2.72802 -2.43947 0.50209 101 109 121
2.71978 -2.44460 0.51607 113 119 137
2.71026 -2.44924 0.53040 104 114 138
2.72282 -2.46143 0.53735 136 146 161
2.70486 -2.46307 0.55434 175 180 191
2.69388 -2.46704 0.56892 199 203 210
2.69152 -2.48721 0.57186 208 207 209
2.70045 -2.47710 0.57777 204 206 216
2.69808 -2.49727 0.58071 213 214 210
2.69610 -2.48332 0.59010 211 209 219
2.62092 -2.47943 0.64606 211 205 204
2.60254 -2.50258 0.69378 152 148 160
2.59060 -2.50557 0.70774 147 150 160
2.58833 -2.52492 0.71056 135 130 144
2.57251 -2.50620 0.72343 173 180 183
2.56373 -2.51022 0.73627 209 223 197
0.44359 -0.26075 -0.72643 49 44 103
0.43427 -0.26125 -0.73699 56 20 50
0.44791 -0.26718 -0.72089 55 24 69
0.45412 -0.27265 -0.71827 58 25 47
0.45899 -0.27882 -0.71356 75 48 62
0.46538 -0.28423 -0.71115 123 87 75
0.46347 -0.29381 -0.69599 183 139 105
0.49091 -0.29754 -0.71339 235 224 202
0.48927 -0.31156 -0.71135 254 254 250
0.53831 -0.46882 -0.50979 240 236 238
0.53221 -0.47908 -0.49021 100 96 166
0.54482 -0.48241 -0.49591 52 41 68
0.55061 -0.48829 -0.49236 63 66 94
0.55480 -0.49475 -0.48667 72 75 97
0.56401 -0.49426 -0.47622 60 72 88
0.55815 -0.50944 -0.46862 73 79 98
0.56734 -0.50895 -0.45820 71 71 94
0.55527 -0.51831 -0.45367 62 76 97
0.55603 -0.52590 -0.44353 56 72 98
0.55997 -0.53239 -0.43759 57 67 99
0.56782 -0.53760 -0.43669 30 35 95
0.58361 -0.54026 -0.44596 138 112 167
0.58963 -0.54617 -0.44257 229 241 241
0.59344 -0.55279 -0.43633 245 226 221
0.59358 -0.56055 -0.42544 252 252 252
0.60279 -0.56007 -0.41499 254 254 254
0.59738 -0.56716 -0.41922 254 254 254
0.59197 -0.57425 -0.42344 254 254 254
0.80701 -0.90949 -0.10723 253 254 254
0.80863 -0.89571 -0.10924 254 254 254
0.80318 -0.90285 -0.11349 254 254 254
0.81245 -0.90236 -0.10298 254 254 254
0.81628 -0.90900 -0.09672 254 254 254
0.81285 -0.91594 -0.10292 247 253 250
0.81940 -0.92233 -0.09927 236 242 236
0.82809 -0.92854 -0.09764 216 211 218
0.85851 -0.93996 -0.10659 136 125 150
0.86630 -0.94640 -0.10391 116 88 118
0.86465 -0.96043 -0.10187 93 84 79
0.87505 -0.95278 -0.10209 97 77 90
0.87339 -0.96685 -0.10004 99 88 79
0.88115 -0.95940 -0.09775 85 74 76
0.87950 -0.97348 -0.09570 100 90 79
0.95572 -1.00450 -0.09544 91 85 66
0.95173 -0.99756 -0.10198 95 90 69
0.94604 -1.00501 -0.10642 78 69 55
0.99539 -1.01697 -0.11054 69 61 53
0.98962 -1.02454 -0.11504 52 44 41
0.99368 -1.03158 -0.10841 49 44 35
1.00474 -1.02380 -0.10859 59 54 48
1.00302 -1.03845 -0.10645 47 43 43
1.00769 -1.03090 -0.10095 51 47 55
1.00597 -1.04554 -0.09882 48 41 40
2.01506 -1.31066 -0.53678 17 13 23
2.00149 -1.31137 -0.55216 7 6 10
2.02126 -1.32042 -0.52806 46 56 45
2.01889 -1.34060 -0.52512 55 58 60
2.02877 -1.33962 -0.50706 48 52 42
2.02081 -1.35005 -0.51327 43 50 50
2.02640 -1.35977 -0.50412 44 51 40
2.03284 -1.35851 -0.48364 37 39 18
2.04363 -1.36862 -0.47823 30 17 10
2.05718 -1.36790 -0.46288 9 8 4
2.04737 -1.37818 -0.46777 19 9 8
2.06091 -1.37746 -0.45243 7 8 4
2.05296 -1.38789 -0.45863 10 7 4
1.83266 -1.51137 -0.10159 26 37 14
1.83480 -1.49315 -0.10425 31 34 25
1.82760 -1.50259 -0.10987 27 33 22
1.82040 -1.51202 -0.11549 29 31 15
1.83772 -1.52016 -0.09332 56 52 32
1.85227 -1.53025 -0.09104 91 84 69
1.85013 -1.54853 -0.08838 97 84 68
2.43558 -1.80657 -0.18136 92 78 62
2.43805 -1.78551 -0.18443 96 78 72
2.42973 -1.79641 -0.19092 94 80 67
2.44389 -1.79567 -0.17487 95 78 73
2.44974 -1.80582 -0.16531 93 78 76
2.44136 -1.81671 -0.17177 89 76 63
2.45552 -1.81596 -0.15571 92 77 79
2.44721 -1.82686 -0.16221 87 72 72
2.43889 -1.83776 -0.16870 80 63 64
2.85010 -2.02372 -0.21608 74 55 48
2.83466 -2.02453 -0.23357 75 56 45
2.85513 -2.03448 -0.20499 64 43 37
2.85863 -2.04488 -0.19314 45 12 27
2.85593 -2.06780 -0.18980 30 6 11
2.94910 -2.16222 -0.10158 36 17 10
2.93358 -2.16304 -0.11917 26 14 9
2.94122 -2.16969 -0.08448 55 43 13
2.94075 -2.17901 -0.07088 71 57 25
2.93805 -2.20196 -0.06754 80 61 30
2.74756 -2.24360 0.18029 123 93 52
2.73313 -2.24437 0.16394 126 100 55
2.74970 -2.26144 0.20380 95 88 68
2.75072 -2.27031 0.21554 120 107 84
2.74978 -2.27858 0.22803 144 134 125
2.74142 -2.28461 0.24348 175 162 137
2.72897 -2.29777 0.27242 204 171 108
2.72649 -2.31889 0.27550 195 176 132
2.73112 -2.30683 0.28348 200 160 95
2.76242 -2.32481 0.28310 184 133 67
2.80650 -2.34685 0.27792 147 97 42
2.76012 -2.34091 0.30783 95 62 57
2.72293 -2.33763 0.33390 79 55 53
2.75702 -2.35664 0.33268 90 80 94
2.76191 -2.36650 0.34262 103 117 167
2.77301 -2.37834 0.35023 134 165 206
2.79649 -2.39419 0.35329 167 193 206
2.79208 -2.40108 0.36670 188 207 197
2.79327 -2.40975 0.37801 180 183 160
2.81688 -2.42576 0.38118 131 112 97
2.80617 -2.43051 0.39677 92 65 78
2.80765 -2.43924 0.40792 97 91 96
2.81230 -2.44901 0.41793 111 107 82
2.80352 -2.45427 0.43263 106 92 56
2.77003 -2.45111 0.45583 79 58 56
2.76860 -2.45869 0.46776 86 83 88
2.74859 -2.46787 0.49730 82 75 73
2.70753 -2.46161 0.52235 42 31 62
2.72500 -2.47555 0.52767 103 111 138
2.69516 -2.47296 0.54865 178 190 196
2.69517 -2.48074 0.55968 201 202 203
2.59597 -2.48338 0.64538 208 208 218
2.58281 -2.48407 0.63047 202 198 200
0.43787 -0.26805 -0.73030 69 39 72
0.42855 -0.26855 -0.74086 171 125 109
0.43990 -0.27566 -0.72118 116 82 97
0.44547 -0.28145 -0.71759 175 134 121
0.45972 -0.28286 -0.72749 211 189 171
0.45978 -0.29149 -0.71527 229 219 187
0.45815 -0.30539 -0.71325 254 254 249
0.46871 -0.29568 -0.71677 246 238 208
0.46707 -0.30962 -0.71473 254 254 253
0.47364 -0.30188 -0.71207 253 249 242
0.47200 -0.31584 -0.71003 254 254 254
0.52468 -0.47097 -0.51416 254 253 252
0.52628 -0.45732 -0.51615 254 254 254
0.52089 -0.46439 -0.52036 254 254 254
0.51549 -0.47146 -0.52457 254 254 254
0.52680 -0.47817 -0.50568 237 234 233
0.53718 -0.49030 -0.49711 40 49 72
0.54005 -0.49722 -0.48966 53 63 89
0.54436 -0.50362 -0.48416 65 59 84
0.54756 -0.51041 -0.47718 75 44 64
0.55468 -0.53940 -0.44189 65 43 66
0.55309 -0.55299 -0.43991 248 238 220
0.55309 -0.54770 -0.42874 64 56 121
0.56757 -0.55078 -0.43645 161 142 215
0.56597 -0.56441 -0.43447 215 211 232
0.78345 -0.90445 -0.11367 251 254 254
0.78506 -0.89074 -0.11567 254 254 254
0.77965 -0.89784 -0.11990 254 254 254
0.78887 -0.89735 -0.10944 254 254 254
0.79365 -0.91041 -0.11372 242 252 251
0.80079 -0.91671 -0.11072 229 227 232
0.80924 -0.92291 -0.10896 205 190 202
0.85303 -0.94721 -0.11097 88 71 83
0.85139 -0.96121 -0.10893 100 91 75
0.86113 -0.95363 -0.10859 86 76 77
0.85948 -0.96767 -0.10655 99 90 77
2.00461 -1.32094 -0.54115 15 11 24
1.99105 -1.32166 -0.55652 7 7 10
2.01331 -1.33087 -0.53430 40 49 43
2.02145 -1.38707 -0.46115 40 33 18
2.02582 -1.39662 -0.45122 23 14 9
2.03928 -1.39591 -0.43596 9 9 6
2.01655 -1.40492 -0.43166 16 10 8
2.02994 -1.40421 -0.41648 7 9 9
2.02208 -1.41453 -0.42262 12 9 6
1.84117 -1.52293 -0.11731 31 34 10
1.82885 -1.52359 -0.13128 27 30 23
1.84626 -1.53177 -0.10900 59 54 32
1.85710 -1.54141 -0.10434 91 83 72
1.85495 -1.55976 -0.10166 95 83 66
2.37571 -1.78960 -0.18444 96 83 59
2.37816 -1.76878 -0.18748 94 82 70
2.36993 -1.77956 -0.19390 98 82 64
2.38394 -1.77882 -0.17802 95 81 68
2.40147 -1.80348 -0.18621 87 77 56
2.42627 -1.81728 -0.18730 76 61 55
2.43534 -1.82806 -0.17953 75 59 56
2.43287 -1.84913 -0.17646 78 61 60
2.84393 -2.03626 -0.22463 74 52 40
2.82848 -2.03708 -0.24214 71 53 37
2.84966 -2.04718 -0.21388 60 40 30
2.94925 -2.17655 -0.11304 38 16 5
2.93370 -2.17737 -0.13067 25 13 5
2.94425 -2.18474 -0.09722 58 49 6
2.94154 -2.20780 -0.09386 75 57 18
2.94169 -2.19351 -0.08260 73 57 19
2.93899 -2.21652 -0.07924 82 60 26
2.74064 -2.25516 0.17302 126 98 56
2.72621 -2.25593 0.15666 126 98 55
2.73216 -2.26627 0.16641 126 98 63
2.74384 -2.26470 0.18392 102 81 57
2.74132 -2.28614 0.18705 94 76 55
2.74206 -2.27276 0.19687 96 79 60
2.74544 -2.28232 0.20764 104 88 69
2.74036 -2.28933 0.22186 111 96 83
2.72948 -2.29455 0.23837 127 113 93
2.73523 -2.30474 0.24807 149 142 124
2.72062 -2.30871 0.26591 177 165 134
2.72848 -2.32788 0.28662 206 175 106
2.72601 -2.34898 0.28969 199 182 136
2.73701 -2.33889 0.29516 207 168 82
2.71671 -2.34085 0.31489 196 156 83
2.73379 -2.35452 0.32009 175 133 66
2.72908 -2.36130 0.33367 140 93 39
2.74993 -2.37624 0.33750 88 55 53
2.76890 -2.39064 0.34213 66 55 70
2.71337 -2.38087 0.37462 75 78 109
2.74980 -2.40093 0.37273 99 110 149
2.76847 -2.41527 0.37753 98 93 148
2.77514 -2.42569 0.38678 105 108 143
2.81159 -2.44604 0.38528 128 136 151
2.81747 -2.45626 0.39491 151 154 145
2.82025 -2.46543 0.40564 163 160 132
2.80273 -2.46771 0.42350 137 132 83
2.77157 -2.46522 0.44600 122 110 88
2.75894 -2.46895 0.46185 116 118 113
2.74572 -2.47240 0.47781 92 82 93
2.71390 -2.46931 0.49998 50 29 36
2.70551 -2.47426 0.51404 48 45 46
2.71270 -2.48464 0.52278 134 151 143
2.69419 -2.48592 0.54008 190 200 190
2.69181 -2.50620 0.54303 186 182 188
2.69738 -2.49484 0.55009 197 196 195
2.70307 -2.50463 0.55927 204 203 206
2.70870 -2.51441 0.56847 208 205 207
2.60038 -2.49794 0.63552 198 199 204
2.58718 -2.49864 0.62057 206 200 196
2.59263 -2.50810 0.62947 199 195 196
2.54257 -2.49147 0.67460 232 235 235
0.44015 -0.27120 -0.74687 206 178 168
0.43079 -0.27169 -0.75748 242 231 208
0.44369 -0.27807 -0.74005 224 214 196
0.44157 -0.28782 -0.72433 244 235 217
0.43994 -0.30168 -0.72231 254 254 254
0.44756 -0.29342 -0.72139 252 248 241
0.44593 -0.30730 -0.71937 254 254 254
0.45520 -0.29823 -0.72097 254 253 246
0.45356 -0.31214 -0.71895 254 254 254
0.51252 -0.48057 -0.50905 254 253 251
0.50337 -0.48105 -0.51941 254 254 254
0.50715 -0.48761 -0.51324 254 253 253
0.51950 -0.48594 -0.50727 238 227 220
0.52168 -0.49309 -0.49890 107 76 126
0.52986 -0.49807 -0.49870 63 41 68
0.53441 -0.50438 -0.49353 65 54 82
0.53854 -0.51084 -0.48780 82 79 105
0.53653 -0.52728 -0.46263 160 129 148
0.53020 -0.55270 -0.42099 242 229 195
0.55912 -0.55882 -0.43667 251 251 246
0.55752 -0.57243 -0.43469 198 169 207
0.58092 -0.56753 -0.44264 238 219 211
0.57931 -0.58124 -0.44065 253 254 254
0.57218 -0.57797 -0.42035 253 253 253
0.57058 -0.59159 -0.41837 254 254 254
0.75263 -0.89331 -0.12249 253 254 254
0.75423 -0.87970 -0.12447 254 254 254
0.74885 -0.88675 -0.12867 254 254 254
0.75801 -0.88627 -0.11829 254 254 254
0.76179 -0.89283 -0.11211 254 254 254
0.75914 -0.89958 -0.11904 248 253 251
0.77797 -0.91156 -0.11784 219 213 225
0.78264 -0.91808 -0.11246 185 180 199
0.78968 -0.92439 -0.10940 149 134 155
0.81960 -0.92859 -0.12866 124 94 117
0.81796 -0.94251 -0.12663 95 84 69
0.82822 -0.93488 -0.12696 94 76 83
0.82658 -0.94883 -0.12493 101 89 64
0.83730 -0.94116 -0.12566 80 69 70
0.83566 -0.95515 -0.12362 101 90 72
0.85457 -0.95390 -0.12205 99 87 77
0.85292 -0.96796 -0.12000 98 90 71
1.99982 -1.33159 -0.54974 15 10 29
1.98624 -1.33231 -0.56512 8 6 10
1.99989 -1.34093 -0.53648 39 39 56
2.00341 -1.35049 -0.52580 64 66 72
2.00807 -1.36012 -0.51598 57 57 52
2.00360 -1.36902 -0.49950 48 49 42
2.00124 -1.38908 -0.49658 44 44 39
1.98520 -1.40399 -0.43404 36 36 29
1.98398 -1.41291 -0.42028 27 25 24
1.98752 -1.42225 -0.40993 20 13 19
2.00081 -1.42154 -0.39487 9 8 5
1.97960 -1.43043 -0.39156 12 7 9
1.99283 -1.42973 -0.37657 7 7 3
1.98506 -1.43991 -0.38263 8 7 4
1.84279 -1.53365 -0.12869 30 28 15
1.83043 -1.53430 -0.14270 27 29 21
1.85537 -1.54356 -0.12515 66 52 35
1.85975 -1.55234 -0.11632 90 83 72
1.85758 -1.57075 -0.11364 95 84 67
2.40313 -1.81627 -0.19827 67 55 40
2.43110 -1.83979 -0.18831 66 47 54
2.42863 -1.86088 -0.18523 80 63 61
2.84290 -2.05002 -0.23583 68 49 33
2.82742 -2.05084 -0.25338 67 52 38
2.85116 -2.06156 -0.22634 55 36 25
2.85486 -2.07202 -0.21453 38 7 25
2.85216 -2.09502 -0.21118 24 5 8
2.92632 -2.18493 -0.11366 41 17 4
2.91082 -2.18575 -0.13123 22 9 4
2.94017 -2.19800 -0.10669 60 48 5
2.73579 -2.27593 0.17713 110 91 55
2.72136 -2.27669 0.16078 123 96 60
2.73362 -2.29238 0.20244 104 87 62
2.72930 -2.29958 0.21637 114 94 65
2.71485 -2.30364 0.23437 116 96 67
2.69657 -2.30644 0.25380 112 104 73
2.69703 -2.31493 0.26554 122 109 86
2.71531 -2.32895 0.27012 150 139 123
2.71907 -2.33847 0.28054 181 170 132
2.72808 -2.35796 0.30075 207 185 127
2.74884 -2.37289 0.30455 210 179 117
2.74074 -2.37860 0.31953 208 174 99
2.72202 -2.38079 0.33848 195 160 88
2.72307 -2.38934 0.34979 160 129 63
2.76154 -2.41016 0.34704 98 64 39
2.77372 -2.42243 0.35427 71 41 50
2.77822 -2.43217 0.36437 55 30 48
2.78324 -2.44208 0.37428 61 65 75
2.78075 -2.46320 0.37736 63 37 40
2.76753 -2.44500 0.39171 93 116 137
2.80909 -2.46724 0.38838 127 149 170
2.81102 -2.47611 0.39942 149 168 170
2.81690 -2.48633 0.40903 149 160 145
2.81709 -2.49458 0.42066 149 154 141
2.75107 -2.47982 0.45533 117 112 106
2.71970 -2.47687 0.47761 61 46 40
2.70994 -2.48136 0.49226 22 11 24
2.69544 -2.48412 0.50843 57 58 85
2.70545 -2.49549 0.51622 148 165 165
2.70305 -2.51590 0.51919 190 190 188
2.69145 -2.49831 0.53206 188 190 188
2.68907 -2.51862 0.53502 187 180 181
2.70134 -2.51739 0.55096 194 191 191
2.69332 -2.52790 0.54470 188 184 182
2.70788 -2.52751 0.55988 205 203 199
2.72153 -2.52679 0.57537 206 201 202
2.71351 -2.53730 0.56910 211 206 198
2.70549 -2.54781 0.56284 205 199 193
2.58699 -2.51345 0.64187 201 201 202
2.57383 -2.51414 0.62695 199 190 189
2.57926 -2.52357 0.63584 201 194 192
2.58469 -2.53301 0.64472 203 197 191
2.57971 -2.51814 0.65471 202 200 205
2.57742 -2.53763 0.65755 203 199 194
2.57337 -2.55236 0.70892 183 193 191
0.42455 -0.28362 -0.73506 252 246 238
0.41525 -0.28411 -0.74560 254 254 248
0.41909 -0.29078 -0.73933 254 254 253
0.42293 -0.29745 -0.73305 254 254 254
0.42954 -0.28970 -0.73061 254 253 247
0.42792 -0.30353 -0.72860 254 254 254
0.43519 -0.29546 -0.72718 254 254 250
0.43356 -0.30931 -0.72516 254 254 254
0.50848 -0.51868 -0.46985 236 225 198
0.51420 -0.52449 -0.46640 238 232 209
0.51580 -0.53174 -0.45738 242 240 214
0.51176 -0.54087 -0.44084 246 243 234
0.52349 -0.54468 -0.44541 252 250 250
0.52841 -0.55079 -0.44084 254 253 251
0.53482 -0.55643 -0.43823 254 253 251
0.53323 -0.56995 -0.43626 224 205 227
0.54269 -0.56163 -0.43750 254 253 252
0.55481 -0.56553 -0.44225 234 242 240
0.56133 -0.62470 -0.36303 244 251 254
0.56290 -0.61127 -0.36498 254 254 254
0.55760 -0.61822 -0.36912 251 254 254
0.56663 -0.61775 -0.35888 254 254 254
0.57036 -0.62422 -0.35278 254 254 254
0.55975 -0.63813 -0.36107 214 218 234
0.56400 -0.63147 -0.35561 241 251 254
0.57303 -0.63099 -0.34538 254 254 254
0.56620 -0.63836 -0.34761 248 253 254
0.57522 -0.63788 -0.33739 254 254 254
0.56992 -0.64482 -0.34152 253 254 254
0.73012 -0.88837 -0.12925 251 254 254
0.73171 -0.87482 -0.13122 254 254 254
0.72636 -0.88183 -0.13540 254 254 254
0.73547 -0.88135 -0.12507 254 254 254
0.73983 -0.89422 -0.12915 244 252 250
0.75401 -0.90661 -0.12350 211 202 206
0.75240 -0.92024 -0.12151 96 72 78
0.76302 -0.91264 -0.12255 169 161 164
0.77513 -0.91840 -0.12462 137 118 142
0.77351 -0.93213 -0.12262 92 77 77
0.78797 -0.92415 -0.12735 110 81 112
0.78635 -0.93794 -0.12534 100 86 67
0.81608 -0.93562 -0.13490 85 74 69
0.81444 -0.94956 -0.13287 102 91 71
1.98623 -1.34164 -0.55175 15 10 22
1.97269 -1.34235 -0.56710 8 8 10
1.99353 -1.35148 -0.54387 36 33 46
1.99720 -1.36104 -0.53330 63 72 75
1.99965 -1.37050 -0.52183 61 63 54
1.99474 -1.37933 -0.50500 51 50 47
1.99239 -1.39938 -0.50208 50 52 46
1.95520 -1.42109 -0.41141 37 40 39
1.94200 -1.42179 -0.42638 45 41 44
1.94744 -1.43125 -0.41746 44 44 42
1.95860 -1.43035 -0.40104 36 37 34
1.96530 -1.43994 -0.39302 23 19 18
1.97167 -1.44950 -0.38475 11 9 9
1.98487 -1.44880 -0.36978 7 8 5
1.97712 -1.45897 -0.37583 8 7 7
1.96936 -1.46913 -0.38189 9 7 9
1.84430 -1.54440 -0.14005 30 30 14
1.83190 -1.54506 -0.15410 26 30 20
1.85700 -1.55439 -0.13658 71 53 35
1.87727 -1.56553 -0.13792 91 84 73
1.87509 -1.58409 -0.13521 97 85 68
2.25902 -1.75661 -0.18991 97 86 72
2.26142 -1.73625 -0.19287 98 83 73
2.25337 -1.74679 -0.19915 100 85 73
2.26707 -1.74607 -0.18363 99 83 74
2.27272 -1.75589 -0.17438 99 82 71
2.26424 -1.76635 -0.18040 91 82 70
2.33791 -1.79810 -0.19778 67 57 53
2.33547 -1.81883 -0.19476 38 21 45
2.38898 -1.82597 -0.20142 39 24 27
2.41043 -1.83923 -0.20073 49 32 40
2.42173 -1.85050 -0.19423 70 53 53
2.41925 -1.87158 -0.19115 82 67 61
2.84072 -2.06357 -0.24649 62 46 33
2.82522 -2.06439 -0.26407 64 51 40
2.85021 -2.07542 -0.23761 49 30 21
2.85047 -2.08506 -0.22401 33 6 19
2.84777 -2.10809 -0.22065 21 4 4
2.90407 -2.19339 -0.11452 41 22 6
2.92673 -2.20881 -0.11177 61 48 10
2.92402 -2.23187 -0.10841 71 56 31
2.93724 -2.22103 -0.10322 74 56 28
2.94365 -2.23216 -0.09273 81 60 36
2.93452 -2.24412 -0.09985 77 61 40
2.72651 -2.28679 0.17086 117 92 48
2.71959 -2.29324 0.18601 90 68 46
2.71388 -2.30000 0.20057 92 79 61
2.70921 -2.30703 0.21463 98 87 74
2.70671 -2.32828 0.21773 44 44 121
2.69336 -2.31057 0.23323 94 83 78
2.69088 -2.33170 0.23630 29 32 116
2.68375 -2.31595 0.24914 86 78 80
2.67790 -2.32244 0.26343 79 77 88
2.68126 -2.33178 0.27395 98 93 94
2.68621 -2.34161 0.28382 120 110 94
2.69658 -2.35318 0.29153 149 143 127
2.71975 -2.36887 0.29425 180 177 142
2.73814 -2.38309 0.29894 199 185 146
2.72635 -2.38754 0.31537 189 174 123
2.70904 -2.39010 0.33382 173 151 74
2.71856 -2.40142 0.34191 143 101 59
2.70597 -2.40541 0.35838 134 95 63
2.71523 -2.41663 0.36654 158 138 81
2.73586 -2.43168 0.37050 154 123 57
2.78009 -2.45477 0.36585 104 69 30
2.79787 -2.47724 0.38287 69 44 69
2.79655 -2.48498 0.39508 78 65 103
2.80185 -2.49498 0.40489 77 74 102
2.75341 -2.48624 0.43372 73 74 79
2.71963 -2.48243 0.45708 55 46 46
2.71107 -2.48735 0.47144 56 29 12
2.70256 -2.49223 0.48569 60 35 32
2.71533 -2.50464 0.49257 112 107 138
2.68699 -2.50233 0.51346 175 187 188
2.55087 -2.56383 0.71775 141 140 155
0.50686 -0.53217 -0.46784 253 253 251
0.50869 -0.53933 -0.45914 236 253 251
0.51092 -0.54633 -0.45099 224 248 253
0.51622 -0.55230 -0.44697 226 247 254
0.52041 -0.55865 -0.44145 225 247 254
0.52536 -0.56476 -0.43693 219 243 253
0.54003 -0.57552 -0.43412 187 187 151
0.54249 -0.59011 -0.41525 251 252 251
0.54091 -0.60361 -0.41329 254 254 254
0.55048 -0.62569 -0.37096 247 245 249
0.55205 -0.61227 -0.37292 254 254 254
0.54675 -0.61922 -0.37706 254 254 254
0.54145 -0.62617 -0.38119 254 254 254
0.54517 -0.63264 -0.37510 254 253 252
0.55506 -0.63192 -0.36595 222 218 234
0.56050 -0.64541 -0.35125 236 228 239
0.55893 -0.65882 -0.34930 254 254 254
0.70464 -0.87690 -0.14265 254 254 254
0.70623 -0.86342 -0.14461 254 254 254
0.70090 -0.87040 -0.14877 254 254 254
0.70997 -0.86992 -0.13849 254 254 254
0.71371 -0.87642 -0.13237 254 254 254
0.71113 -0.88306 -0.13938 249 253 252
0.71719 -0.88930 -0.13563 240 245 241
0.72745 -0.90203 -0.12617 194 195 205
0.74530 -0.90704 -0.13436 159 145 152
0.77154 -0.91129 -0.15089 128 97 109
0.76992 -0.92508 -0.14888 94 82 68
0.77835 -0.92467 -0.13752 82 67 73
0.77673 -0.93846 -0.13551 101 90 75
1.97373 -1.35172 -0.55452 13 10 17
1.96020 -1.35244 -0.56986 9 9 10
1.96578 -1.36214 -0.56073 9 9 13
1.97289 -1.36092 -0.54058 27 25 34
1.99030 -1.37156 -0.54030 55 69 61
1.99276 -1.38101 -0.52882 54 66 58
1.98564 -1.38961 -0.51031 51 58 45
1.93661 -1.43902 -0.39694 46 50 38
1.92348 -1.43972 -0.41183 47 48 29
1.92890 -1.44914 -0.40296 47 53 38
1.94704 -1.44898 -0.39162 34 34 25
1.95384 -1.45856 -0.38371 17 13 15
1.95154 -1.47813 -0.38085 9 8 10
1.84054 -1.55446 -0.14803 30 32 15
1.82813 -1.55511 -0.16209 25 28 18
1.85738 -1.56509 -0.14726 72 55 36
1.89234 -1.57852 -0.15811 93 84 77
1.89014 -1.59722 -0.15538 98 85 68
2.23491 -1.75538 -0.19926 100 83 63
2.23730 -1.73508 -0.20222 100 84 75
2.22928 -1.74559 -0.20848 102 86 79
2.25114 -1.76719 -0.19628 80 67 55
2.37273 -1.83521 -0.20334 48 32 37
2.84134 -2.07783 -0.25864 58 42 34
2.82580 -2.07865 -0.27625 61 48 37
2.85034 -2.08960 -0.24948 45 23 18
2.84763 -2.11272 -0.24611 29 8 12
2.84843 -2.09871 -0.23472 30 6 13
2.84572 -2.12178 -0.23136 22 5 7
2.86616 -2.18825 -0.12122 21 10 5
2.86884 -2.16541 -0.12455 15 6 4
2.85981 -2.17724 -0.13160 13 5 2
2.85079 -2.18906 -0.13864 14 5 3
2.88414 -2.20238 -0.11641 41 30 8
2.90943 -2.21854 -0.11500 60 50 14
2.90673 -2.24156 -0.11164 69 55 31
2.71983 -2.28988 0.15119 120 96 61
2.72235 -2.26840 0.14806 125 96 60
2.71387 -2.27953 0.14143 125 95 66
2.71537 -2.29708 0.16539 107 87 53
2.70813 -2.30338 0.18070 73 61 54
2.70275 -2.31020 0.19514 56 51 82
2.69398 -2.31592 0.21093 51 52 108
2.67130 -2.33384 0.25627 21 43 116
2.66301 -2.34471 0.24980 31 54 133
2.66884 -2.35483 0.25933 64 77 96
2.66919 -2.34143 0.26901 67 80 95
2.66673 -2.36238 0.27207 88 76 63
2.67123 -2.35032 0.28004 96 93 82
2.69487 -2.36617 0.28244 105 108 99
2.72551 -2.38437 0.28218 110 121 104
2.71796 -2.39018 0.29705 119 96 123
2.67336 -2.38374 0.32627 106 71 92
2.70119 -2.40108 0.32720 112 102 44
2.70437 -2.41030 0.33772 160 146 67
2.70616 -2.41904 0.34874 188 165 68
2.70010 -2.42511 0.36270 183 153 97
2.70644 -2.43534 0.37196 176 141 84
2.72098 -2.44838 0.37817 175 137 48
2.76544 -2.47989 0.38513 165 122 42
2.78833 -2.49597 0.38851 126 83 30
2.77924 -2.50094 0.40350 86 52 24
2.72809 -2.49103 0.43338 63 40 16
2.72000 -2.49614 0.44770 58 43 11
2.70189 -2.49763 0.46546 103 74 20
2.70656 -2.50717 0.47516 150 119 50
2.70415 -2.52774 0.47816 189 156 99
2.74159 -2.52765 0.47439 174 155 128
2.69938 -2.52027 0.50019 186 181 187
0.48607 -0.52115 -0.48451 224 208 218
0.49154 -0.53482 -0.46955 220 218 249
0.48386 -0.54519 -0.44788 206 182 236
0.48941 -0.55100 -0.44433 144 132 187
0.49428 -0.55706 -0.43983 109 91 157
0.49493 -0.56450 -0.42965 142 91 135
0.49757 -0.57128 -0.42216 158 106 141
0.50414 -0.57680 -0.41993 150 116 157
0.52436 -0.57806 -0.43575 165 139 201
0.52613 -0.58517 -0.42702 229 207 213
0.52455 -0.59865 -0.42506 254 254 252
0.52901 -0.59193 -0.41977 252 251 233
0.52742 -0.60540 -0.41780 254 254 254
0.54761 -0.63946 -0.36737 253 250 247
0.53859 -0.63994 -0.37759 254 254 254
0.54231 -0.64640 -0.37150 254 254 254
0.54603 -0.65287 -0.36542 254 254 254
0.55223 -0.64568 -0.36242 253 251 247
0.55065 -0.65910 -0.36046 254 254 254
0.55440 -0.65257 -0.35438 254 251 249
0.55283 -0.66597 -0.35242 254 254 254
0.68831 -0.87133 -0.15531 252 254 254
0.68989 -0.85788 -0.15727 254 254 254
0.68457 -0.86485 -0.16142 254 254 254
0.69362 -0.86437 -0.15116 254 254 254
0.69422 -0.87755 -0.15150 247 253 249
0.69264 -0.89102 -0.14954 169 158 149
0.69893 -0.88393 -0.14640 239 238 232
0.70050 -0.89068 -0.13801 214 211 214
0.73774 -0.89332 -0.16668 177 177 178
0.72711 -0.90154 -0.14555 144 126 150
0.74506 -0.90657 -0.15394 112 81 114
1.95924 -1.37084 -0.54245 10 12 24
1.94577 -1.37156 -0.55773 8 9 8
1.95133 -1.38122 -0.54863 6 8 12
1.96304 -1.38035 -0.53203 19 27 42
1.97178 -1.39029 -0.52531 27 33 45
1.92991 -1.45807 -0.39095 38 41 31
1.91680 -1.45876 -0.40582 50 56 47
1.94300 -1.46834 -0.38754 18 16 19
1.94071 -1.48789 -0.38469 10 8 11
1.83786 -1.56470 -0.15675 28 30 16
1.82544 -1.56535 -0.17083 25 28 19
1.86217 -1.57652 -0.16088 72 59 38
1.89750 -1.59014 -0.17202 93 84 68
1.89529 -1.60892 -0.16928 98 84 72
2.21515 -1.75496 -0.21108 94 78 76
2.21753 -1.73469 -0.21403 99 85 78
2.20953 -1.74518 -0.22028 97 85 77
2.21277 -1.77522 -0.20812 82 60 61
2.22796 -1.76610 -0.20615 85 66 59
2.24946 -1.77896 -0.20633 68 44 51
2.32970 -1.83005 -0.20255 67 48 52
2.32726 -1.85080 -0.19952 87 67 66
2.35704 -1.84451 -0.20552 76 59 58
2.35458 -1.86538 -0.20248 86 66 65
2.39407 -1.86109 -0.21387 83 66 56
2.39160 -1.88215 -0.21080 85 66 60
2.82779 -2.08872 -0.26346 55 38 31
2.84381 -2.10220 -0.25796 42 19 23
2.84109 -2.12534 -0.25459 25 8 13
2.85112 -2.19847 -0.12536 24 13 6
2.83577 -2.19928 -0.14275 12 7 5
2.86510 -2.21154 -0.11868 43 34 7
2.87608 -2.22383 -0.11051 59 49 16
2.87339 -2.24671 -0.10718 69 52 34
2.69883 -2.28867 0.13766 117 93 71
2.70134 -2.26722 0.13454 122 96 71
2.69287 -2.27832 0.12792 122 95 78
2.69631 -2.31011 0.14079 36 39 92
2.70641 -2.29951 0.14669 91 81 66
2.69798 -2.30544 0.16261 65 52 72
2.69405 -2.31269 0.17652 44 36 63
2.69003 -2.31988 0.19040 33 27 97
2.67562 -2.32377 0.20858 33 38 126
2.67258 -2.33116 0.22189 38 56 147
2.66461 -2.33694 0.23719 35 46 144
2.66214 -2.35798 0.24026 24 46 137
2.66639 -2.37047 0.28404 102 89 61
2.65233 -2.37122 0.26810 90 82 69
2.65813 -2.38130 0.27759 106 87 59
2.66068 -2.37678 0.29812 95 87 58
2.67941 -2.39111 0.30248 61 42 68
2.67658 -2.39832 0.31537 81 56 71
2.68979 -2.41087 0.32197 137 125 66
2.67342 -2.41349 0.34001 182 172 95
2.64012 -2.41027 0.36441 203 188 114
2.62899 -2.42238 0.39160 214 183 122
2.62659 -2.44285 0.39458 213 188 134
2.63261 -2.43943 0.41306 211 178 111
2.68287 -2.47280 0.41741 210 174 93
2.72127 -2.49430 0.41496 206 166 87
2.77921 -2.52287 0.40569 200 160 72
2.72134 -2.51819 0.44939 200 168 72
2.72090 -2.52594 0.46096 197 163 76
2.73828 -2.54804 0.47771 179 147 117
2.73010 -2.55877 0.47133 194 159 104
2.73961 -2.55641 0.48863 176 155 126
2.71747 -2.55608 0.50745 178 173 155
2.73129 -2.55535 0.52312 190 186 183
2.70597 -2.55959 0.52255 178 181 183
2.71973 -2.55886 0.53815 188 184 186
2.71367 -2.57020 0.53117 177 182 189
2.72743 -2.56948 0.54677 189 186 188
2.72551 -2.58239 0.53843 180 181 188
2.73930 -2.58166 0.55405 189 185 187
2.73120 -2.59227 0.54773 183 181 187
2.64211 -2.61101 0.65247 119 100 61
0.48130 -0.52010 -0.50075 239 228 229
0.48471 -0.53453 -0.48285 148 121 164
0.47882 -0.54431 -0.46349 145 117 156
0.47920 -0.55189 -0.45283 109 101 134
0.47506 -0.56095 -0.43606 62 64 73
0.47997 -0.56695 -0.43170 42 27 111
0.48800 -0.57195 -0.43151 152 107 153
0.48929 -0.57915 -0.42223 230 214 199
0.50010 -0.58333 -0.42571 244 231 212
0.49853 -0.59669 -0.42376 254 254 253
0.50403 -0.58971 -0.41992 245 242 236
0.50246 -0.60308 -0.41797 254 254 254
0.51117 -0.59510 -0.41840 252 250 251
0.50960 -0.60850 -0.41645 254 254 254
0.66876 -0.86623 -0.16441 250 253 252
0.67033 -0.85282 -0.16636 254 254 254
0.66503 -0.85977 -0.17049 254 254 254
0.67405 -0.85929 -0.16027 254 254 254
0.67635 -0.87219 -0.16246 244 247 245
0.67477 -0.88563 -0.16051 151 129 158
0.68286 -0.87832 -0.15932 229 230 236
0.69126 -0.88423 -0.15816 199 203 203
0.72298 -0.90146 -0.16115 92 69 86
0.72138 -0.91509 -0.15916 101 89 69
0.72792 -0.90791 -0.15616 77 62 74
0.72632 -0.92155 -0.15417 103 89 67
0.74354 -0.92026 -0.15203 100 85 65
0.74193 -0.93396 -0.15004 99 90 73
1.95114 -1.39037 -0.53520 7 7 22
1.93769 -1.39108 -0.55044 7 7 7
1.94324 -1.40073 -0.54136 7 6 10
1.94879 -1.41037 -0.53228 6 6 9
1.95360 -1.39973 -0.52380 9 11 24
1.94791 -1.40831 -0.50636 17 19 26
1.93012 -1.41565 -0.48004 29 31 38
1.90119 -1.42175 -0.44570 40 47 52
1.91433 -1.42105 -0.43080 50 52 50
1.90661 -1.43117 -0.43683 45 58 50
1.91110 -1.46690 -0.38901 39 43 37
1.93654 -1.47861 -0.39446 21 19 22
1.93424 -1.49817 -0.39161 11 7 8
1.84222 -1.57604 -0.17014 29 29 21
1.82975 -1.57670 -0.18428 26 28 18
