ply
format ascii 1.0
element face 0
property list uchar int vertex_indices
element vertex 1314
property float x
property float y
property float z
property uchar diffuse_red
property uchar diffuse_green
property uchar diffuse_blue
end_header
0.60195 0.58425 -1.43501 235 221 213
0.60578 0.57208 -1.41999 233 223 216
0.60717 0.55447 -1.41896 233 217 211
0.61400 0.54863 -1.39165 252 252 252
0.61783 0.53672 -1.37701 253 252 242
0.61921 0.51925 -1.37598 244 242 239
0.62038 0.52353 -1.35953 247 242 211
0.62513 0.51279 -1.34729 219 216 170
0.62138 0.49317 -1.31569 106 123 127
0.63270 0.48948 -1.31868 95 91 85
0.63842 0.47994 -1.30890 137 134 147
0.65193 0.48169 -1.29816 245 249 251
0.63978 0.46268 -1.30789 118 99 134
0.66556 0.49223 -1.34705 192 211 238
0.66694 0.47473 -1.34603 176 122 146
0.71721 0.48173 -1.36991 244 218 219
0.73670 0.48516 -1.38939 222 203 182
0.69473 0.28809 -1.06897 250 243 233
0.69343 0.30455 -1.06994 254 254 254
0.68764 0.29548 -1.07457 254 254 254
0.70183 0.28069 -1.06337 186 176 176
0.70025 0.20130 -0.94566 76 92 149
0.70152 0.18532 -0.94472 54 84 144
0.69782 0.18681 -0.92258 75 92 149
0.69907 0.17093 -0.92165 62 90 148
0.70621 0.18089 -0.92010 63 90 146
0.71795 0.17750 -0.92383 51 75 127
0.72216 0.16831 -0.91345 39 42 84
0.74734 0.17492 -0.94181 27 27 62
0.74778 0.16285 -0.92443 22 22 45
0.75273 0.15420 -0.91540 17 20 47
0.74584 0.07783 -0.79817 29 37 55
0.88292 -0.01656 -0.76116 35 60 108
0.88417 -0.03238 -0.76024 54 79 122
0.88496 -0.03724 -0.73231 47 73 124
0.88620 -0.05295 -0.73139 58 82 132
0.99028 -0.09973 -0.71861 48 84 133
0.98902 -0.08375 -0.71955 55 88 140
0.98340 -0.09255 -0.72405 59 90 141
0.97777 -0.10136 -0.72855 62 92 142
0.99819 -0.10642 -0.71465 41 77 117
1.01590 -0.12936 -0.69410 58 73 105
1.02152 -0.12056 -0.68961 57 76 109
1.02840 -0.12773 -0.68417 67 85 113
1.01723 -0.13908 -0.68082 73 86 109
1.02969 -0.13746 -0.67092 81 92 115
1.01849 -0.15500 -0.67989 89 108 124
1.07506 -0.18501 -0.65623 55 96 138
1.08358 -0.19153 -0.65297 56 86 123
1.09567 -0.19661 -0.65448 125 129 140
1.11232 -0.19990 -0.66198 209 207 206
1.11746 -0.20788 -0.65407 248 247 245
1.11873 -0.22401 -0.65313 254 254 254
1.42550 -0.59349 -0.31621 252 248 238
1.41318 -0.59509 -0.32600 254 254 254
1.41996 -0.60216 -0.32065 254 254 252
1.46268 -0.59567 -0.34056 232 215 175
1.48073 -0.60108 -0.34598 184 155 88
1.48965 -0.60798 -0.34246 145 123 76
1.20985 -0.74815 0.07062 119 106 94
1.19930 -0.74952 0.06224 108 101 88
1.38238 -0.86047 0.10769 26 32 32
1.37151 -0.86188 0.09906 17 16 21
1.38083 -0.86701 0.11843 65 75 66
1.39454 -0.87937 0.12642 95 91 69
1.40107 -0.88557 0.13069 88 83 47
1.41119 -0.89167 0.13215 74 63 27
1.42686 -0.89766 0.12932 44 31 16
1.42797 -0.91160 0.13014 19 15 7
1.59869 -0.97367 0.11360 21 17 14
1.59754 -0.95912 0.11275 17 17 12
1.59242 -0.96713 0.10865 19 17 11
1.62712 -0.98047 0.10251 35 39 43
1.69374 -0.98794 0.06413 75 80 79
1.70453 -1.00143 0.07592 76 69 59
1.93690 -1.16982 0.15097 177 176 177
1.92327 -1.18143 0.17811 233 237 244
0.52342 0.65859 -1.50989 252 250 246
0.50955 0.65679 -1.52090 254 254 254
0.51719 0.64884 -1.51488 254 254 254
0.52482 0.64088 -1.50886 254 254 251
0.52690 0.64547 -1.49313 247 244 224
0.52717 0.62849 -1.46826 248 238 208
0.53177 0.61698 -1.45473 247 234 220
0.53710 0.60644 -1.44316 247 239 222
0.53848 0.58896 -1.44213 235 228 226
0.55061 0.60572 -1.45222 233 227 201
0.57280 0.58146 -1.43303 236 249 244
0.57418 0.56390 -1.43201 224 236 252
0.58659 0.56418 -1.41786 242 242 237
0.58042 0.55452 -1.42280 226 233 250
0.58798 0.54664 -1.41684 243 236 246
0.59212 0.55403 -1.40701 237 228 224
0.59350 0.53651 -1.40599 244 240 238
0.60363 0.53438 -1.38664 241 218 214
0.61273 0.52824 -1.38440 245 230 226
0.61412 0.51075 -1.38338 224 221 248
0.62471 0.50925 -1.36535 243 244 232
0.61857 0.49964 -1.37026 224 219 248
0.62507 0.49390 -1.34296 233 227 200
0.63537 0.48904 -1.34349 213 197 158
0.63383 0.47196 -1.31713 130 100 127
0.63520 0.45468 -1.31612 179 143 177
0.67760 0.46996 -1.34698 202 167 191
0.71201 0.47296 -1.37720 227 211 223
0.71342 0.45519 -1.37616 254 254 253
0.72145 0.46669 -1.37502 249 244 230
0.72286 0.44890 -1.37398 254 254 253
0.72892 0.45851 -1.36853 254 250 230
0.73033 0.44071 -1.36749 254 254 254
0.73242 0.44659 -1.35356 254 254 248
0.73382 0.42884 -1.35252 254 254 254
0.68697 0.29083 -1.08958 254 254 252
0.68566 0.30736 -1.09054 252 251 250
0.67985 0.29826 -1.09520 254 252 252
0.67404 0.28915 -1.09985 253 253 252
0.69611 0.28514 -1.08802 233 224 222
0.69742 0.26859 -1.08705 158 144 142
0.66586 0.24615 -1.00780 163 146 144
0.67281 0.23891 -1.00232 70 77 112
0.66714 0.23003 -1.00686 49 38 83
0.69854 0.19559 -0.95765 36 76 132
0.69981 0.17957 -0.95671 57 89 152
0.70406 0.16239 -0.91278 62 97 148
0.69165 0.16078 -0.92263 60 94 159
0.69848 0.15365 -0.91724 64 101 163
0.70393 0.15000 -0.89439 61 87 136
0.70518 0.13422 -0.89347 80 109 165
0.71065 0.14285 -0.88888 52 71 120
0.71190 0.12707 -0.88795 75 103 158
0.73456 0.14841 -0.91500 45 57 98
0.74049 0.14055 -0.90783 30 39 78
0.74929 0.13478 -0.90591 22 29 62
0.75055 0.11880 -0.90497 61 91 137
0.74902 0.12248 -0.88755 25 27 57
0.75027 0.10658 -0.88662 60 89 133
0.74372 0.10675 -0.86037 23 27 53
0.74497 0.09098 -0.85944 61 82 133
0.74784 0.09779 -0.85023 26 23 48
0.74394 0.08333 -0.82596 26 26 59
0.73753 0.06733 -0.79754 36 34 60
0.73876 0.05184 -0.79663 66 99 126
0.87173 -0.02847 -0.75667 47 73 116
0.87297 -0.04423 -0.75575 48 77 127
0.98982 -0.11655 -0.71516 47 80 122
0.99487 -0.12459 -0.70708 46 72 100
1.00328 -0.13104 -0.70386 55 69 95
1.00598 -0.14014 -0.69244 66 78 111
1.00723 -0.15607 -0.69151 79 98 130
1.00754 -0.14971 -0.67948 79 96 122
1.04661 -0.18331 -0.65917 56 95 138
1.04536 -0.16738 -0.66010 53 84 131
1.03975 -0.17615 -0.66459 57 85 130
1.05222 -0.17453 -0.65469 53 94 141
1.05856 -0.18832 -0.66073 57 95 139
1.06783 -0.19450 -0.65855 60 87 129
1.07664 -0.20089 -0.65571 72 87 126
1.08450 -0.20769 -0.65157 145 132 160
1.10497 -0.21945 -0.64954 250 250 248
1.10624 -0.23553 -0.64860 243 245 244
1.13305 -0.23835 -0.64269 246 254 254
1.13177 -0.22221 -0.64364 254 254 253
1.12042 -0.23999 -0.65273 240 225 219
1.13873 -0.22946 -0.63815 254 254 254
1.14568 -0.23671 -0.63266 254 254 254
1.14287 -0.24452 -0.64094 239 250 254
1.15552 -0.24288 -0.63089 254 254 254
1.15358 -0.25041 -0.64028 237 249 254
1.16626 -0.24876 -0.63021 254 254 254
1.15696 -0.25899 -0.63014 238 249 254
1.16961 -0.25734 -0.62009 254 254 254
1.15590 -0.26912 -0.61440 243 251 254
1.16850 -0.26748 -0.60439 254 254 254
1.15462 -0.27924 -0.59850 252 254 254
1.16717 -0.27761 -0.58853 254 254 254
1.16153 -0.28644 -0.59305 254 254 254
1.41701 -0.61077 -0.30573 252 247 235
1.40473 -0.61236 -0.31548 254 254 254
1.41149 -0.61940 -0.31014 254 254 253
1.45204 -0.61346 -0.32801 232 218 175
1.47143 -0.61871 -0.33479 184 160 92
1.48012 -0.62562 -0.33109 143 123 71
1.21211 -0.76151 0.07034 141 142 109
1.23297 -0.76615 0.06156 94 77 52
1.24217 -0.77195 0.06324 43 32 22
1.24803 -0.77807 0.06787 32 36 23
1.24324 -0.78556 0.06403 37 36 27
1.37519 -0.86821 0.10564 27 33 29
1.36434 -0.86962 0.09702 17 17 20
1.37384 -0.87470 0.11624 60 72 50
1.38469 -0.88075 0.11703 87 85 53
1.38720 -0.88707 0.12449 75 64 39
1.39849 -0.89314 0.12498 51 46 33
1.39958 -0.90700 0.12579 17 14 18
1.40675 -0.89930 0.12789 36 28 21
1.40785 -0.91318 0.12870 17 14 13
1.41980 -0.90538 0.12709 26 16 13
1.42090 -0.91930 0.12790 16 16 8
1.59018 -0.97518 0.10244 27 23 18
1.58903 -0.96061 0.10158 18 17 11
1.58390 -0.96863 0.09748 22 20 13
1.60414 -0.98182 0.10177 33 29 28
1.66803 -0.98926 0.06488 62 67 52
1.66921 -1.00423 0.06576 98 97 90
1.69739 -0.99640 0.05342 89 91 85
1.94197 -1.18564 0.14949 184 175 170
1.93651 -1.19418 0.14512 193 180 164
1.92097 -1.19644 0.18117 228 233 237
0.51962 0.61712 -1.46965 252 251 244
0.50590 0.61534 -1.48055 254 254 254
0.51345 0.60746 -1.47459 254 254 253
0.52470 0.60623 -1.45733 244 240 232
0.52609 0.58873 -1.45630 252 250 244
0.52994 0.59559 -1.44551 239 230 225
0.55203 0.58820 -1.45127 216 209 208
0.56086 0.58178 -1.44844 209 202 214
0.56225 0.56420 -1.44741 250 252 254
0.56468 0.56955 -1.43318 222 236 250
0.56606 0.55202 -1.43215 251 252 254
0.59678 0.52399 -1.38989 234 226 237
0.58312 0.52222 -1.40074 253 253 253
0.60718 0.51925 -1.39073 227 220 243
0.60856 0.50176 -1.38970 251 251 253
0.61915 0.48455 -1.34829 224 217 241
0.60557 0.48278 -1.35909 252 252 253
0.63057 0.48082 -1.35141 206 194 216
0.62627 0.46092 -1.31862 162 129 170
0.62763 0.44366 -1.31761 250 247 238
0.67322 0.47755 -1.37889 231 207 215
0.67462 0.45990 -1.37786 254 253 253
0.66817 0.45707 -1.34466 251 243 231
0.66955 0.43957 -1.34363 254 254 253
0.67680 0.45028 -1.34113 252 249 235
0.67819 0.43277 -1.34010 253 254 254
0.68497 0.44301 -1.33652 253 253 247
0.68635 0.42549 -1.33550 254 254 254
0.67545 0.27683 -1.08262 250 253 243
0.66257 0.27515 -1.09286 252 253 253
0.64517 0.23765 -1.00152 209 197 200
0.64644 0.22162 -1.00058 160 149 148
0.96845 -0.12245 -0.71202 66 94 142
0.97848 -0.12807 -0.71127 56 85 129
0.98328 -0.13618 -0.70287 55 78 105
0.98454 -0.15208 -0.70194 69 90 119
0.99005 -0.14336 -0.69735 70 79 99
0.99131 -0.15926 -0.69642 74 93 125
0.99438 -0.15166 -0.68831 80 90 117
0.99563 -0.16753 -0.68738 67 90 126
1.00152 -0.16884 -0.66822 76 101 133
0.99596 -0.17755 -0.67268 67 87 123
1.01390 -0.16723 -0.65839 79 100 115
1.02571 -0.18855 -0.65730 59 85 119
1.02446 -0.17270 -0.65823 65 87 117
1.01888 -0.18143 -0.66269 62 87 121
1.01330 -0.19016 -0.66715 63 78 104
1.03520 -0.19454 -0.65560 53 80 117
1.04610 -0.19997 -0.65580 55 79 122
1.06274 -0.20308 -0.66378 106 114 146
1.05769 -0.21513 -0.64209 173 170 180
1.05895 -0.23102 -0.64116 249 251 239
1.07662 -0.21742 -0.65303 219 209 211
1.08748 -0.22303 -0.65294 244 244 239
1.09669 -0.22933 -0.65057 247 252 251
1.11269 -0.25274 -0.62794 225 197 201
1.10015 -0.25437 -0.63789 215 190 196
1.12779 -0.25690 -0.63321 203 185 205
1.13112 -0.26543 -0.62307 196 191 201
1.13143 -0.27502 -0.60907 201 193 202
1.13885 -0.28201 -0.60431 218 201 203
1.13179 -0.29407 -0.58107 239 224 221
1.41383 -0.62710 -0.30049 252 249 238
1.40159 -0.62869 -0.31021 254 254 254
1.40833 -0.63572 -0.30489 254 254 253
1.42916 -0.63287 -0.30354 233 220 181
1.45115 -0.63776 -0.31295 185 161 92
1.46060 -0.64450 -0.31012 142 124 62
1.44505 -0.66257 -0.27150 118 100 80
1.45728 -0.66098 -0.26178 74 56 55
1.42866 -0.67255 -0.24426 85 67 62
1.44077 -0.67098 -0.23465 97 95 74
1.41282 -0.68997 -0.20639 115 113 96
1.42476 -0.68842 -0.19691 120 111 93
1.41939 -0.69683 -0.20120 123 115 93
1.41403 -0.70523 -0.20550 123 117 92
1.21430 -0.76829 0.06033 144 145 115
1.23554 -0.77298 0.05119 102 84 67
1.24335 -0.77893 0.05411 48 34 26
1.24443 -0.79258 0.05491 37 36 30
1.38038 -0.88836 0.11268 40 44 33
1.38147 -0.90221 0.11349 15 14 19
1.38002 -0.89475 0.12244 32 25 26
1.38111 -0.90856 0.12325 16 14 16
1.56869 -0.97655 0.10087 31 28 22
1.56754 -0.96205 0.10002 19 17 11
1.55733 -0.97803 0.09185 35 31 27
1.56358 -0.98454 0.09678 39 35 32
1.56983 -0.99106 0.10172 48 40 41
1.57968 -0.98313 0.10230 37 32 32
1.58083 -0.99767 0.10315 63 62 57
1.60904 -0.99003 0.09028 44 41 50
1.61020 -1.00471 0.09114 89 95 90
1.66840 -0.99761 0.05655 84 86 73
1.66959 -1.01262 0.05743 100 101 95
1.70248 -1.01160 0.05149 98 91 89
1.69715 -1.01994 0.04722 102 97 96
1.72065 -1.01872 0.04827 93 86 82
0.51740 0.59520 -1.45930 253 252 248
0.50372 0.59342 -1.47017 254 254 254
0.51125 0.58557 -1.46423 254 254 253
0.51878 0.57771 -1.45828 254 254 253
0.52775 0.57387 -1.43539 252 250 247
0.52162 0.56427 -1.44030 254 254 253
0.52912 0.55645 -1.43437 254 254 253
0.53377 0.56429 -1.42572 250 247 245
0.53514 0.54689 -1.42470 254 254 254
0.54369 0.55930 -1.42587 249 248 247
0.54507 0.54187 -1.42485 254 254 254
0.59001 0.51369 -1.39329 252 251 253
0.57635 0.51191 -1.40414 254 254 254
0.58387 0.50407 -1.39820 254 254 254
0.59139 0.49624 -1.39227 254 254 254
0.59936 0.50782 -1.39170 251 251 253
0.60074 0.49035 -1.39068 254 254 254
0.62493 0.48739 -1.38081 252 252 251
0.61122 0.48561 -1.39170 254 254 254
0.61877 0.47775 -1.38574 254 254 254
0.62631 0.46988 -1.37979 254 254 253
0.62652 0.47338 -1.36112 251 250 245
0.62790 0.45595 -1.36010 254 254 253
0.63044 0.46188 -1.34696 248 246 233
0.63182 0.44449 -1.34594 254 254 253
0.67256 0.27025 -1.09319 229 240 233
0.67386 0.25376 -1.09223 230 211 178
0.63218 0.22259 -0.99110 213 189 172
0.63344 0.20665 -0.99017 162 148 146
0.95721 -0.13390 -0.70814 88 113 145
0.96687 -0.13967 -0.70693 67 97 135
0.96813 -0.15553 -0.70600 59 91 133
0.97339 -0.14694 -0.70106 58 88 124
0.97464 -0.16280 -0.70013 63 89 129
1.01493 -0.19949 -0.65447 59 74 95
1.01748 -0.20838 -0.64316 48 61 86
1.02370 -0.21570 -0.63700 44 58 86
1.04410 -0.21722 -0.65037 111 116 141
1.06223 -0.21979 -0.66043 220 225 223
1.07758 -0.23353 -0.65169 236 237 232
1.07465 -0.24452 -0.63304 224 190 214
1.07591 -0.26043 -0.63211 230 214 232
1.10592 -0.26198 -0.63094 233 204 207
1.10029 -0.27079 -0.63545 250 243 242
1.11808 -0.26724 -0.63242 232 215 214
1.11798 -0.27698 -0.61781 229 220 211
1.11513 -0.28762 -0.59973 233 223 213
1.12812 -0.30215 -0.58800 226 217 209
1.13442 -0.30948 -0.58188 220 207 199
1.14202 -0.31637 -0.57744 244 248 249
1.15447 -0.31475 -0.56756 254 254 254
1.14887 -0.32351 -0.57203 253 254 254
1.30123 -0.58087 -0.30466 253 250 234
1.29464 -0.57400 -0.30986 254 254 252
1.28925 -0.58243 -0.31417 253 253 253
1.30661 -0.57245 -0.30035 247 240 228
1.31320 -0.57932 -0.29515 213 201 206
1.30097 -0.58895 -0.29240 225 214 192
1.31291 -0.58740 -0.28292 226 234 238
1.30718 -0.59587 -0.28684 210 198 197
1.31911 -0.59432 -0.27736 246 252 252
1.32390 -0.60100 -0.29200 227 233 237
1.33589 -0.59944 -0.28247 253 254 254
1.33958 -0.60638 -0.29599 246 252 253
1.35162 -0.60481 -0.28642 254 254 254
1.34621 -0.61329 -0.29075 253 254 254
1.40275 -0.64451 -0.28750 252 248 238
1.39057 -0.64609 -0.29717 254 254 254
1.39728 -0.65308 -0.29188 254 254 253
1.40627 -0.65194 -0.27910 233 222 180
1.45485 -0.66125 -0.30245 145 121 74
1.45138 -0.66966 -0.28724 124 110 95
1.41593 -0.68198 -0.24167 96 80 65
1.41715 -0.69739 -0.24077 90 80 64
1.42257 -0.68890 -0.23643 90 77 65
1.40969 -0.69811 -0.21280 109 105 92
1.24201 -0.78616 0.04718 51 36 22
1.24309 -0.79984 0.04798 38 38 30
1.37389 -0.89603 0.11008 16 18 20
1.37498 -0.90987 0.11089 19 16 13
1.71701 -1.02715 0.04275 99 94 89
1.70510 -1.02869 0.03329 104 103 100
1.72974 -1.03419 0.04350 94 87 83
1.75151 -1.04158 0.03785 89 80 79
1.76353 -1.04002 0.04739 72 60 53
1.75813 -1.04848 0.04307 85 73 76
0.95890 -0.14953 -0.70785 68 99 139
0.97462 -0.17302 -0.68478 61 83 126
0.96906 -0.18172 -0.68923 60 70 108
0.97893 -0.18122 -0.67581 65 82 120
0.99199 -0.19563 -0.66431 97 115 136
1.00111 -0.20172 -0.66224 82 97 115
1.00304 -0.21087 -0.65000 62 72 88
1.00428 -0.22662 -0.64908 54 65 73
1.00256 -0.22097 -0.63447 52 59 72
1.00380 -0.23665 -0.63356 46 54 69
1.00824 -0.22845 -0.62764 40 50 67
1.03013 -0.22936 -0.64325 74 87 112
1.04004 -0.23522 -0.64213 178 189 200
1.05054 -0.24088 -0.64178 222 201 219
1.04742 -0.25188 -0.62285 200 166 184
1.05600 -0.25829 -0.61988 212 158 204
1.06531 -0.30259 -0.56061 254 252 245
1.07799 -0.30748 -0.56309 254 252 245
1.09229 -0.31188 -0.56757 252 250 244
1.10941 -0.31540 -0.57557 239 242 229
1.12553 -0.31935 -0.58214 191 183 196
1.13319 -0.32620 -0.57779 217 219 230
1.12714 -0.33754 -0.55608 234 248 253
1.13948 -0.33594 -0.54628 254 254 254
1.12887 -0.34625 -0.54434 235 250 254
1.14117 -0.34465 -0.53457 254 254 254
1.11676 -0.36839 -0.50172 243 251 254
1.12890 -0.36681 -0.49208 254 254 254
1.12344 -0.37535 -0.49645 251 254 254
1.29229 -0.58993 -0.30527 254 253 247
1.28034 -0.59148 -0.31477 253 253 253
1.28692 -0.59834 -0.30957 253 253 253
1.30011 -0.59657 -0.30136 249 243 224
1.29504 -0.60541 -0.28416 218 205 199
1.30411 -0.61182 -0.28157 210 197 199
1.31833 -0.61741 -0.28420 228 229 222
1.34177 -0.62955 -0.28416 251 253 253
1.35378 -0.62799 -0.27462 254 254 254
1.34838 -0.63644 -0.27894 253 254 254
1.39376 -0.66145 -0.27659 251 249 237
1.38164 -0.66302 -0.28621 254 254 254
1.38831 -0.66997 -0.28095 254 254 253
1.39331 -0.66934 -0.26439 235 223 182
1.40728 -0.67533 -0.26623 193 165 99
1.42203 -0.68128 -0.26874 141 112 55
1.40074 -0.69165 -0.23667 104 89 59
1.40195 -0.70699 -0.23577 89 81 57
1.40403 -0.70656 -0.21683 101 98 87
1.40579 -0.71395 -0.20710 122 118 98
1.41772 -0.71240 -0.19762 124 116 93
1.41235 -0.72080 -0.20191 126 119 102
1.40699 -0.72919 -0.20621 125 120 100
1.23254 -0.78745 0.03757 115 99 70
1.22183 -0.78884 0.02906 144 140 117
1.73159 -1.04947 0.04393 101 93 93
1.73353 -1.05613 0.05243 99 90 93
0.66006 0.36340 -1.26982 254 254 254
0.65870 0.38057 -1.27083 254 254 254
0.65266 0.37111 -1.27566 254 254 254
0.64662 0.36165 -1.28050 250 252 254
0.66610 0.37286 -1.26499 254 254 254
0.67350 0.36514 -1.25915 254 254 254
0.66712 0.35538 -1.26325 245 252 254
0.68056 0.35712 -1.25258 254 254 254
0.67452 0.34767 -1.25741 241 250 253
0.67395 0.15870 -0.97169 60 97 164
0.67268 0.17470 -0.97263 56 89 154
0.66705 0.16588 -0.97713 61 94 154
0.67957 0.16751 -0.96719 60 92 160
0.68647 0.16032 -0.96174 65 95 163
0.68084 0.15151 -0.96625 65 105 168
0.89738 -0.11260 -0.73736 61 94 143
0.89613 -0.09684 -0.73828 44 80 136
0.89059 -0.10552 -0.74272 43 80 137
0.88504 -0.11420 -0.74716 50 83 137
0.90972 -0.11100 -0.72756 68 100 146
0.90417 -0.11968 -0.73200 87 117 152
0.93933 -0.15452 -0.70699 68 90 134
0.93378 -0.16320 -0.71143 85 99 121
0.95152 -0.16933 -0.69418 65 87 122
0.95277 -0.18509 -0.69326 72 75 95
0.97408 -0.19966 -0.66609 104 117 139
0.98288 -0.20585 -0.66365 111 130 162
0.99267 -0.21164 -0.66258 86 96 128
0.99103 -0.22225 -0.64528 59 73 87
0.99227 -0.23794 -0.64437 50 60 67
1.00495 -0.24594 -0.62043 44 58 84
0.99272 -0.24753 -0.63015 53 54 61
1.02321 -0.24840 -0.63104 99 109 145
1.02883 -0.25592 -0.62409 184 163 201
1.04288 -0.26018 -0.62868 217 196 197
1.04768 -0.26804 -0.62058 237 216 233
1.04892 -0.28381 -0.61966 254 254 254
1.03883 -0.28098 -0.59411 251 252 249
1.04006 -0.29661 -0.59319 254 254 254
1.05993 -0.31113 -0.56513 253 254 254
1.07249 -0.31610 -0.56749 244 253 253
1.09395 -0.31806 -0.58135 225 243 241
1.09306 -0.32774 -0.56604 197 172 195
1.05606 -0.34937 -0.50437 92 96 156
1.10443 -0.34255 -0.55261 118 129 176
1.11340 -0.34887 -0.55009 146 149 188
1.12016 -0.35592 -0.54475 149 145 191
1.13020 -0.36194 -0.54354 142 142 196
1.08157 -0.38610 -0.46893 189 189 227
1.10282 -0.38850 -0.48198 236 241 250
1.11486 -0.38693 -0.47241 253 253 253
1.10945 -0.39541 -0.47674 252 253 253
1.29456 -0.60502 -0.30548 254 252 245
1.28260 -0.60657 -0.31498 253 253 253
1.28919 -0.61344 -0.30979 254 254 251
1.29929 -0.61219 -0.29836 241 231 223
1.30049 -0.62746 -0.29747 248 239 227
1.29836 -0.62026 -0.28544 241 230 214
1.30536 -0.62703 -0.28073 231 229 214
1.30991 -0.63417 -0.27351 230 225 202
1.31111 -0.64937 -0.27262 235 224 193
1.32707 -0.64723 -0.26725 249 251 252
1.33899 -0.64568 -0.25779 254 254 254
1.33363 -0.65407 -0.26208 253 254 254
1.37852 -0.67904 -0.25958 252 249 238
1.36649 -0.68060 -0.26914 254 254 254
1.37311 -0.68750 -0.26391 254 254 252
1.37679 -0.68698 -0.24624 237 224 183
1.39448 -0.69251 -0.25177 189 164 90
1.38702 -0.70107 -0.23298 122 96 33
1.39584 -0.71528 -0.21845 97 93 88
1.39549 -0.72287 -0.20672 116 109 98
1.23666 -0.79428 0.02563 122 105 80
1.22590 -0.79567 0.01709 142 136 121
1.24296 -0.80042 0.02997 54 40 20
1.24404 -0.81417 0.03078 39 37 34
0.19223 0.37544 -0.94100 231 225 241
0.19110 0.38976 -0.94184 228 223 241
0.18606 0.38187 -0.94587 185 145 173
0.18102 0.37398 -0.94990 166 114 120
0.20344 0.37689 -0.93209 254 254 254
0.20102 0.37264 -0.94372 251 251 254
0.21226 0.37410 -0.93479 254 254 254
0.20721 0.36618 -0.93883 254 254 254
0.20216 0.35827 -0.94288 251 251 254
0.63387 0.32096 -1.20860 226 197 231
0.63571 0.30848 -1.19112 217 191 223
0.64884 0.31019 -1.18070 235 222 245
0.64294 0.30095 -1.18542 222 194 208
0.63704 0.29171 -1.19014 250 236 163
0.61073 0.20532 -1.01468 200 200 169
0.61761 0.19814 -1.00924 210 194 170
0.61199 0.18934 -1.01374 189 177 139
0.67888 0.15807 -0.99701 46 73 119
0.68023 0.13409 -0.96168 19 40 94
0.68150 0.11812 -0.96074 19 38 78
0.68130 0.12256 -0.94500 20 32 91
0.68255 0.10664 -0.94407 23 39 79
0.67858 0.10832 -0.92124 23 33 85
0.69096 0.10993 -0.91141 36 54 114
0.67983 0.09252 -0.92032 26 42 79
0.93281 -0.17388 -0.69445 90 104 123
0.94022 -0.18063 -0.69008 79 89 111
0.95911 -0.20242 -0.67199 69 81 102
0.96036 -0.21811 -0.67107 50 62 82
0.96855 -0.20831 -0.67052 76 91 116
0.96979 -0.22403 -0.66960 46 52 70
0.99488 -0.25637 -0.61844 41 49 64
0.98267 -0.25796 -0.62813 61 55 69
0.98939 -0.26496 -0.62283 48 51 60
1.00284 -0.26289 -0.61486 65 79 116
1.02665 -0.26329 -0.63314 174 177 207
1.01461 -0.27754 -0.60195 242 247 239
1.01584 -0.29313 -0.60104 254 254 254
1.01441 -0.28715 -0.58721 254 254 251
1.01564 -0.30267 -0.58630 254 254 254
1.04770 -0.31273 -0.57478 244 249 248
1.04099 -0.30573 -0.58008 253 254 253
1.03586 -0.32622 -0.54491 217 212 233
1.02215 -0.34016 -0.51286 177 166 217
1.03746 -0.34405 -0.51911 117 124 170
1.04997 -0.34895 -0.52158 75 52 108
1.05118 -0.36433 -0.52068 22 27 55
1.05595 -0.35607 -0.51552 27 28 86
1.06486 -0.36223 -0.51324 38 45 94
1.06846 -0.37011 -0.50413 46 48 97
1.07012 -0.37857 -0.49260 51 54 108
1.07347 -0.38646 -0.48328 39 42 111
1.09637 -0.38836 -0.49856 104 101 160
1.07836 -0.40268 -0.46253 208 224 236
1.09075 -0.40780 -0.46458 249 252 253
1.10271 -0.40625 -0.45509 253 253 253
1.09733 -0.41466 -0.45939 253 253 253
1.09196 -0.42307 -0.46369 253 253 253
1.30786 -0.65760 -0.25755 238 234 226
1.30254 -0.66593 -0.26181 239 228 199
1.31561 -0.66422 -0.25364 248 251 253
1.32745 -0.66268 -0.24423 254 254 254
1.32213 -0.67102 -0.24849 253 254 254
1.37023 -0.70319 -0.23780 237 227 183
1.38398 -0.70923 -0.23955 182 156 88
1.38272 -0.71696 -0.22680 103 79 35
1.38550 -0.72421 -0.21800 94 89 68
1.38767 -0.73150 -0.20866 106 98 84
1.39305 -0.73844 -0.20239 120 116 96
1.40492 -0.73689 -0.19295 126 119 99
1.39958 -0.74525 -0.19722 127 120 101
1.23660 -0.80149 0.01743 128 109 87
1.22581 -0.80289 0.00887 135 132 114
1.23175 -0.80907 0.01355 135 116 90
1.24233 -0.80769 0.02230 58 43 22
1.24342 -0.82146 0.02311 43 38 35
0.18324 0.36201 -0.93340 185 149 172
0.17207 0.36056 -0.94227 200 176 150
0.18437 0.34774 -0.93256 185 152 173
0.19599 0.36476 -0.94784 230 225 240
0.19713 0.35040 -0.94700 230 225 242
0.61160 0.35405 -1.26492 253 254 253
0.61025 0.37105 -1.26592 254 254 254
0.60427 0.36169 -1.27070 254 254 254
0.61758 0.36341 -1.26014 254 254 254
0.62490 0.35578 -1.25436 254 254 254
0.62192 0.34925 -1.26587 252 247 241
0.61607 0.32927 -1.23066 241 191 198
0.62587 0.32404 -1.23055 235 158 155
0.62961 0.31321 -1.21701 246 184 160
0.63095 0.29635 -1.21602 244 246 134
0.62770 0.29734 -1.19124 251 219 158
0.61757 0.20705 -1.04526 191 207 121
0.61190 0.19817 -1.04979 154 180 105
0.61885 0.19093 -1.04431 165 165 131
0.65492 0.13508 -0.96532 24 30 69
0.64246 0.13346 -0.97521 21 37 67
0.64932 0.12631 -0.96980 24 36 64
0.65618 0.11917 -0.96439 22 35 68
0.65959 0.12627 -0.95561 21 31 66
0.66085 0.11038 -0.95468 23 37 73
0.88243 -0.14232 -0.72428 63 88 123
0.87017 -0.14391 -0.73402 67 84 115
0.88366 -0.15798 -0.72336 56 67 92
0.92089 -0.17530 -0.70478 89 103 118
0.90860 -0.17690 -0.71454 68 80 105
0.91536 -0.18395 -0.70920 70 76 104
0.92889 -0.18179 -0.70128 96 108 120
0.92998 -0.19142 -0.68746 83 88 103
0.92706 -0.20277 -0.66779 74 77 90
0.93759 -0.20808 -0.66812 72 78 91
0.93842 -0.21765 -0.65417 60 70 90
0.93965 -0.23321 -0.65326 46 52 63
0.98390 -0.27671 -0.60048 55 69 93
0.97178 -0.27829 -0.61010 49 51 62
0.98829 -0.28454 -0.59205 142 154 178
1.00196 -0.28884 -0.59646 231 244 246
1.03815 -0.31337 -0.58803 245 242 244
1.03142 -0.30636 -0.59334 254 254 253
0.98432 -0.34165 -0.50166 190 171 208
0.98344 -0.35098 -0.48670 101 88 151
1.02085 -0.34718 -0.52253 62 50 123
1.02206 -0.36246 -0.52164 27 22 43
1.03219 -0.35244 -0.52359 34 32 82
1.04988 -0.37378 -0.50520 29 31 55
1.05109 -0.38908 -0.50431 40 41 50
1.05420 -0.38137 -0.49708 29 32 57
1.05541 -0.39666 -0.49618 36 40 55
1.05676 -0.38949 -0.48674 33 40 66
1.06023 -0.39729 -0.47761 18 28 68
1.07218 -0.40251 -0.47922 64 64 92
1.06916 -0.41221 -0.46199 182 201 203
1.07411 -0.41950 -0.45483 242 248 248
1.28581 -0.65288 -0.26831 250 251 237
1.27399 -0.65442 -0.27770 246 239 233
1.28049 -0.66120 -0.27257 249 246 234
1.28206 -0.66113 -0.25271 247 242 212
1.29221 -0.67501 -0.23967 241 238 231
1.28693 -0.68327 -0.24389 243 236 202
1.35969 -0.71218 -0.23704 252 249 237
1.34778 -0.71373 -0.24650 254 254 254
1.36089 -0.72739 -0.23615 251 246 230
1.35618 -0.72012 -0.22211 233 218 179
1.36401 -0.72678 -0.21821 172 145 94
1.37102 -0.73353 -0.21353 109 92 60
1.37222 -0.74869 -0.21264 102 77 56
1.37685 -0.74041 -0.20771 100 92 78
1.38324 -0.74723 -0.20242 110 107 93
1.38805 -0.75419 -0.19565 120 119 98
1.39990 -0.75265 -0.18625 126 118 100
1.39457 -0.76098 -0.19051 124 117 100
1.48301 -0.97076 0.05885 32 28 29
1.48187 -0.95636 0.05801 29 32 22
1.47174 -0.97223 0.04990 46 49 48
1.48808 -0.96283 0.06291 29 30 22
1.49429 -0.96930 0.06781 32 30 26
0.18359 0.36167 -0.95333 167 122 114
0.17236 0.36021 -0.96225 240 235 215
0.18472 0.34733 -0.95249 171 130 123
0.59684 0.35093 -1.27216 254 252 244
0.59550 0.36790 -1.27315 254 254 254
0.58953 0.35855 -1.27793 253 254 253
0.60172 0.34097 -1.26082 249 237 209
0.59139 0.31673 -1.21522 251 223 162
0.59271 0.30001 -1.21424 244 244 128
0.60080 0.31128 -1.21448 251 210 129
0.60213 0.29452 -1.21350 237 244 124
0.90747 -0.19766 -0.68173 72 80 100
0.89528 -0.19925 -0.69141 91 85 89
0.90779 -0.20752 -0.66685 66 73 89
0.90901 -0.22303 -0.66595 52 56 72
0.91754 -0.22303 -0.65095 53 56 72
0.91876 -0.23850 -0.65005 42 49 46
0.91598 -0.23352 -0.63357 45 51 63
0.96828 -0.28916 -0.59057 38 51 71
0.95623 -0.29072 -0.60014 47 52 59
0.96887 -0.29836 -0.57691 83 101 137
0.97219 -0.30648 -0.56714 203 216 231
0.98692 -0.31036 -0.57313 250 253 254
0.99354 -0.31727 -0.56789 254 254 254
0.98813 -0.32574 -0.57223 254 254 254
1.02009 -0.32640 -0.57543 228 223 224
0.97168 -0.35251 -0.49604 103 92 147
1.00116 -0.35138 -0.52170 23 16 65
1.00236 -0.36659 -0.52081 33 25 41
1.00898 -0.35779 -0.51820 22 15 58
1.03646 -0.36677 -0.52670 35 25 33
1.03874 -0.37506 -0.51583 34 36 46
1.04182 -0.38305 -0.50604 41 40 47
1.04897 -0.40746 -0.47437 17 26 56
1.06030 -0.41285 -0.47527 58 58 62
1.05572 -0.42295 -0.45606 143 154 166
1.05996 -0.43040 -0.44806 223 234 236
1.06794 -0.43676 -0.44476 250 252 252
1.07977 -0.43523 -0.43536 252 252 252
1.07445 -0.44355 -0.43961 252 252 252
1.06913 -0.45188 -0.44387 253 253 252
1.26826 -0.67819 -0.23655 250 245 216
1.27553 -0.69978 -0.20929 252 253 254
1.28714 -0.69827 -0.20008 254 254 254
1.28192 -0.70644 -0.20425 253 253 254
1.27670 -0.71460 -0.20843 252 253 254
1.33771 -0.73728 -0.20215 217 197 161
1.36152 -0.74229 -0.21378 133 102 72
1.37295 -0.75603 -0.20196 95 87 85
1.38019 -0.76275 -0.19751 103 105 95
1.38287 -0.76986 -0.18875 117 116 94
1.39468 -0.76833 -0.17937 124 115 94
1.38937 -0.77664 -0.18362 123 115 92
1.38406 -0.78495 -0.18787 115 112 85
0.19710 0.33446 -0.94277 228 222 238
0.20215 0.34236 -0.93873 251 251 254
0.19205 0.32656 -0.94681 180 140 159
0.20833 0.33592 -0.93385 254 254 254
0.21088 0.33818 -0.95983 247 250 254
0.22220 0.33965 -0.95084 254 254 254
0.21711 0.33169 -0.95491 253 254 254
0.58609 0.33697 -1.26590 253 252 213
0.57284 0.33525 -1.27642 247 252 201
0.58013 0.32765 -1.27066 240 243 141
0.58392 0.32038 -1.23850 248 245 150
0.58525 0.30359 -1.23752 206 230 117
0.59790 0.16938 -1.01673 135 149 131
0.61037 0.17100 -1.00682 155 144 123
0.60476 0.16222 -1.01131 154 150 132
0.66379 0.08359 -0.93829 26 40 78
0.66254 0.09942 -0.93922 22 38 78
0.65697 0.09070 -0.94368 22 38 65
0.66936 0.09231 -0.93384 25 41 81
0.67618 0.08520 -0.92845 24 42 77
0.67061 0.07648 -0.93291 29 41 72
0.68543 0.05121 -0.90603 33 43 87
0.68418 0.06697 -0.90696 23 42 80
0.67863 0.05829 -0.91140 26 43 81
0.69097 0.05989 -0.90159 28 42 83
0.69777 0.05281 -0.89623 30 43 88
0.69780 0.03622 -0.89304 39 50 96
0.71013 0.03782 -0.88324 33 47 91
0.70247 0.02771 -0.88373 46 57 91
0.71478 0.02931 -0.87395 30 46 91
0.70925 0.02065 -0.87838 39 50 88
0.88667 -0.21314 -0.66288 81 78 74
0.87460 -0.21471 -0.67247 100 99 76
0.95696 -0.29989 -0.58658 36 49 64
0.94495 -0.30145 -0.59612 51 53 58
0.95516 -0.30994 -0.56957 53 71 106
0.96728 -0.31474 -0.57211 152 166 188
0.96606 -0.32447 -0.55607 235 248 250
0.98173 -0.33727 -0.54917 254 252 247
0.98398 -0.35473 -0.52405 60 59 87
0.98518 -0.36990 -0.52316 24 16 18
0.99296 -0.36072 -0.52216 22 15 29
1.01288 -0.37213 -0.52090 40 36 29
1.02066 -0.37859 -0.51730 75 61 45
1.01429 -0.38956 -0.49512 92 87 70
1.03166 -0.39297 -0.50411 63 65 30
1.03489 -0.40085 -0.49460 45 42 46
1.03610 -0.41606 -0.49371 36 34 41
1.03734 -0.40893 -0.48413 34 35 49
1.04281 -0.41607 -0.47759 17 22 50
1.04735 -0.42346 -0.46989 61 62 52
1.04451 -0.43298 -0.45286 101 104 130
1.05148 -0.43961 -0.44834 201 208 214
1.05866 -0.44620 -0.44405 247 249 249
1.05985 -0.46128 -0.44317 253 253 252
1.25472 -0.68749 -0.23225 253 252 238
1.24309 -0.68900 -0.24149 253 252 245
1.24949 -0.69568 -0.23644 251 247 240
1.25448 -0.69502 -0.22044 245 243 222
1.25565 -0.70982 -0.21957 239 229 226
1.25372 -0.70995 -0.19675 247 247 244
1.32281 -0.73913 -0.20838 254 252 246
1.31109 -0.74065 -0.21769 253 253 254
1.31754 -0.74738 -0.21260 254 253 251
1.33211 -0.74557 -0.20606 237 224 202
1.34768 -0.75144 -0.20978 184 149 114
1.36222 -0.75746 -0.21241 146 107 51
1.36381 -0.76469 -0.20255 97 72 41
1.37016 -0.77148 -0.19728 73 67 60
1.37135 -0.78656 -0.19640 80 65 49
1.37213 -0.77862 -0.18786 100 99 84
1.37332 -0.79367 -0.18698 92 89 69
1.42914 -0.97339 0.06619 61 65 65
1.42801 -0.95919 0.06536 41 40 41
1.42302 -0.96701 0.06136 54 55 62
1.41802 -0.97483 0.05737 68 72 78
1.43413 -0.96557 0.07019 45 44 39
1.49926 -0.98703 0.02972 77 84 78
1.52929 -1.00049 0.02586 78 66 67
1.54078 -0.99900 0.03499 66 52 51
1.53562 -1.00708 0.03085 83 71 68
0.19242 0.34196 -0.97106 174 132 120
0.18620 0.34845 -0.97597 209 190 164
0.20401 0.32783 -0.95871 215 206 228
0.21690 0.33016 -0.97304 244 249 254
0.22828 0.33164 -0.96400 254 254 254
0.22316 0.32364 -0.96810 253 254 254
0.21805 0.31563 -0.97219 247 249 254
0.57872 0.16215 -1.01237 125 135 109
0.56631 0.16054 -1.02223 165 186 208
0.59754 0.15212 -1.01239 157 150 133
0.59879 0.13620 -1.01146 166 163 146
0.59448 0.13696 -0.98630 134 119 94
0.60685 0.13856 -0.97648 19 26 52
0.60129 0.12986 -0.98093 39 25 39
0.64490 0.08933 -0.95416 24 39 70
0.64365 0.10516 -0.95509 22 38 68
0.63808 0.09644 -0.95955 27 38 67
0.65048 0.09805 -0.94971 21 37 67
0.65185 0.08231 -0.94902 32 45 80
0.65618 0.07338 -0.93875 46 63 93
0.66289 0.06621 -0.93318 49 54 81
0.67527 0.06782 -0.92336 27 44 76
0.67436 0.05050 -0.91830 41 48 85
0.68348 0.03325 -0.89907 61 68 97
0.69319 0.01654 -0.88117 79 91 108
0.70219 0.01098 -0.87999 51 61 92
0.71449 0.01257 -0.87022 31 50 87
0.70896 0.00392 -0.87464 34 52 88
0.70343 -0.00474 -0.87907 38 54 89
0.87364 -0.22504 -0.65564 85 81 57
0.86162 -0.22660 -0.66518 63 73 74
0.87419 -0.23461 -0.64123 53 49 59
0.93904 -0.31306 -0.57316 47 52 65
0.94024 -0.32829 -0.57227 50 59 82
0.94516 -0.32007 -0.56737 45 53 78
0.94647 -0.32883 -0.55484 93 109 139
0.95627 -0.33447 -0.55420 207 221 235
0.96014 -0.34225 -0.54533 251 253 254
0.96668 -0.34907 -0.54016 254 251 243
0.95783 -0.36121 -0.51396 220 207 173
0.97579 -0.36406 -0.52444 64 49 35
0.97699 -0.37921 -0.52355 27 16 12
0.99003 -0.37728 -0.51572 32 29 41
0.99863 -0.38341 -0.51333 65 68 65
1.01011 -0.38865 -0.51473 160 154 130
1.00806 -0.39819 -0.49820 189 187 147
1.01950 -0.40347 -0.49949 107 103 54
1.01811 -0.41271 -0.48399 47 41 32
1.01930 -0.42782 -0.48310 31 35 40
1.02818 -0.42716 -0.46989 23 23 33
1.03110 -0.43498 -0.46018 66 66 47
1.03763 -0.44173 -0.45511 80 78 106
1.03977 -0.44971 -0.44448 188 187 196
1.05444 -0.45421 -0.44967 245 245 246
1.05563 -0.46930 -0.44879 253 252 252
1.23954 -0.70438 -0.21465 248 244 237
1.22801 -0.70588 -0.22381 251 249 242
1.32261 -0.75424 -0.20615 250 244 230
1.31090 -0.75576 -0.21545 253 253 253
1.32426 -0.76140 -0.19639 232 210 169
1.33982 -0.76730 -0.20014 207 175 104
1.34100 -0.78229 -0.19927 222 222 160
1.36275 -0.77995 -0.19951 90 68 21
1.44015 -0.98142 0.04924 76 82 90
1.42895 -0.98287 0.04035 89 95 98
1.43511 -0.98930 0.04521 102 109 115
1.45753 -0.98802 0.04507 88 94 99
1.53882 -1.00894 0.01009 102 95 92
0.16795 0.32230 -0.94055 241 240 224
0.16182 0.32869 -0.94539 249 252 249
0.15680 0.32085 -0.94940 227 231 244
0.16294 0.31445 -0.94456 243 249 247
0.16908 0.30805 -0.93971 240 239 221
0.18350 0.32876 -0.96370 208 190 160
0.18464 0.31437 -0.96285 204 190 157
0.19158 0.32483 -0.96434 169 124 109
0.20159 0.32344 -0.97057 174 134 150
0.20844 0.31774 -0.96742 216 207 226
0.49911 0.15384 -0.95534 225 250 237
0.49790 0.16921 -0.95624 196 221 145
0.49249 0.16075 -0.96057 189 228 216
0.48708 0.15228 -0.96490 191 226 245
0.50033 0.13848 -0.95444 214 244 250
0.51247 0.15282 -0.96495 220 244 243
0.51369 0.13737 -0.96405 215 248 252
0.50485 0.13356 -0.92845 231 250 247
0.57479 0.14203 -1.00041 125 137 125
0.57604 0.12623 -0.99949 127 106 110
0.58034 0.13391 -0.99240 141 130 119
0.63424 0.08902 -0.96748 37 47 81
0.63298 0.10487 -0.96841 26 36 63
0.62741 0.09614 -0.97288 26 39 67
0.63237 0.07545 -0.94471 55 77 107
0.63955 0.06865 -0.94012 79 94 110
0.64079 0.05290 -0.93920 84 97 115
0.64634 0.06158 -0.93476 98 97 96
0.65257 0.05410 -0.92830 81 84 88
0.66183 0.04877 -0.92776 57 60 89
0.66308 0.03299 -0.92684 49 58 86
0.66605 0.03988 -0.91742 53 57 90
0.67183 0.03211 -0.91013 64 79 93
0.67796 0.02460 -0.90353 73 84 102
0.67922 0.01381 -0.88773 90 101 108
0.69483 0.00111 -0.88099 53 64 94
0.77871 -0.12482 -0.75461 42 49 81
0.77749 -0.10937 -0.75552 72 89 111
0.77205 -0.11788 -0.75987 70 67 75
0.77327 -0.13333 -0.75896 35 41 64
0.86148 -0.24623 -0.63437 54 54 55
0.86268 -0.26146 -0.63348 52 49 62
0.86843 -0.25290 -0.62979 54 60 57
0.88034 -0.26710 -0.61761 62 64 66
0.89487 -0.28019 -0.60933 42 56 72
0.90022 -0.27180 -0.60504 57 70 73
0.90679 -0.27864 -0.59986 79 90 89
0.89607 -0.29542 -0.60844 58 63 78
0.90282 -0.28648 -0.60619 64 77 93
0.91475 -0.28493 -0.59671 65 67 69
0.90402 -0.30172 -0.60530 70 72 75
0.92609 -0.31501 -0.58114 62 66 78
0.92488 -0.29979 -0.58203 45 46 46
0.91953 -0.30817 -0.58632 47 48 49
0.91417 -0.31655 -0.59060 49 51 61
0.92971 -0.32294 -0.57179 65 73 92
0.93759 -0.33847 -0.55413 55 67 110
0.95289 -0.34214 -0.56125 155 165 201
0.95241 -0.35146 -0.54628 237 248 250
0.95931 -0.35814 -0.54164 254 252 242
0.95425 -0.36891 -0.52056 221 205 163
0.96945 -0.37274 -0.52732 90 56 25
0.98454 -0.38568 -0.51978 29 34 45
0.98562 -0.39423 -0.50732 76 88 117
0.97936 -0.40505 -0.48516 196 214 212
0.97722 -0.41446 -0.46866 231 239 208
0.99190 -0.41864 -0.47445 135 123 100
1.00859 -0.42230 -0.48275 45 35 18
1.00979 -0.43738 -0.48187 24 35 37
1.02330 -0.43535 -0.47470 26 27 34
1.03056 -0.44191 -0.47054 71 69 52
1.03665 -0.44881 -0.46486 70 69 94
1.03133 -0.45886 -0.44470 179 177 188
1.04963 -0.46238 -0.45456 242 243 245
1.05082 -0.47748 -0.45368 253 252 252
1.21522 -0.72209 -0.18773 241 231 224
1.21637 -0.73664 -0.18688 222 214 205
1.21691 -0.73635 -0.16688 236 236 238
1.23027 -0.74209 -0.16912 250 252 254
1.24163 -0.74061 -0.16010 253 253 253
1.23653 -0.74861 -0.16419 253 253 253
1.23142 -0.75660 -0.16827 252 253 254
1.30341 -0.76376 -0.19666 254 252 246
1.29177 -0.76527 -0.20591 253 253 253
1.29818 -0.77194 -0.20085 253 253 252
1.31785 -0.76972 -0.19946 247 238 215
1.32120 -0.77669 -0.19140 225 210 170
1.35701 -0.79553 -0.19202 118 83 24
1.36349 -0.80228 -0.18691 86 72 43
1.46850 -0.99626 0.02806 115 123 131
1.47429 -1.00275 0.03334 127 133 140
1.52505 -1.02325 0.02277 119 105 84
1.52621 -1.03794 0.02363 126 111 100
0.19923 0.31910 -0.98267 164 126 110
0.20758 0.31535 -0.98388 178 146 165
0.21523 0.31061 -0.98292 225 220 241
0.22663 0.31209 -0.97387 254 254 254
0.22151 0.30407 -0.97797 250 252 254
0.21638 0.29604 -0.98207 226 223 237
0.43426 0.29065 -1.13754 246 254 254
0.43300 0.30655 -1.13847 254 254 254
0.42740 0.29779 -1.14295 253 254 254
0.43985 0.29941 -1.13306 254 254 254
0.44670 0.29227 -1.12766 254 254 254
0.43551 0.27475 -1.13661 161 194 244
0.45227 0.29505 -1.15975 236 252 254
0.46483 0.29668 -1.14977 254 254 254
0.48136 0.13451 -0.93210 217 253 252
0.46944 0.13297 -0.94156 182 221 246
0.48256 0.11930 -0.93121 198 236 246
0.58395 0.15829 -1.05660 163 190 140
0.57138 0.15666 -1.06658 165 203 216
0.58522 0.14223 -1.05566 94 107 121
0.58727 0.12269 -1.00346 168 156 146
0.57487 0.12108 -1.01331 164 144 155
0.58170 0.11396 -1.00792 229 223 194
0.60585 0.11230 -1.00291 25 26 28
0.60711 0.09640 -1.00198 49 45 63
0.60958 0.10274 -0.99105 28 32 59
0.62201 0.10436 -0.98119 26 35 60
0.61084 0.08687 -0.99012 45 47 73
0.62046 0.08637 -0.97456 36 39 68
0.61489 0.07765 -0.97902 44 47 72
0.62552 0.07794 -0.96559 45 47 80
0.64427 0.04346 -0.92731 80 96 115
0.65467 0.03895 -0.92906 60 64 91
0.67183 0.01553 -0.90682 54 66 89
0.67667 0.00716 -0.89778 46 54 85
0.68091 -0.00156 -0.88766 39 46 75
0.68524 -0.01020 -0.87776 37 47 71
0.68974 -0.01867 -0.86826 35 48 83
0.70198 -0.01709 -0.85855 38 53 90
0.69648 -0.02569 -0.86295 35 46 87
0.70481 -0.03170 -0.86059 45 39 80
0.71032 -0.02308 -0.85618 42 53 91
0.71706 -0.03011 -0.85086 40 56 92
0.70605 -0.04734 -0.85967 130 124 115
0.75894 -0.13056 -0.75115 40 41 65
0.76016 -0.14593 -0.75026 45 46 56
0.76815 -0.14651 -0.73390 40 48 61
0.85180 -0.25649 -0.63205 61 62 68
0.83991 -0.25804 -0.64149 69 78 81
0.85300 -0.27168 -0.63116 52 46 60
0.86154 -0.27155 -0.61665 62 62 81
0.86274 -0.28670 -0.61576 61 55 61
0.86822 -0.27829 -0.61172 64 64 74
0.86941 -0.29345 -0.61083 58 49 52
0.88256 -0.29139 -0.60331 40 46 59
0.91173 -0.32677 -0.57247 58 65 87
0.91988 -0.33296 -0.56965 57 69 99
0.91874 -0.34257 -0.55359 44 54 76
0.92023 -0.35114 -0.54138 33 42 78
0.92903 -0.35707 -0.53954 89 102 147
0.93837 -0.36284 -0.53839 207 222 234
0.94630 -0.36912 -0.53525 251 252 243
0.94705 -0.37785 -0.52218 230 213 179
0.95888 -0.38282 -0.52440 123 74 52
0.97106 -0.38774 -0.52700 35 14 10
0.97497 -0.39539 -0.51831 29 36 41
0.97488 -0.40427 -0.50427 49 72 106
0.99088 -0.40807 -0.51188 137 175 183
0.99287 -0.41626 -0.50070 178 192 209
0.99544 -0.42424 -0.49034 98 90 107
1.00583 -0.42985 -0.49035 34 27 20
1.01982 -0.44314 -0.48134 28 34 47
1.02340 -0.45075 -0.47241 72 74 53
1.02990 -0.45753 -0.46728 62 59 81
1.03016 -0.46600 -0.45417 172 173 184
1.04275 -0.47112 -0.45682 240 242 244
1.04394 -0.48621 -0.45593 253 252 252
1.20386 -0.72357 -0.19680 253 249 237
1.19248 -0.72505 -0.20585 252 252 252
1.19875 -0.73158 -0.20090 253 253 247
1.20425 -0.73077 -0.18581 243 235 219
1.19610 -0.74598 -0.15499 220 220 217
1.19105 -0.75388 -0.15903 217 212 199
1.30557 -0.77854 -0.19676 251 248 237
1.29393 -0.78005 -0.20601 253 253 253
1.30674 -0.79341 -0.19589 249 245 218
1.32350 -0.78428 -0.20296 235 227 194
1.31628 -0.79206 -0.18461 214 210 150
1.32207 -0.79878 -0.17896 226 211 146
1.33665 -0.80487 -0.18177 194 165 99
1.34061 -0.81173 -0.17434 126 97 50
1.34968 -0.82534 -0.16066 94 80 64
1.34445 -0.83353 -0.16485 99 84 51
1.36132 -0.82383 -0.15142 111 107 106
1.35609 -0.83201 -0.15560 101 92 97
1.35086 -0.84020 -0.15979 93 77 77
1.26113 -0.85743 -0.03501 79 76 71
1.25011 -0.85886 -0.04376 101 94 89
1.26313 -0.86392 -0.02650 71 71 58
1.45873 -1.00412 0.02778 138 144 154
1.44742 -1.00559 0.01880 141 152 160
1.45364 -1.01208 0.02371 147 157 162
1.45987 -1.01857 0.02863 152 158 166
1.46024 -1.01049 0.03650 144 149 160
0.17155 0.29562 -0.94289 238 238 220
0.16540 0.30203 -0.94774 240 245 245
0.16653 0.28776 -0.94691 241 247 246
0.18891 0.30416 -0.97132 204 189 164
0.19005 0.28973 -0.97047 189 167 170
0.19960 0.30357 -0.97955 168 131 141
0.20348 0.29397 -0.96771 179 150 183
0.23243 0.30193 -1.00516 249 250 254
0.23761 0.31003 -1.00102 254 254 254
0.24395 0.30343 -0.99602 254 254 254
0.23877 0.29532 -1.00016 254 254 254
0.40430 0.27055 -1.10317 212 233 253
0.40306 0.28622 -1.10409 254 254 254
0.39755 0.27759 -1.10850 224 247 254
0.38849 0.23997 -1.04123 192 215 249
0.38970 0.22461 -1.04033 109 165 235
0.47799 0.12788 -0.94086 190 236 250
0.59249 0.10997 -1.01088 199 175 135
0.61794 0.06773 -0.96596 48 50 82
0.60558 0.06612 -0.97578 48 56 71
0.61239 0.05903 -0.97040 52 58 80
0.62135 0.05814 -0.95373 57 75 89
0.62760 0.05067 -0.94728 70 84 100
0.63476 0.04387 -0.94266 81 87 107
0.63984 0.03558 -0.93393 77 80 103
0.64810 0.02955 -0.93148 59 63 84
0.65605 0.02328 -0.92839 42 55 76
0.66189 0.01555 -0.92118 38 54 80
0.67078 -0.00173 -0.90150 33 45 82
0.67326 -0.01160 -0.88802 44 35 71
0.67450 -0.02726 -0.88711 127 119 100
0.67732 -0.02039 -0.87761 47 29 54
0.67803 -0.03128 -0.86100 55 23 57
0.68480 -0.03822 -0.85584 70 45 75
0.70061 -0.03950 -0.86739 86 74 94
0.69300 -0.06649 -0.81820 176 170 153
0.70508 -0.06492 -0.80860 62 57 100
0.69965 -0.07342 -0.81295 159 163 150
0.71173 -0.07185 -0.80335 52 70 121
0.70630 -0.08035 -0.80770 126 117 117
0.70087 -0.08885 -0.81204 37 66 104
0.75774 -0.15759 -0.72974 49 45 66
0.74578 -0.15914 -0.73924 43 46 59
0.82908 -0.25311 -0.63996 57 57 69
0.82788 -0.23797 -0.64085 52 52 59
0.82255 -0.24631 -0.64512 53 54 63
0.82375 -0.26146 -0.64423 59 57 66
0.88983 -0.31355 -0.59658 68 79 75
0.90170 -0.31201 -0.58716 55 54 59
0.89440 -0.33038 -0.57390 53 51 55
0.89559 -0.34546 -0.57301 44 44 51
0.89704 -0.33858 -0.56319 45 43 58
0.89823 -0.35363 -0.56231 37 41 40
0.89764 -0.34750 -0.54961 36 38 56
0.89883 -0.36250 -0.54873 35 38 40
0.90229 -0.35489 -0.54191 32 37 52
0.90825 -0.36179 -0.53612 27 34 58
0.91515 -0.36837 -0.53164 45 56 99
0.93209 -0.37148 -0.54128 156 168 198
0.93671 -0.37889 -0.53354 237 246 244
0.93866 -0.38717 -0.52211 238 226 196
0.95364 -0.39112 -0.52873 158 117 85
0.96264 -0.39709 -0.52703 45 16 20
0.96383 -0.41220 -0.52614 34 30 29
0.96844 -0.40410 -0.52092 28 34 36
0.96963 -0.41921 -0.52003 36 41 47
0.97365 -0.41129 -0.51402 29 49 66
0.97805 -0.41872 -0.50605 56 88 97
0.98108 -0.42655 -0.49628 72 85 136
0.98227 -0.44159 -0.49540 30 26 48
0.99409 -0.43136 -0.49985 43 40 77
0.99825 -0.43883 -0.49160 27 26 33
1.00440 -0.44571 -0.48602 27 35 38
1.00559 -0.46079 -0.48513 53 46 58
1.01040 -0.45262 -0.48023 39 39 55
1.01821 -0.45903 -0.47681 68 73 49
1.02491 -0.47427 -0.45846 179 180 182
1.03846 -0.47916 -0.46237 243 245 245
1.03966 -0.49425 -0.46149 252 251 252
1.18969 -0.73979 -0.18015 250 246 231
1.17840 -0.74125 -0.18912 252 252 252
1.17938 -0.74802 -0.15827 233 224 207
1.31063 -0.80027 -0.18837 230 219 165
1.30540 -0.80845 -0.19256 251 246 219
1.31684 -0.80696 -0.18314 213 199 158
1.31673 -0.81406 -0.17181 221 202 158
1.31790 -0.82887 -0.17094 227 202 163
1.32542 -0.82057 -0.16899 186 152 102
1.32660 -0.83539 -0.16813 169 135 88
1.26779 -0.86467 -0.04975 91 92 77
1.25672 -0.86611 -0.05855 124 119 102
1.26281 -0.87247 -0.05374 99 97 83
1.26891 -0.87882 -0.04892 85 86 72
1.27185 -0.87111 -0.04306 82 84 63
1.27082 -0.87772 -0.03172 69 61 65
1.27194 -0.89181 -0.03090 61 61 59
0.15809 0.29104 -0.94479 208 220 241
0.15696 0.30527 -0.94562 211 219 234
0.15196 0.29743 -0.94963 152 169 209
0.17535 0.28492 -0.95005 231 232 222
0.17032 0.27704 -0.95408 231 235 238
0.17648 0.27062 -0.94921 222 216 214
0.20511 0.29474 -0.99152 160 111 142
0.19998 0.28671 -0.99562 201 176 162
0.20975 0.28609 -0.98180 177 140 180
0.23025 0.29762 -1.01795 223 216 239
0.23603 0.29028 -1.01129 248 250 254
0.24758 0.29178 -1.00212 254 254 254
0.24239 0.28365 -1.00627 254 254 254
0.32621 0.28224 -1.07684 243 253 254
0.32500 0.29754 -1.07774 254 254 254
0.31962 0.28911 -1.08205 254 254 254
0.33160 0.29067 -1.07253 254 254 254
0.33820 0.28379 -1.06733 254 254 254
0.33281 0.27536 -1.07164 216 250 253
0.34730 0.27730 -1.08730 211 241 250
0.35272 0.28579 -1.08296 254 254 254
0.35936 0.27886 -1.07771 252 254 254
0.35394 0.27037 -1.08206 221 231 248
0.36561 0.24079 -1.04514 135 177 237
0.36440 0.25610 -1.04604 237 253 254
0.35363 0.23924 -1.05466 160 193 241
0.37263 0.23437 -1.04103 109 168 231
0.37384 0.21906 -1.04014 134 181 237
0.38967 0.23836 -1.06217 111 167 233
0.39089 0.22291 -1.06127 115 166 237
0.46319 0.12379 -0.94380 169 215 247
0.46199 0.13899 -0.94469 202 238 252
0.45664 0.13062 -0.94897 201 245 252
0.45129 0.12224 -0.95325 199 239 251
0.45784 0.11541 -0.94808 165 212 245
0.46639 0.11403 -0.93105 174 222 248
0.46758 0.09886 -0.93016 217 249 251
0.47685 0.11061 -0.93471 206 240 250
0.48876 0.11216 -0.92525 199 237 247
0.47806 0.09540 -0.93382 218 251 250
0.48447 0.10469 -0.93190 217 247 251
0.49639 0.10623 -0.92243 200 240 245
0.57737 0.10622 -1.01506 232 239 222
0.57054 0.11335 -1.02045 175 165 161
0.56496 0.10461 -1.02492 179 169 165
0.57179 0.09749 -1.01952 215 223 202
0.58421 0.09910 -1.00966 226 222 187
0.61659 0.05003 -0.95974 50 61 87
0.62152 0.04161 -0.95063 58 65 93
0.62277 0.02587 -0.94971 43 32 49
0.62830 0.03453 -0.94526 68 75 91
0.64160 0.02020 -0.93402 48 55 84
0.66219 -0.00084 -0.91844 51 19 47
0.66081 -0.01332 -0.89738 60 19 45
0.66553 -0.02169 -0.88817 76 60 68
0.66676 -0.03732 -0.88726 201 213 164
0.68059 -0.03471 -0.88055 190 174 161
0.68092 -0.06805 -0.82779 177 175 161
0.74603 -0.17952 -0.70704 64 72 82
0.74626 -0.18953 -0.69131 72 81 79
0.75497 -0.19520 -0.68988 58 59 75
0.76680 -0.19366 -0.68048 54 61 75
0.75487 -0.20526 -0.67379 42 43 61
0.76665 -0.20373 -0.66444 68 69 80
0.76808 -0.20873 -0.67974 62 65 68
0.77991 -0.20719 -0.67035 69 63 73
0.77459 -0.21551 -0.67460 70 90 62
0.76928 -0.22384 -0.67886 53 54 63
0.82205 -0.27181 -0.62629 66 73 74
0.81026 -0.27334 -0.63566 58 63 70
0.82324 -0.28687 -0.62541 63 70 76
0.82640 -0.27949 -0.61784 66 70 77
0.82512 -0.28951 -0.60080 53 47 60
0.82630 -0.30448 -0.59992 46 42 40
0.86157 -0.32149 -0.58159 42 46 49
0.84982 -0.32302 -0.59092 49 47 58
0.85629 -0.32976 -0.58581 44 47 53
0.86873 -0.32797 -0.57751 53 62 66
0.86992 -0.34298 -0.57663 52 51 68
0.87469 -0.33490 -0.57165 62 68 71
0.87588 -0.34992 -0.57077 52 46 62
0.90163 -0.37052 -0.53840 36 35 50
0.90654 -0.37777 -0.53113 38 39 76
0.90829 -0.38608 -0.51943 89 101 152
0.92549 -0.38917 -0.52946 204 218 233
0.93261 -0.39569 -0.52527 244 242 217
0.93569 -0.40353 -0.51548 198 170 127
0.95874 -0.40496 -0.53324 75 36 41
0.97616 -0.42599 -0.51491 26 38 46
0.96433 -0.42752 -0.52431 40 41 48
0.97084 -0.43431 -0.51917 37 39 41
0.97735 -0.44110 -0.51403 40 40 51
0.98002 -0.43357 -0.50622 24 32 62
0.98121 -0.44865 -0.50533 44 40 43
0.98714 -0.44882 -0.48814 31 33 46
0.98185 -0.45710 -0.49237 39 42 51
0.98833 -0.46385 -0.48726 47 47 56
0.99253 -0.45588 -0.48159 38 40 48
1.00580 -0.46929 -0.47179 53 52 46
1.01545 -0.47518 -0.47080 78 59 72
1.01597 -0.48352 -0.45797 194 198 191
1.03075 -0.48810 -0.46353 246 247 247
1.03194 -0.50317 -0.46265 252 251 251
1.17678 -0.74856 -0.17608 253 252 246
1.16553 -0.75002 -0.18502 252 252 252
1.17172 -0.75648 -0.18013 253 253 251
1.17703 -0.75562 -0.16507 247 242 227
1.16948 -0.76341 -0.14613 230 221 203
1.17205 -0.77013 -0.13766 220 215 203
1.17572 -0.77674 -0.13035 233 236 233
1.30461 -0.81560 -0.18050 232 220 184
1.29302 -0.81711 -0.18970 254 253 248
1.30578 -0.83040 -0.17963 246 237 204
1.30810 -0.82243 -0.17267 228 209 169
1.47766 -1.05240 0.04583 153 140 111
1.48896 -1.05093 0.05481 139 123 116
1.48388 -1.05888 0.05074 151 137 124
1.47880 -1.06683 0.04668 165 149 128
2.20594 -1.39447 -0.04274 59 65 84
0.13548 0.27378 -0.91825 145 140 181
0.13437 0.28783 -0.91908 129 139 180
0.12943 0.28009 -0.92303 129 131 158
0.12448 0.27236 -0.92699 143 153 169
0.14826 0.27664 -0.93405 189 192 224
0.14938 0.26249 -0.93323 235 240 244
0.15866 0.27607 -0.94227 230 239 245
0.15978 0.26185 -0.94144 231 233 238
0.20927 0.28403 -0.99949 170 131 125
0.19783 0.28254 -1.00857 240 237 218
0.21594 0.27794 -0.99560 178 149 164
0.23340 0.28536 -1.02282 224 218 234
0.23457 0.27057 -1.02196 227 220 235
0.24129 0.28059 -1.02212 249 250 254
0.25288 0.28210 -1.01291 254 254 254
0.24767 0.27394 -1.01709 254 254 254
0.30841 0.27396 -1.07050 254 253 253
0.30721 0.28919 -1.07139 254 254 254
0.30185 0.28080 -1.07568 254 254 254
