ply
format ascii 1.0
element face 0
property list uchar int vertex_indices
element vertex 1298
property float x
property float y
property float z
property uchar diffuse_red
property uchar diffuse_green
property uchar diffuse_blue
end_header
-0.44805 0.37400 -0.88870 249 164 55
-0.41439 0.37510 -0.90588 252 154 78
-0.40639 0.37442 -0.90798 253 196 152
-0.38159 0.40200 -0.97732 253 242 233
-0.37551 0.39756 -0.97062 252 237 216
-0.37129 0.38690 -0.96859 252 241 225
-0.35899 0.39583 -0.97423 253 234 206
-0.33912 0.41325 -1.01990 252 180 112
-0.32398 0.42268 -1.04656 248 120 6
-0.31959 0.41159 -1.04444 246 115 11
-0.31781 0.41795 -1.03926 245 116 22
-0.30994 0.41585 -1.03828 243 141 80
-0.29601 0.42276 -1.05906 248 210 190
-0.29457 0.41102 -1.03483 252 247 247
-0.28457 0.41192 -1.04114 246 240 220
-0.27304 0.41489 -1.05252 230 211 189
-0.26469 0.41322 -1.05268 228 212 221
-0.25707 0.41050 -1.05027 248 252 254
-0.24024 0.40715 -1.05061 254 252 248
-0.23472 0.40157 -1.04121 240 221 204
-0.23075 0.39401 -1.02695 158 85 88
-0.13497 0.28070 -0.82919 106 19 39
-0.14453 0.27603 -0.83356 102 24 40
-0.13766 0.27310 -0.83037 107 22 38
-0.12922 0.27664 -0.82313 105 46 75
-0.12276 0.27331 -0.81892 161 157 164
-0.11358 0.27265 -0.82159 189 188 194
-0.10940 0.26211 -0.81958 192 192 201
-0.06206 0.25513 -0.80721 209 211 215
-0.07167 0.25045 -0.81160 205 207 215
-0.04477 0.26142 -0.82815 171 173 185
-0.04053 0.25071 -0.82611 75 75 80
-0.04759 0.24982 -0.80233 78 69 116
-0.03654 0.25046 -0.80856 64 62 92
-0.03073 0.24653 -0.80281 112 110 100
-0.02548 0.24213 -0.79581 165 167 167
-0.00325 0.24319 -0.80786 115 111 127
0.00533 0.24152 -0.80810 95 88 84
0.01322 0.23926 -0.80680 120 118 101
0.03330 0.24675 -0.83153 186 179 136
0.04088 0.24410 -0.82926 217 209 178
0.04778 0.24092 -0.82556 231 237 230
0.06425 0.24515 -0.84179 223 220 215
0.06851 0.23986 -0.83247 180 170 169
0.08551 0.24429 -0.84934 145 146 168
0.09746 0.24475 -0.85560 149 154 185
0.10303 0.24041 -0.84886 150 134 150
0.11020 0.23727 -0.84537 155 133 157
0.14250 0.25238 -0.89162 192 186 205
0.15576 0.25341 -0.89966 228 230 230
0.17410 0.25797 -0.91740 200 175 155
0.18533 0.25735 -0.92105 176 150 133
0.21053 0.26640 -0.95134 231 242 251
0.62332 0.34682 -1.30380 254 254 232
0.61773 0.36092 -1.30649 254 254 254
0.61412 0.35075 -1.30807 254 254 253
0.63497 0.34425 -1.30351 251 243 173
0.64056 0.33013 -1.30082 247 251 142
0.64043 0.33825 -1.29320 249 231 151
0.66195 0.34105 -1.30861 247 212 119
0.68406 0.34402 -1.32467 247 196 90
0.69469 0.34072 -1.32238 248 197 110
0.68272 0.21119 -1.04271 166 139 142
0.68518 0.19733 -1.01443 74 81 115
0.73931 0.13510 -0.90651 53 72 94
0.75078 0.14069 -0.90128 18 15 32
0.75400 0.08826 -0.81377 38 49 60
0.76897 0.08738 -0.81851 46 48 59
0.78383 0.08640 -0.82298 39 39 61
0.79502 0.08407 -0.82299 28 25 68
0.85861 0.07466 -0.83112 16 25 68
0.85990 0.06887 -0.81943 16 24 77
0.86767 0.06527 -0.81522 14 21 82
0.87397 0.06119 -0.80936 18 27 84
0.88339 0.05813 -0.80704 21 24 75
0.89055 0.05434 -0.80216 18 21 54
0.89548 0.04187 -0.79978 32 19 35
0.89165 0.04864 -0.79057 17 19 53
0.90050 0.04541 -0.78764 18 20 60
0.91178 0.04293 -0.78736 19 21 65
0.90927 0.03620 -0.77200 19 24 67
0.91293 0.03141 -0.76347 17 24 54
0.92091 0.02795 -0.75965 19 22 36
0.93204 0.01383 -0.73466 29 30 38
0.92090 0.00840 -0.73975 35 33 32
0.92890 0.00498 -0.73604 35 33 37
0.93690 0.00157 -0.73233 34 33 35
0.93512 0.00900 -0.72578 31 36 39
0.93996 -0.00324 -0.72345 34 34 39
0.93717 0.00390 -0.71590 34 40 46
0.93499 -0.00235 -0.70168 35 42 52
0.94601 0.00302 -0.69665 42 46 54
0.94290 -0.00573 -0.69801 35 43 53
0.98575 -0.03263 -0.65995 23 38 50
0.98098 -0.02058 -0.66225 33 35 33
0.97789 -0.02927 -0.66360 26 38 48
1.00271 -0.03366 -0.66525 30 40 52
1.01665 -0.03550 -0.66749 44 56 69
1.03185 -0.03706 -0.67089 69 86 104
1.03427 -0.04183 -0.66187 95 132 153
1.04348 -0.04490 -0.65943 110 173 214
1.04830 -0.05706 -0.65711 98 189 253
1.05518 -0.04738 -0.65934 121 194 244
1.06001 -0.05956 -0.65702 94 187 253
1.39824 -0.05260 -0.79964 209 184 152
1.40305 -0.05716 -0.79210 211 185 151
1.42194 -0.05889 -0.79677 211 186 151
1.44564 -0.06524 -0.79377 190 163 147
1.42455 -0.11168 -0.68609 251 237 214
1.42972 -0.12473 -0.68360 253 250 242
1.42860 -0.11610 -0.67852 254 248 222
1.43375 -0.12912 -0.67604 253 251 246
1.57165 -0.13325 -0.70530 197 177 113
1.48911 -0.15123 -0.63081 126 112 102
1.49441 -0.15531 -0.62449 111 112 135
1.52738 -0.15518 -0.63931 160 145 193
1.52269 -0.16566 -0.61504 223 221 221
1.51234 -0.17201 -0.59704 243 247 246
1.53376 -0.17850 -0.59275 242 233 226
1.54939 -0.18582 -0.58413 235 212 209
1.57647 -0.20099 -0.56394 250 245 241
1.58155 -0.21381 -0.56150 254 254 254
1.57909 -0.20530 -0.55596 254 252 244
1.58415 -0.21809 -0.55353 254 254 254
-0.56566 0.47093 -1.06084 251 180 146
-0.56009 0.46429 -1.04915 253 231 223
-0.55341 0.46065 -1.04439 253 250 250
-0.54376 0.46536 -1.03999 254 254 254
-0.54648 0.45769 -1.04118 254 254 254
-0.44664 0.37410 -0.90750 253 220 147
-0.44428 0.36337 -0.88566 250 165 57
-0.40875 0.36746 -0.91031 252 193 131
-0.39389 0.37824 -0.93996 251 216 190
-0.36273 0.38650 -0.97157 254 227 194
-0.31324 0.40716 -1.03784 242 120 28
-0.30217 0.40979 -1.04840 240 150 103
-0.29454 0.40721 -1.04631 243 204 211
-0.28808 0.40293 -1.04009 250 247 246
-0.27785 0.40405 -1.04705 249 243 232
-0.26885 0.40332 -1.04954 242 230 229
-0.26021 0.40203 -1.05064 245 246 248
-0.25059 0.40202 -1.05494 252 254 254
-0.24612 0.39074 -1.05279 251 254 254
-0.24209 0.40040 -1.05529 254 254 253
-0.23595 0.39564 -1.04789 250 242 235
-0.21942 0.40448 -1.07416 214 168 149
-0.12835 0.27260 -0.83347 99 21 56
-0.13795 0.26792 -0.83786 108 22 40
-0.12509 0.26608 -0.82103 150 133 150
-0.11271 0.26851 -0.83176 186 187 196
-0.10852 0.25792 -0.82974 192 194 199
-0.05821 0.25336 -0.82385 211 211 208
-0.06790 0.24864 -0.82827 205 209 219
-0.04869 0.25265 -0.82659 160 147 150
-0.04054 0.24169 -0.80685 130 152 145
-0.03275 0.23946 -0.80560 179 201 184
-0.02752 0.23506 -0.79854 164 154 164
-0.01502 0.23675 -0.80774 112 77 77
-0.00441 0.23677 -0.81254 105 78 56
0.00531 0.23600 -0.81526 138 116 112
0.02264 0.24131 -0.83436 190 181 180
0.02694 0.23044 -0.83229 232 233 235
0.02691 0.23604 -0.82502 225 229 214
0.03606 0.23465 -0.82616 231 234 228
0.04568 0.23360 -0.82822 219 232 236
0.05723 0.23399 -0.83423 205 216 225
0.06156 0.22305 -0.83214 123 109 139
0.07410 0.23835 -0.85110 149 159 178
0.08987 0.24172 -0.86536 98 122 145
0.09927 0.24021 -0.86633 121 135 141
0.10364 0.23495 -0.85707 154 150 149
0.12691 0.24350 -0.88576 196 194 202
0.14491 0.24801 -0.90345 234 239 240
0.14943 0.23659 -0.90127 244 245 247
0.15235 0.24483 -0.89999 243 242 240
0.17325 0.25113 -0.92280 227 208 199
0.19729 0.25087 -0.93302 221 204 230
0.22754 0.26307 -0.97262 250 254 254
0.23833 0.26833 -0.96769 254 254 254
0.23529 0.25976 -0.96902 254 254 254
0.23224 0.25119 -0.97035 254 254 254
0.58325 0.33424 -1.28390 252 253 249
0.57773 0.34817 -1.28656 254 254 254
0.57416 0.33812 -1.28812 253 254 254
0.58682 0.34429 -1.28234 254 253 254
0.59952 0.33439 -1.29153 252 253 237
0.61808 0.33574 -1.30273 252 252 208
0.63135 0.33407 -1.30509 249 251 158
0.64100 0.31265 -1.26370 247 252 130
0.65728 0.19174 -1.01293 153 125 127
0.67116 0.19058 -1.01669 77 62 105
0.70438 0.11357 -0.86720 72 104 149
0.71315 0.11039 -0.86433 62 97 134
0.72666 0.10902 -0.86747 49 78 115
0.76333 0.07761 -0.81686 26 34 49
0.78078 0.07753 -0.82451 32 36 49
0.79474 0.07616 -0.82783 40 37 53
0.85590 0.06578 -0.83310 49 48 52
0.85775 0.06021 -0.82203 51 43 56
0.86270 0.04772 -0.81965 75 85 84
0.90670 0.02159 -0.76153 38 37 39
0.91159 0.00926 -0.75918 42 43 45
0.91263 0.01752 -0.75551 34 34 33
0.91750 0.00521 -0.75317 40 39 36
0.92242 -0.01373 -0.69320 31 34 46
0.92750 -0.01785 -0.68667 27 34 50
0.93845 -0.01252 -0.68167 36 43 51
0.92928 -0.02286 -0.67677 26 35 50
0.94019 -0.01755 -0.67179 37 44 46
0.93711 -0.02621 -0.67314 26 36 50
0.95141 -0.03326 -0.66449 22 30 45
0.94666 -0.02126 -0.66677 36 43 44
0.94358 -0.02992 -0.66812 24 36 47
0.95448 -0.02461 -0.66314 34 40 47
0.96231 -0.02795 -0.65951 31 37 48
0.96358 -0.03548 -0.66522 21 27 48
0.97333 -0.03834 -0.66348 19 31 56
0.98542 -0.04062 -0.66403 20 46 84
1.01446 -0.04403 -0.66977 77 124 159
1.02049 -0.04788 -0.66425 108 163 199
1.03036 -0.05079 -0.66246 116 186 227
1.03517 -0.06294 -0.66015 98 187 254
1.03852 -0.05412 -0.65902 107 193 248
1.04333 -0.06627 -0.65670 96 188 254
1.10737 -0.08001 -0.63460 97 198 251
1.09942 -0.07662 -0.63829 96 197 254
1.09630 -0.08540 -0.63965 104 205 254
1.11844 -0.07462 -0.62955 80 156 225
1.11531 -0.08341 -0.63091 87 173 234
1.39834 -0.06711 -0.79251 231 209 179
1.40810 -0.07067 -0.78929 225 201 179
1.41342 -0.08412 -0.78673 219 197 178
1.44339 -0.10161 -0.73906 184 138 136
1.38248 -0.11768 -0.67748 228 242 222
1.55537 -0.14996 -0.68605 194 159 132
1.50220 -0.16296 -0.63448 119 94 83
1.51782 -0.17038 -0.62563 191 182 193
1.53086 -0.17333 -0.62518 218 214 216
1.52648 -0.17879 -0.61158 221 221 223
1.53696 -0.18210 -0.60921 231 212 215
-0.56181 0.45928 -1.05652 250 166 133
-0.55642 0.45225 -1.04386 251 213 205
-0.54913 0.45021 -1.04280 253 243 244
-0.53948 0.45492 -1.03839 254 254 254
-0.54368 0.44357 -1.03099 254 253 254
-0.53406 0.44825 -1.02660 254 254 254
-0.53678 0.44062 -1.02778 254 254 254
-0.45520 0.37098 -0.91513 254 254 251
-0.46452 0.36644 -0.91939 254 254 254
-0.45783 0.36358 -0.91628 254 254 254
-0.44930 0.36664 -0.90848 254 250 225
-0.44120 0.36637 -0.91159 253 224 161
-0.44195 0.35019 -0.87645 250 191 115
-0.43235 0.35264 -0.88609 251 197 128
-0.42389 0.35295 -0.89060 253 208 120
-0.41253 0.35808 -0.90681 252 200 116
-0.40338 0.35927 -0.91354 251 196 149
-0.35314 0.38423 -0.99008 253 153 74
-0.31663 0.38457 -1.00742 224 108 45
-0.29776 0.39864 -1.04628 222 137 129
-0.28861 0.39824 -1.04957 240 221 222
-0.28124 0.39524 -1.04648 252 252 251
-0.27199 0.39486 -1.04987 247 243 245
-0.26384 0.39288 -1.04933 227 225 242
-0.25306 0.39445 -1.05761 238 244 245
-0.23624 0.39093 -1.05769 254 252 246
-0.23523 0.37949 -1.03354 232 209 187
-0.22611 0.37868 -1.03595 131 64 63
-0.12502 0.27094 -0.85024 103 17 49
-0.13469 0.26623 -0.85465 108 22 41
-0.11978 0.26631 -0.84267 130 98 137
-0.11480 0.26147 -0.83452 177 179 196
-0.05632 0.24977 -0.83597 212 213 215
-0.06606 0.24503 -0.84042 205 210 217
-0.05906 0.24204 -0.83717 210 212 218
-0.05373 0.24292 -0.82242 185 176 162
-0.05209 0.23534 -0.80685 95 105 71
-0.04569 0.23195 -0.80248 92 110 108
-0.03704 0.23047 -0.80323 73 84 119
-0.02933 0.22816 -0.80177 111 107 80
-0.02084 0.22649 -0.80205 156 142 97
-0.00666 0.22944 -0.81485 182 171 139
0.00490 0.23014 -0.82162 212 211 193
0.01653 0.23081 -0.82834 228 230 227
0.03328 0.22682 -0.82738 231 233 236
0.05300 0.23356 -0.85085 178 170 202
0.06767 0.23622 -0.86325 129 104 152
0.08595 0.23289 -0.86441 124 127 138
0.09489 0.23103 -0.86449 134 122 119
0.10160 0.22751 -0.85997 149 133 146
0.12761 0.23796 -0.89427 204 204 216
0.14262 0.24023 -0.90599 241 248 250
0.14714 0.22881 -0.90382 243 244 248
0.16534 0.23933 -0.91440 242 238 237
0.22830 0.25707 -0.98120 240 250 254
0.23301 0.24515 -0.97893 252 254 254
0.33960 0.26949 -1.05858 246 252 254
0.33466 0.28197 -1.06095 254 254 254
0.33147 0.27297 -1.06235 252 254 254
0.34280 0.27849 -1.05718 254 254 254
0.35093 0.27501 -1.05340 254 254 254
0.35849 0.27268 -1.07403 245 253 254
0.36992 0.27825 -1.06882 254 254 254
0.37145 0.27209 -1.07866 245 253 254
0.38292 0.27768 -1.07343 254 254 254
0.37968 0.26857 -1.07484 251 254 254
0.53183 0.31487 -1.24365 240 246 252
0.54552 0.31379 -1.24756 245 252 247
0.56837 0.31780 -1.26660 233 243 214
0.60569 0.32973 -1.30924 230 242 166
0.61170 0.32405 -1.29976 231 239 157
0.61666 0.31783 -1.28864 225 237 143
0.62574 0.30508 -1.26535 223 243 149
0.65207 0.16699 -0.98033 72 78 126
0.66010 0.16331 -0.97606 81 99 147
0.65991 0.15609 -0.96045 80 101 155
0.67144 0.16171 -0.95519 72 100 156
0.66271 0.15023 -0.94911 77 100 159
0.67421 0.15583 -0.94387 70 100 157
0.66715 0.14509 -0.94010 79 100 161
0.67861 0.15068 -0.93486 68 102 158
0.67234 0.14031 -0.93217 79 102 159
0.68379 0.14589 -0.92695 70 103 159
0.72170 0.09939 -0.86662 71 100 153
0.73655 0.09846 -0.87138 67 95 140
0.74787 0.10398 -0.86621 19 14 24
0.74903 0.09661 -0.87308 60 85 117
0.74142 0.06834 -0.80882 25 11 16
0.75980 0.06862 -0.81778 22 9 19
0.77785 0.06871 -0.82618 23 11 16
0.79307 0.06774 -0.83102 22 13 21
0.84504 0.04811 -0.81247 64 79 75
0.88622 0.04912 -0.83337 84 88 87
0.91270 0.05135 -0.85022 87 90 85
0.93891 0.04111 -0.84013 71 73 70
0.90884 -0.01424 -0.70740 39 36 37
0.90095 -0.01087 -0.71106 39 37 41
0.91004 -0.01946 -0.69671 39 29 33
0.91699 -0.02855 -0.68032 27 18 35
0.92203 -0.03264 -0.67382 24 20 43
0.93117 -0.03563 -0.67156 25 26 50
0.93862 -0.03907 -0.66755 26 38 71
0.95354 -0.04057 -0.67111 29 52 101
0.96838 -0.04214 -0.67449 39 72 119
0.99577 -0.04596 -0.67874 66 126 178
1.00132 -0.04993 -0.67273 78 152 214
1.00637 -0.05401 -0.66624 94 173 234
1.01596 -0.05698 -0.66422 101 184 246
1.02757 -0.05948 -0.66414 99 187 251
1.06350 -0.06682 -0.66469 98 191 254
1.07461 -0.06141 -0.65962 92 189 253
1.07148 -0.07023 -0.66099 100 195 254
1.12390 -0.08456 -0.65404 104 207 253
1.11595 -0.09139 -0.63571 99 191 246
1.12704 -0.08599 -0.63065 65 139 220
1.12391 -0.09479 -0.63202 80 158 240
1.39549 -0.11904 -0.70346 179 143 144
1.36369 -0.12969 -0.66610 206 210 210
1.38228 -0.13151 -0.67064 244 244 230
1.53346 -0.18668 -0.62079 222 212 212
1.53858 -0.19076 -0.61435 231 220 221
1.54371 -0.20372 -0.61188 253 254 249
1.54835 -0.19419 -0.61141 246 238 233
1.55348 -0.20716 -0.60894 253 252 249
1.59074 -0.19808 -0.62233 254 253 248
1.59592 -0.21118 -0.61984 253 252 250
-0.64739 0.48927 -1.10110 254 244 233
-0.64316 0.47859 -1.09906 241 132 70
-0.63484 0.50563 -1.14235 247 164 143
-0.56332 0.45484 -1.06532 251 116 45
-0.55725 0.44949 -1.05654 250 148 103
-0.55047 0.44606 -1.05223 250 198 178
-0.54748 0.43323 -1.02581 252 239 238
-0.54100 0.42931 -1.02030 254 252 254
-0.53142 0.43397 -1.01593 254 254 254
-0.53412 0.42637 -1.01711 254 254 254
-0.44844 0.36567 -0.92516 254 254 251
-0.45782 0.36110 -0.92944 254 254 254
-0.45109 0.35823 -0.92632 254 254 254
-0.44436 0.35535 -0.92319 254 254 254
-0.42852 0.34211 -0.88330 254 244 191
-0.41384 0.35290 -0.91348 253 226 156
-0.40658 0.35090 -0.91249 251 199 134
-0.36036 0.36947 -0.97410 252 142 47
-0.29331 0.38755 -1.04429 243 202 182
-0.28362 0.38786 -1.04944 253 252 254
-0.27470 0.38700 -1.05169 245 240 247
-0.26034 0.39352 -1.07248 214 190 216
-0.24776 0.39736 -1.08661 203 174 196
-0.24525 0.38762 -1.06666 236 251 254
-0.23824 0.38394 -1.06193 235 251 250
-0.23434 0.37627 -1.04711 217 221 213
-0.21263 0.39145 -1.09005 157 94 110
-0.12503 0.26594 -0.85849 109 18 39
-0.13473 0.26121 -0.86292 106 24 42
-0.12776 0.25824 -0.85969 110 21 37
-0.11745 0.26356 -0.85682 106 44 76
-0.04796 0.24263 -0.84360 214 209 202
-0.04858 0.23305 -0.82254 171 163 144
-0.04398 0.22806 -0.81386 117 95 79
-0.03673 0.22535 -0.81133 117 94 94
-0.03305 0.21967 -0.80071 182 179 163
-0.00702 0.23240 -0.84034 225 227 204
-0.00273 0.22156 -0.83828 237 241 242
-0.00113 0.22843 -0.83445 231 230 215
0.00487 0.22456 -0.82885 228 228 225
0.01438 0.22349 -0.83093 220 230 235
0.01970 0.21910 -0.82386 216 233 239
0.05566 0.22982 -0.86374 169 143 171
0.07814 0.22969 -0.87384 170 164 182
0.08617 0.22714 -0.87201 160 142 147
0.09543 0.22548 -0.87269 173 160 153
0.12035 0.23514 -0.90516 196 202 201
0.12833 0.23237 -0.90284 224 228 227
0.13948 0.23184 -0.90685 238 243 248
0.16231 0.23098 -0.91553 250 248 239
0.15936 0.22268 -0.91682 252 254 249
0.19344 0.24397 -0.95808 233 210 173
0.20201 0.24131 -0.95627 204 176 143
0.22655 0.24935 -0.98504 233 240 247
0.29820 0.25352 -1.02720 252 253 253
0.29335 0.26578 -1.02954 254 254 254
0.29021 0.25694 -1.03091 254 254 254
0.28707 0.24809 -1.03229 254 254 254
0.30134 0.26236 -1.02583 254 254 254
0.31502 0.25565 -1.03959 233 244 249
0.33383 0.25889 -1.05532 180 221 242
0.35315 0.26231 -1.07166 172 231 248
0.36543 0.26129 -1.07513 170 232 249
0.38415 0.26410 -1.08987 228 248 254
0.64615 0.17111 -1.00941 164 147 139
0.64798 0.15743 -0.98061 93 106 142
0.64711 0.14993 -0.96396 99 125 172
0.64912 0.14373 -0.95146 89 124 175
0.65404 0.13882 -0.94307 85 120 170
0.65767 0.13339 -0.93299 88 123 170
0.66183 0.12823 -0.92372 87 125 175
0.64205 0.11334 -0.88230 91 130 181
0.74661 0.07505 -0.84765 101 129 170
0.76213 0.06793 -0.83939 101 112 134
0.76883 0.06400 -0.83398 96 98 128
0.78570 0.06359 -0.84088 84 90 122
0.79091 0.05914 -0.83364 72 85 103
0.79808 0.05537 -0.82879 65 81 86
0.89253 -0.03208 -0.68290 48 57 78
0.90369 -0.03451 -0.68279 56 65 102
0.90844 -0.04649 -0.68051 69 101 160
0.91789 -0.03615 -0.68580 62 82 117
0.93127 -0.03805 -0.68787 67 99 132
0.94180 -0.04071 -0.68696 75 119 152
0.95134 -0.04365 -0.68500 81 137 174
0.96280 -0.04611 -0.68497 84 148 198
0.96666 -0.05050 -0.67724 87 159 211
0.97719 -0.05321 -0.67623 94 174 225
0.98790 -0.05589 -0.67537 99 184 240
0.99460 -0.05956 -0.67051 102 191 249
1.00299 -0.06282 -0.66732 102 192 253
1.01192 -0.06595 -0.66466 99 192 254
1.02293 -0.06860 -0.66401 101 196 254
1.03377 -0.07131 -0.66316 105 198 254
1.04635 -0.07363 -0.66395 108 200 254
1.05801 -0.07618 -0.66381 106 202 254
1.07004 -0.07867 -0.66397 106 204 254
1.08116 -0.07325 -0.65890 101 197 254
1.08029 -0.08158 -0.66241 107 206 254
1.09141 -0.07615 -0.65732 102 200 254
1.08968 -0.08468 -0.66002 109 209 254
1.10082 -0.07925 -0.65494 103 203 254
1.10013 -0.08756 -0.65860 110 210 254
1.11020 -0.09054 -0.65680 112 212 254
1.11886 -0.09383 -0.65368 111 212 254
1.11175 -0.10042 -0.63610 108 202 251
1.09286 -0.10938 -0.60796 95 168 238
1.10380 -0.10405 -0.60296 105 193 246
1.10378 -0.11211 -0.60709 100 151 219
1.11473 -0.10677 -0.60209 188 219 231
1.11165 -0.11547 -0.60344 166 193 218
1.37969 -0.13567 -0.68356 172 142 154
1.37650 -0.14123 -0.67004 216 222 220
1.39010 -0.14395 -0.67041 245 238 227
1.39852 -0.14755 -0.66651 248 238 229
1.46386 -0.17662 -0.63371 254 250 230
1.53689 -0.18066 -0.65870 186 141 112
1.52709 -0.18688 -0.64069 208 194 185
1.54054 -0.18984 -0.64049 244 243 233
1.54572 -0.20292 -0.63800 251 251 247
1.55028 -0.19332 -0.63745 253 252 242
1.55927 -0.19691 -0.63383 253 254 245
-0.65857 0.47913 -1.09300 254 253 247
-0.66278 0.48975 -1.09502 254 254 254
-0.66550 0.48209 -1.09622 254 254 254
-0.66822 0.47442 -1.09741 254 254 254
-0.65378 0.46855 -1.07215 252 202 187
-0.56074 0.43983 -1.05309 252 118 34
-0.57041 0.43512 -1.05751 253 119 29
-0.56347 0.43215 -1.05429 253 118 25
-0.55250 0.41986 -1.01334 249 193 160
-0.54391 0.42119 -1.02028 251 238 235
-0.53763 0.41682 -1.01367 253 252 254
-0.52807 0.42148 -1.00931 254 254 253
-0.53077 0.41388 -1.01049 254 254 254
-0.52327 0.41243 -1.01082 242 242 246
-0.51369 0.41709 -1.00645 234 230 234
-0.51639 0.40949 -1.00763 231 225 230
-0.51909 0.40188 -1.00882 231 225 230
-0.43091 0.33515 -0.88538 254 254 241
-0.42388 0.33296 -0.88389 253 245 216
-0.40910 0.34364 -0.91417 251 224 182
-0.37302 0.34626 -0.93684 252 140 40
-0.29441 0.38201 -1.05183 250 177 123
-0.28796 0.37772 -1.04549 252 234 224
-0.27917 0.37670 -1.04737 241 236 239
-0.26377 0.38463 -1.07193 210 170 174
-0.25074 0.37601 -1.05922 211 206 230
-0.21557 0.38316 -1.09134 126 79 121
-0.20596 0.38259 -1.09461 110 14 24
-0.11665 0.24960 -0.84605 150 139 163
-0.05602 0.23937 -0.85216 214 218 221
-0.06306 0.24238 -0.85543 208 213 215
-0.05175 0.22858 -0.85011 221 225 230
-0.04890 0.23644 -0.84910 221 223 225
-0.04462 0.22564 -0.84705 224 227 235
-0.04306 0.23240 -0.84302 224 223 217
-0.03879 0.22162 -0.84097 227 230 234
-0.03447 0.23072 -0.84339 227 225 199
-0.03019 0.21992 -0.84133 228 229 233
-0.02477 0.22993 -0.84620 227 227 204
-0.01575 0.22852 -0.84737 233 233 228
-0.00995 0.22446 -0.84122 238 238 241
0.00377 0.21809 -0.83374 229 240 235
0.01408 0.21763 -0.83758 189 177 203
0.02845 0.22026 -0.85008 134 111 182
0.04185 0.22203 -0.86023 132 126 194
0.05313 0.22207 -0.86562 140 125 162
0.06545 0.22282 -0.87305 139 140 170
0.07617 0.22230 -0.87693 151 162 185
0.08990 0.22393 -0.88695 167 146 158
0.10941 0.22966 -0.90861 200 189 197
0.11862 0.22779 -0.90885 227 234 234
0.12679 0.22514 -0.90691 210 220 234
0.13544 0.22282 -0.90590 194 214 239
0.15479 0.22792 -0.92613 232 240 246
0.18336 0.23069 -0.94559 240 240 222
0.20868 0.23934 -0.97636 205 195 182
0.21641 0.23603 -0.97278 206 185 198
0.24176 0.24432 -1.00277 243 253 254
0.25270 0.24965 -0.99777 254 254 254
0.24961 0.24096 -0.99913 254 254 254
0.24653 0.23228 -1.00048 254 254 254
0.29336 0.24360 -1.02543 247 247 250
0.28224 0.23818 -1.03051 254 254 254
0.32947 0.25770 -1.07319 193 196 221
0.31861 0.24250 -1.03488 61 102 172
0.34292 0.24898 -1.06044 44 142 216
0.35158 0.24581 -1.05758 41 146 223
0.37386 0.25075 -1.07883 184 228 251
0.42829 0.24892 -1.10040 123 178 237
0.43337 0.23609 -1.09795 106 170 230
0.62740 0.15505 -0.98882 146 124 112
0.63219 0.14996 -0.97996 59 53 90
0.64275 0.14739 -0.97930 69 81 128
0.65049 0.14359 -0.97463 85 91 143
0.66149 0.14118 -0.97452 74 73 144
0.66947 0.13748 -0.97019 67 70 143
0.67278 0.13186 -0.95948 68 74 146
0.67379 0.12535 -0.94573 71 75 151
0.66087 0.09991 -0.88409 92 89 171
0.65645 0.09159 -0.86383 90 91 170
0.66314 0.08766 -0.85840 91 100 169
0.67881 0.08718 -0.86470 95 97 170
0.68815 0.08424 -0.86266 90 96 171
0.69758 0.08132 -0.86072 91 92 175
0.70247 0.06898 -0.85837 7 21 102
0.71570 0.08161 -0.86986 93 92 173
0.72062 0.06920 -0.86749 8 21 103
0.73174 0.08106 -0.87618 102 98 178
0.73668 0.06858 -0.87381 8 23 103
0.73844 0.07706 -0.87060 95 96 173
0.75020 0.06221 -0.84368 100 101 175
0.75896 0.05900 -0.84078 99 95 172
0.76485 0.05480 -0.83437 103 99 172
0.78255 0.05463 -0.84231 99 96 167
0.79070 0.05119 -0.83861 94 95 158
0.79869 0.04768 -0.83470 93 100 151
0.80518 0.04369 -0.82902 87 95 138
0.81063 0.03936 -0.82213 71 72 111
0.81554 0.02696 -0.81977 30 50 91
0.87303 -0.03427 -0.69059 38 58 91
0.87776 -0.04623 -0.68831 34 71 119
0.89502 -0.03376 -0.70203 46 73 102
0.90491 -0.03657 -0.70053 58 89 125
0.90660 -0.04157 -0.69040 66 96 148
0.92932 -0.04645 -0.69041 72 105 172
0.93871 -0.04943 -0.68832 75 109 184
0.94833 -0.05235 -0.68645 73 114 189
0.95801 -0.05527 -0.68462 69 116 196
0.97279 -0.05694 -0.68791 65 118 200
0.97981 -0.06054 -0.68333 63 119 202
0.98874 -0.06368 -0.68067 65 123 206
0.99576 -0.06728 -0.67610 67 131 210
1.00387 -0.07062 -0.67261 66 128 210
1.00760 -0.07498 -0.66483 64 125 210
1.02203 -0.07685 -0.66753 64 127 210
1.03855 -0.07827 -0.67217 70 133 209
1.05309 -0.08019 -0.67481 71 137 209
1.07136 -0.08131 -0.68095 70 137 212
1.08109 -0.08437 -0.67884 72 141 214
1.07777 -0.09541 -0.65314 75 150 217
1.06251 -0.10376 -0.62776 79 152 217
1.07848 -0.11542 -0.60979 80 149 203
1.08170 -0.11970 -0.60193 77 129 185
1.12092 -0.11675 -0.62680 70 95 164
1.13628 -0.11867 -0.62981 141 150 179
1.14738 -0.11326 -0.62474 225 220 210
1.14425 -0.12208 -0.62611 217 213 203
1.37575 -0.14511 -0.68449 178 131 118
1.37070 -0.15092 -0.66942 174 154 154
1.38736 -0.15811 -0.66153 245 234 227
1.39904 -0.15242 -0.65619 249 244 232
1.39575 -0.16170 -0.65764 250 241 226
1.52147 -0.19180 -0.65090 209 180 176
1.52913 -0.19556 -0.64628 214 197 196
1.53325 -0.19980 -0.63897 240 240 237
1.53842 -0.21286 -0.63648 246 243 237
-0.66180 0.46959 -1.08983 254 246 226
-0.65271 0.47441 -1.10477 248 148 122
-0.54806 0.41005 -1.01299 248 188 155
-0.54120 0.40715 -1.00987 251 232 233
-0.53439 0.40414 -1.00650 253 252 254
-0.52755 0.40119 -1.00326 244 243 247
-0.52339 0.39069 -1.00126 233 223 231
-0.51146 0.40061 -1.00965 240 239 242
-0.50187 0.40529 -1.00527 251 253 254
-0.50458 0.39767 -1.00646 251 253 254
-0.42584 0.32671 -0.88778 253 253 249
-0.43511 0.32219 -0.89202 254 254 254
-0.42845 0.31935 -0.88893 254 254 254
-0.42180 0.31651 -0.88584 254 254 254
-0.41735 0.32690 -0.89223 252 248 239
-0.41330 0.31665 -0.89028 254 254 254
-0.40424 0.32080 -0.88506 253 248 234
-0.39257 0.32584 -0.90172 253 222 182
-0.37908 0.33345 -0.92492 252 150 76
-0.31514 0.34861 -0.98878 252 146 74
-0.28782 0.37386 -1.05740 244 169 147
-0.27727 0.37519 -1.06535 217 179 177
-0.20737 0.40197 -1.15765 147 125 182
-0.21617 0.37783 -1.10030 131 102 130
-0.19650 0.38974 -1.13589 120 48 56
-0.06274 0.23731 -0.86408 209 213 215
-0.06703 0.24814 -0.86615 200 203 210
-0.06980 0.24033 -0.86736 201 201 207
-0.07258 0.23251 -0.86858 200 202 206
-0.05595 0.23405 -0.86014 216 223 222
-0.01853 0.22070 -0.84859 228 234 238
-0.01214 0.21712 -0.84376 219 236 237
-0.00892 0.21101 -0.83186 204 213 217
0.01143 0.21853 -0.85810 169 170 201
0.02005 0.21663 -0.85804 132 116 158
0.03490 0.21952 -0.87148 91 79 134
0.03819 0.21344 -0.85967 97 98 125
0.04605 0.21088 -0.85778 122 102 102
0.05101 0.20615 -0.84972 105 83 90
0.07352 0.21440 -0.87862 133 133 132
0.10274 0.22729 -0.92094 210 214 204
0.10899 0.22326 -0.91503 240 242 237
0.11427 0.21855 -0.90718 239 240 239
0.12995 0.22121 -0.92052 168 167 215
0.13503 0.21635 -0.91224 109 116 209
0.15981 0.22510 -0.94332 192 209 241
0.16856 0.22266 -0.94213 246 252 253
0.18186 0.22327 -0.94981 244 240 243
0.20800 0.23236 -0.98228 201 175 199
0.21759 0.23026 -0.98223 161 124 176
0.24380 0.23897 -1.01392 228 248 254
0.24859 0.22688 -1.01161 254 254 254
0.29251 0.23620 -1.03105 244 242 249
0.28137 0.23077 -1.03613 254 254 254
0.31715 0.24306 -1.05788 178 169 214
0.32207 0.23063 -1.05552 80 98 151
0.31333 0.23231 -1.03240 82 99 155
0.33158 0.23505 -1.04714 79 146 209
0.33850 0.23089 -1.04129 76 145 214
0.41589 0.23451 -1.08616 121 170 225
0.49063 0.14988 -0.93547 197 231 214
0.48578 0.16213 -0.93781 207 231 137
0.48264 0.15330 -0.93918 187 225 214
0.47950 0.14446 -0.94055 201 233 243
0.49377 0.15872 -0.93410 202 225 125
0.50176 0.15531 -0.93039 191 217 126
0.49243 0.14355 -0.92239 198 231 210
0.50351 0.14895 -0.91733 183 209 151
0.50648 0.14300 -0.92787 194 229 212
0.52629 0.14504 -0.94181 202 224 206
0.58077 0.15550 -0.99082 150 159 133
0.62407 0.15301 -1.00599 207 181 147
0.62696 0.14707 -0.99428 130 97 71
0.67289 0.15962 -1.04382 32 12 32
0.68260 0.15648 -1.04153 10 16 59
0.68779 0.14339 -1.03904 24 31 56
0.68391 0.14263 -1.01167 8 14 74
0.68904 0.12967 -1.00920 23 31 61
0.66343 0.11336 -0.93746 8 17 84
0.66842 0.10076 -0.93506 23 36 62
0.67141 0.10975 -0.93332 8 20 87
0.67640 0.09715 -0.93092 22 37 67
0.67166 0.10310 -0.91880 8 18 93
0.67662 0.09056 -0.91641 24 37 67
0.68466 0.10149 -0.92144 8 17 91
0.68964 0.08891 -0.91905 26 40 70
0.68591 0.09530 -0.90842 8 19 92
0.69087 0.08278 -0.90604 23 40 73
0.71033 0.09137 -0.91142 7 19 97
0.71531 0.07879 -0.90902 24 41 79
0.76538 0.07238 -0.89586 8 23 103
0.75391 0.06679 -0.90109 27 44 83
0.76214 0.06328 -0.89727 26 46 82
0.77038 0.05976 -0.89345 25 47 83
0.76633 0.06631 -0.88295 7 23 104
0.77131 0.05374 -0.88055 25 47 88
0.76444 0.05304 -0.85282 11 26 107
0.76937 0.04060 -0.85045 30 49 86
0.77204 0.04321 -0.83481 11 31 113
0.77694 0.03084 -0.83246 28 48 96
0.77710 0.03876 -0.82743 14 32 116
0.78200 0.02641 -0.82508 29 50 97
0.79083 0.03718 -0.83049 15 38 115
0.79574 0.02478 -0.82813 30 54 96
0.79895 0.03374 -0.82679 19 43 112
0.80386 0.02134 -0.82442 31 56 94
0.80700 0.03027 -0.82299 23 49 105
0.81191 0.01788 -0.82063 30 55 89
0.86716 -0.03820 -0.70093 32 60 100
0.87652 -0.04113 -0.69894 34 65 109
0.88127 -0.05313 -0.69666 38 69 121
0.90461 -0.04454 -0.70483 33 76 131
0.90152 -0.05325 -0.70619 37 70 126
0.90940 -0.05662 -0.70253 39 72 128
0.90519 -0.04981 -0.69351 36 75 139
0.90996 -0.06184 -0.69122 41 73 126
0.91054 -0.05381 -0.68725 41 75 140
0.91529 -0.06582 -0.68496 41 71 125
0.92031 -0.05666 -0.68562 43 73 142
0.92507 -0.06869 -0.68333 41 73 128
0.92742 -0.06020 -0.68122 45 72 146
0.93218 -0.07223 -0.67893 42 74 130
0.92918 -0.06507 -0.67135 43 72 148
0.93392 -0.07705 -0.66907 41 75 131
0.95178 -0.06477 -0.68278 37 72 150
0.95656 -0.07685 -0.68048 41 77 130
0.97447 -0.06983 -0.68245 35 76 153
0.97927 -0.08196 -0.68014 35 78 130
0.98672 -0.07218 -0.68313 35 78 154
0.99153 -0.08433 -0.68081 34 79 131
1.00328 -0.07354 -0.68803 37 80 154
1.00811 -0.08575 -0.68571 34 79 130
1.01640 -0.07574 -0.68943 36 79 154
1.02124 -0.08798 -0.68710 35 80 130
1.02650 -0.07867 -0.68781 34 79 154
1.03135 -0.09092 -0.68548 33 82 130
1.04724 -0.08443 -0.68502 37 82 156
1.05210 -0.09671 -0.68268 35 83 133
1.06482 -0.08573 -0.69053 38 84 158
1.06970 -0.09807 -0.68818 38 84 134
1.07101 -0.08957 -0.68502 40 85 161
1.07589 -0.10191 -0.68267 38 85 138
1.07663 -0.09354 -0.67898 42 87 163
1.08151 -0.10585 -0.67664 40 86 141
1.08291 -0.09734 -0.67359 42 87 165
1.08778 -0.10965 -0.67125 46 89 141
1.07598 -0.10900 -0.64462 52 98 164
1.08080 -0.12117 -0.64231 54 93 142
1.08580 -0.11200 -0.64270 54 98 163
1.09063 -0.12418 -0.64038 56 94 142
1.09025 -0.11611 -0.63578 54 97 157
1.09506 -0.12827 -0.63346 62 97 135
1.09398 -0.12034 -0.62824 59 98 147
1.11166 -0.12178 -0.63351 57 93 136
1.12779 -0.12357 -0.63726 44 69 132
1.36137 -0.16117 -0.66585 181 135 108
1.39010 -0.17134 -0.65717 245 239 228
1.38681 -0.18061 -0.65861 218 219 206
1.40178 -0.16565 -0.65184 250 244 231
1.39848 -0.17492 -0.65328 251 242 228
1.45928 -0.19494 -0.63819 253 253 244
1.45086 -0.19134 -0.64210 254 254 248
1.49906 -0.19902 -0.64817 240 222 207
1.52091 -0.20087 -0.65452 215 192 185
1.53047 -0.20438 -0.65134 215 198 194
-0.73061 0.50713 -1.15930 127 132 146
-0.73487 0.51790 -1.16135 134 131 136
-0.74039 0.50237 -1.16376 153 147 147
-0.72785 0.51490 -1.15809 143 136 151
-0.73337 0.49937 -1.16050 145 142 148
-0.72083 0.51190 -1.15483 222 236 242
-0.72412 0.50153 -1.15001 185 194 198
-0.71436 0.50629 -1.14556 252 254 254
-0.71986 0.49079 -1.14797 213 224 238
-0.65739 0.45977 -1.08966 245 144 78
-0.54628 0.39390 -0.99729 249 179 154
-0.53953 0.39085 -0.99379 251 228 224
-0.53162 0.39048 -0.99680 245 239 243
-0.51554 0.38999 -1.00350 240 237 242
-0.50765 0.38926 -1.00570 251 253 254
-0.49807 0.39393 -1.00132 254 254 254
-0.50077 0.38632 -1.00250 254 254 254
-0.50347 0.37871 -1.00369 254 254 254
-0.40527 0.31596 -0.89264 254 254 251
-0.41459 0.31142 -0.89689 254 254 254
-0.40790 0.30856 -0.89379 254 254 254
-0.39589 0.31732 -0.90019 253 240 226
-0.38170 0.32600 -0.92633 251 190 147
-0.36642 0.32262 -0.92622 248 116 8
-0.35666 0.32402 -0.93405 250 125 17
-0.28856 0.35554 -1.03698 190 136 127
-0.20430 0.37533 -1.12171 148 118 134
-0.19884 0.36946 -1.11132 86 37 51
-0.11708 0.24860 -0.88271 109 14 42
-0.12689 0.24382 -0.88719 106 23 39
-0.11985 0.24081 -0.88393 108 21 35
-0.10094 0.25414 -0.90283 111 54 77
-0.06323 0.23149 -0.87083 203 206 213
-0.07309 0.22668 -0.87534 199 200 208
-0.06601 0.22366 -0.87205 201 202 212
-0.05704 0.22770 -0.86541 208 213 220
-0.05038 0.22432 -0.86113 217 222 230
-0.04480 0.22004 -0.85435 221 225 235
-0.03836 0.21651 -0.84963 214 226 234
-0.03025 0.21437 -0.84880 215 229 232
-0.02158 0.21265 -0.84920 209 217 221
-0.00604 0.21643 -0.86510 140 135 163
0.00422 0.21586 -0.86881 113 90 106
0.01377 0.21467 -0.87079 111 89 113
0.02519 0.21488 -0.87679 98 68 88
0.03208 0.21155 -0.87275 109 97 106
0.03599 0.20596 -0.86224 143 137 137
0.05003 0.20803 -0.87362 174 163 149
0.05887 0.20612 -0.87366 187 163 144
0.08849 0.21940 -0.91749 207 191 180
0.09897 0.21845 -0.92045 231 238 239
0.10817 0.21654 -0.92066 228 238 243
0.11596 0.21360 -0.91792 206 217 216
0.12555 0.21192 -0.91882 154 139 151
0.13555 0.21048 -0.92048 106 83 118
0.14874 0.21119 -0.92843 149 159 183
0.16577 0.21440 -0.94382 226 238 245
0.17594 0.21289 -0.94538 234 232 237
0.19612 0.21794 -0.96637 180 152 182
0.22075 0.22574 -0.99559 148 110 160
0.24350 0.23206 -1.02064 225 242 254
0.28257 0.22315 -1.01980 240 236 249
0.31757 0.23630 -1.06592 155 132 212
0.32281 0.22275 -1.03840 84 149 207
0.32986 0.21871 -1.03285 75 146 210
0.45769 0.14845 -0.93883 196 235 249
0.46877 0.15384 -0.93377 183 223 218
0.46252 0.13625 -0.93650 206 236 250
0.48573 0.13309 -0.91833 228 251 248
0.49055 0.12092 -0.91601 220 249 250
0.49966 0.13247 -0.92370 227 252 246
0.51340 0.13170 -0.92864 233 252 243
0.57538 0.14540 -0.98907 181 183 163
0.61051 0.14650 -1.00852 210 204 188
0.60771 0.13811 -0.98855 197 171 139
0.63277 0.14174 -1.00875 119 90 65
0.66457 0.14808 -1.03821 32 14 23
0.67471 0.14513 -1.03657 22 26 51
0.67987 0.13208 -1.03409 27 33 56
0.87070 -0.04508 -0.70941 40 63 111
1.11102 -0.13009 -0.63715 57 88 122
1.12273 -0.13276 -0.63688 40 60 112
1.12555 -0.13715 -0.62850 154 160 164
1.14455 -0.13848 -0.63477 228 220 206
1.14940 -0.15074 -0.63243 244 225 205
1.36831 -0.13358 -0.75399 245 222 199
1.38412 -0.13605 -0.75617 243 218 186
1.35900 -0.17028 -0.66805 219 187 145
1.36738 -0.17386 -0.66417 185 141 114
1.37902 -0.17693 -0.66298 178 165 164
1.40706 -0.18726 -0.65365 248 241 229
1.41875 -0.18156 -0.64831 251 247 237
1.44751 -0.19588 -0.65411 252 248 245
1.46318 -0.20327 -0.64531 247 238 230
1.46831 -0.21621 -0.64284 233 208 198
1.51979 -0.21002 -0.65773 219 196 188
1.50952 -0.21609 -0.63929 223 207 200
-0.72666 0.49483 -1.15366 152 145 161
-0.73642 0.49007 -1.15812 149 148 147
-0.54570 0.37518 -0.97503 249 170 135
-0.53877 0.37272 -0.97295 243 201 202
-0.52963 0.37519 -0.98296 232 215 227
-0.52099 0.37634 -0.98979 240 237 243
-0.51376 0.37433 -0.98883 251 252 253
-0.50962 0.36386 -0.98684 254 254 254
-0.38942 0.31068 -0.90762 252 237 220
-0.37863 0.31391 -0.92015 252 203 148
-0.37353 0.30845 -0.91046 252 169 59
-0.36292 0.31118 -0.92178 252 144 7
-0.35052 0.31632 -0.93937 253 135 12
-0.19971 0.37627 -1.14765 144 129 166
-0.19907 0.36442 -1.12146 105 66 87
-0.11502 0.23573 -0.87494 97 20 48
-0.12481 0.23096 -0.87941 109 24 37
-0.10126 0.23894 -0.88890 157 147 162
-0.07149 0.25657 -0.94298 189 195 201
-0.06708 0.24542 -0.94085 194 196 204
-0.05798 0.22144 -0.87105 204 206 218
-0.06786 0.21663 -0.87556 199 201 212
-0.05159 0.21782 -0.86610 199 210 222
-0.04602 0.21353 -0.85924 183 203 223
-0.02690 0.22047 -0.88415 154 147 208
-0.02768 0.21092 -0.86241 142 135 189
-0.01238 0.21449 -0.87792 165 171 204
-0.01202 0.20600 -0.85912 93 79 151
0.00019 0.20697 -0.86729 115 113 134
0.00655 0.20329 -0.86219 157 154 129
0.02120 0.20601 -0.87548 123 91 74
0.02924 0.20357 -0.87396 113 78 108
0.03173 0.19694 -0.86037 147 114 159
0.06226 0.21122 -0.90733 200 192 202
0.06815 0.20701 -0.90081 221 234 222
0.08172 0.20840 -0.91059 214 220 218
0.09601 0.21020 -0.92165 217 222 228
0.10576 0.20867 -0.92302 180 181 213
0.11226 0.20482 -0.91760 129 122 169
0.12437 0.20488 -0.92369 124 101 107
0.13262 0.20221 -0.92178 110 73 69
0.13916 0.19838 -0.91642 133 138 152
0.16909 0.21023 -0.95765 206 227 232
0.17153 0.20353 -0.94388 213 206 209
0.21514 0.22389 -1.01085 150 99 131
0.22672 0.22295 -1.01446 141 85 126
0.24112 0.22378 -1.02340 216 218 245
0.25108 0.22170 -1.02365 250 252 254
0.26212 0.22708 -1.01861 254 254 254
0.25901 0.21831 -1.01997 254 254 254
0.27006 0.21687 -1.02217 254 254 254
0.27875 0.21393 -1.01988 235 234 247
0.30803 0.22345 -1.05558 126 122 208
0.30950 0.21604 -1.03971 68 85 152
0.31427 0.21066 -1.03003 110 158 206
0.32342 0.20788 -1.02832 79 142 202
0.32858 0.19477 -1.00153 111 170 227
0.33341 0.18256 -0.99920 135 187 237
0.57545 0.13774 -0.99540 179 180 188
0.59691 0.13280 -0.99490 184 180 172
0.62610 0.13105 -1.00533 116 84 62
0.65793 0.13730 -1.03497 31 15 23
0.66612 0.13355 -1.03061 23 30 50
0.67128 0.12053 -1.02813 26 35 58
0.87392 -0.05210 -0.71757 55 81 117
0.87870 -0.06417 -0.71527 55 84 125
1.09595 -0.13626 -0.63853 64 100 135
1.08801 -0.13286 -0.64221 60 98 141
1.08489 -0.14165 -0.64358 65 99 142
1.11333 -0.13785 -0.64352 57 85 109
1.12238 -0.14106 -0.64079 51 63 84
1.13600 -0.14342 -0.64221 179 189 167
1.14261 -0.14710 -0.63723 238 228 210
1.14747 -0.15937 -0.63490 246 228 216
1.37785 -0.14609 -0.75519 249 230 204
1.36581 -0.15196 -0.76068 247 233 220
1.37445 -0.15565 -0.75667 249 235 215
1.34933 -0.18533 -0.65339 222 194 156
1.37086 -0.19173 -0.64968 191 180 166
1.48719 -0.21848 -0.64705 232 208 199
1.48657 -0.22325 -0.63607 235 217 208
-0.72891 0.48955 -1.16068 159 142 150
-0.73870 0.48478 -1.16515 151 139 146
-0.72133 0.48922 -1.16374 176 168 198
-0.71151 0.49400 -1.15926 249 252 254
-0.71428 0.48621 -1.16047 232 240 247
-0.66528 0.43564 -1.07093 246 163 138
-0.53237 0.36751 -0.98370 221 176 193
-0.52655 0.36249 -0.97529 234 225 236
-0.51790 0.36365 -0.98222 250 250 252
-0.38920 0.30762 -0.92019 254 253 250
-0.39866 0.30301 -0.92451 254 254 254
-0.39187 0.30011 -0.92136 254 254 254
-0.38301 0.30381 -0.91468 253 247 227
-0.37705 0.29967 -0.90833 253 229 166
-0.36603 0.30300 -0.92134 253 203 105
-0.35708 0.30313 -0.92611 253 173 60
-0.32563 0.32210 -0.98460 240 124 38
-0.29663 0.33627 -1.03103 182 142 125
-0.21114 0.39636 -1.20923 199 171 202
-0.20201 0.39463 -1.20989 207 192 224
-0.19256 0.38024 -1.18217 175 155 190
-0.19799 0.36092 -1.13589 147 113 121
-0.06747 0.26460 -0.98391 133 116 145
-0.07043 0.25207 -0.95418 180 190 199
-0.05927 0.21487 -0.87588 204 204 205
-0.06916 0.21005 -0.88040 203 203 212
-0.05043 0.21331 -0.87676 150 137 154
-0.04524 0.20867 -0.86889 58 54 112
-0.04047 0.20372 -0.86012 71 91 108
-0.03333 0.20074 -0.85696 76 60 82
-0.02384 0.19964 -0.85924 122 110 139
-0.01335 0.19929 -0.86369 94 81 159
-0.00422 0.19781 -0.86490 116 116 168
0.00582 0.19700 -0.86810 184 185 185
0.01220 0.19333 -0.86301 166 143 131
0.02705 0.19608 -0.87662 143 118 118
0.04361 0.19996 -0.89365 183 182 185
0.04722 0.19414 -0.88234 226 232 229
0.06391 0.19791 -0.89917 193 190 205
0.07299 0.19604 -0.89949 161 157 175
0.08554 0.19661 -0.90705 159 161 183
0.10079 0.19899 -0.92003 127 126 163
0.11261 0.19887 -0.92566 108 90 116
0.12082 0.19618 -0.92371 128 112 121
0.13026 0.19433 -0.92425 153 146 148
0.14665 0.19712 -0.93872 179 173 177
0.16324 0.19990 -0.95328 209 218 219
0.16894 0.19539 -0.94597 185 167 172
0.20161 0.20843 -0.99168 130 61 89
0.20590 0.19464 -0.96274 183 139 174
0.25190 0.21540 -1.03253 235 232 248
0.25974 0.21194 -1.02863 253 253 254
0.26795 0.20870 -1.02544 254 254 253
0.27697 0.20595 -1.02375 231 234 242
0.30400 0.21400 -1.05539 102 120 200
0.30567 0.20674 -1.03986 72 96 166
0.29337 0.19136 -0.99905 177 219 215
0.30909 0.19252 -1.00950 115 152 185
0.31589 0.18845 -1.00374 128 172 220
0.32072 0.17626 -1.00141 109 168 224
0.43112 0.12117 -0.90959 199 229 242
0.43588 0.10915 -0.90730 218 244 250
0.46066 0.11390 -0.90796 188 230 248
0.45757 0.10520 -0.90931 167 222 247
0.46785 0.11023 -0.90327 204 239 249
0.47263 0.09816 -0.90097 205 243 248
0.53515 0.11942 -0.95762 182 215 232
0.58405 0.12661 -0.99826 191 185 168
0.62992 0.12477 -1.01702 106 81 69
0.64802 0.12519 -1.02701 29 18 26
1.09940 -0.14380 -0.64598 65 98 132
1.08830 -0.14921 -0.65105 67 101 138
1.10742 -0.14720 -0.64233 52 76 101
1.11635 -0.15042 -0.63952 83 83 89
1.13191 -0.15245 -0.64272 205 215 185
1.14062 -0.15574 -0.63965 243 230 218
1.14548 -0.16801 -0.63732 241 225 216
1.36862 -0.20080 -0.65196 201 174 161
1.37791 -0.20423 -0.64887 192 176 171
1.38297 -0.21702 -0.64643 196 173 158
-0.73143 0.48298 -1.16475 171 132 135
-0.71243 0.46452 -1.13245 242 249 252
-0.70272 0.46925 -1.12801 254 254 254
-0.70546 0.46154 -1.12921 253 254 254
-0.66697 0.43167 -1.08084 250 183 167
-0.65945 0.43094 -1.08300 242 107 26
-0.53712 0.37360 -1.01471 227 101 53
-0.53201 0.36675 -1.00174 204 116 108
-0.38177 0.30217 -0.93118 254 254 251
-0.39129 0.29753 -0.93552 253 254 254
-0.38446 0.29461 -0.93235 252 254 254
-0.37762 0.29169 -0.92918 253 253 252
-0.37287 0.30232 -0.93603 254 253 239
-0.36297 0.30382 -0.94447 254 248 219
-0.35138 0.30761 -0.95896 254 229 166
-0.34803 0.29954 -0.94230 252 181 92
-0.32526 0.31868 -0.99737 232 125 78
-0.22053 0.37965 -1.18912 196 172 192
-0.20942 0.38051 -1.19671 233 231 243
-0.20431 0.37383 -1.18412 232 226 238
-0.19532 0.37199 -1.18449 224 219 229
-0.12034 0.22037 -0.87789 104 17 42
-0.13013 0.21560 -0.88236 110 26 41
-0.12310 0.21260 -0.87910 107 22 39
-0.06791 0.23916 -0.94720 196 198 203
-0.05776 0.24411 -0.94257 198 199 206
-0.06062 0.23605 -0.94382 200 201 207
-0.06349 0.22798 -0.94507 203 203 206
-0.05991 0.20884 -0.88233 208 207 207
-0.06983 0.20401 -0.88686 207 206 213
-0.04858 0.20930 -0.88913 181 164 151
-0.04864 0.20031 -0.86866 74 72 76
-0.03579 0.19316 -0.85894 111 111 132
-0.02689 0.19158 -0.85985 111 85 93
-0.01729 0.19051 -0.86230 128 117 137
-0.00809 0.18908 -0.86371 134 108 149
0.00301 0.18907 -0.86933 183 180 198
0.01471 0.18945 -0.87611 229 234 215
0.01908 0.17841 -0.87401 232 233 238
0.02287 0.18709 -0.87491 238 239 210
0.03105 0.18473 -0.87368 235 240 226
0.04373 0.18564 -0.88220 232 237 237
0.05775 0.18743 -0.89336 217 215 211
0.07515 0.19152 -0.91149 175 168 152
0.08545 0.19043 -0.91424 130 135 148
0.08994 0.17908 -0.91208 113 109 123
0.09188 0.18659 -0.90877 130 137 168
0.10583 0.18796 -0.91897 135 121 122
0.11720 0.18745 -0.92359 130 122 121
0.13796 0.19322 -0.94723 170 180 190
0.14763 0.19140 -0.94799 203 205 207
0.15992 0.19126 -0.95392 192 186 191
0.17759 0.19456 -0.97038 144 90 105
0.18225 0.18278 -0.96814 115 23 49
0.21291 0.20907 -1.02129 121 28 49
0.22431 0.20795 -1.02454 125 28 70
0.26012 0.21367 -1.05571 197 166 200
0.25721 0.20351 -1.03114 237 246 250
0.26503 0.20003 -1.02719 250 253 252
0.27351 0.19695 -1.02449 225 232 234
0.29247 0.20009 -1.04125 77 116 187
0.29982 0.19626 -1.03628 81 107 174
0.29029 0.18263 -1.00045 207 245 244
0.30015 0.18037 -1.00032 221 231 224
0.30664 0.17617 -0.99407 141 168 210
0.31339 0.16437 -0.97066 131 170 224
0.32691 0.16412 -0.97697 121 172 222
0.36310 0.15306 -0.97019 130 180 228
0.36791 0.14092 -0.96788 135 185 233
0.37094 0.14964 -0.96638 131 181 233
0.37575 0.13749 -0.96407 130 185 242
0.37804 0.14583 -0.96132 127 185 243
0.38906 0.15120 -0.95629 152 205 244
0.38284 0.13369 -0.95901 124 183 242
0.38982 0.12973 -0.93072 138 194 240
0.38506 0.14176 -0.93301 156 204 239
0.38198 0.13309 -0.93436 139 192 245
0.37890 0.12441 -0.93571 131 186 244
0.39291 0.13841 -0.92937 151 207 235
0.39398 0.12457 -0.92108 141 186 219
0.39676 0.11877 -0.90932 181 200 222
0.40195 0.11419 -0.90153 206 210 221
0.40679 0.10946 -0.89325 201 209 217
0.41776 0.10766 -0.89471 211 230 237
0.43694 0.10269 -0.89314 186 229 247
0.43388 0.09406 -0.89448 177 221 244
0.45867 0.09878 -0.89530 188 235 248
0.46343 0.08677 -0.89301 226 251 251
0.55232 0.11227 -0.97348 193 204 218
0.55634 0.10701 -0.96355 224 213 198
0.58233 0.11105 -0.98593 214 189 162
0.58598 0.10561 -0.97541 147 117 99
0.61739 0.11166 -1.00511 84 58 53
0.64043 0.10709 -1.00640 23 33 56
0.64552 0.09423 -1.00395 33 36 54
0.61092 0.06838 -0.90344 28 39 63
0.60603 0.08073 -0.90579 22 36 55
0.60287 0.07182 -0.90718 26 39 58
0.61409 0.07729 -0.90205 22 37 61
0.62215 0.07385 -0.89831 22 36 60
0.61777 0.06447 -0.89804 32 38 61
0.62898 0.06994 -0.89292 22 35 59
0.62332 0.05365 -0.87624 37 38 63
0.63446 0.05907 -0.87116 24 39 64
0.63669 0.05222 -0.87977 34 36 62
0.64786 0.05766 -0.87467 24 40 71
0.64471 0.04879 -0.87605 28 38 68
1.01218 -0.09887 -0.72687 47 83 126
1.00728 -0.08647 -0.72923 61 88 130
1.00410 -0.09541 -0.73062 59 88 131
1.00092 -0.10435 -0.73201 58 88 130
1.01536 -0.08993 -0.72548 48 84 128
1.02344 -0.09338 -0.72172 38 83 126
1.02194 -0.10196 -0.72479 37 79 119
1.03320 -0.09646 -0.71965 38 83 122
1.02715 -0.10603 -0.71817 35 77 112
1.03840 -0.10055 -0.71303 44 81 121
1.04096 -0.10826 -0.72010 48 80 107
1.05224 -0.10277 -0.71495 44 81 123
1.04906 -0.11173 -0.71634 53 79 110
1.09881 -0.15214 -0.64971 64 94 127
1.10721 -0.15548 -0.64640 44 62 111
1.11352 -0.15919 -0.64116 119 112 125
1.12520 -0.16193 -0.64085 223 225 198
1.13005 -0.17418 -0.63851 239 220 210
1.13319 -0.16535 -0.63714 242 226 217
1.13804 -0.17760 -0.63481 236 221 208
1.33856 -0.20434 -0.65272 227 201 176
1.34360 -0.21707 -0.65030 243 218 198
1.44496 -0.23694 -0.63260 244 236 222
1.46771 -0.28345 -0.53842 246 252 253
1.47905 -0.27792 -0.53324 254 254 254
1.48615 -0.28590 -0.54221 245 249 249
1.49754 -0.28034 -0.53700 254 254 254
1.49016 -0.28980 -0.53536 246 243 246
-0.74123 0.47825 -1.16936 161 145 141
-0.74550 0.48905 -1.17141 150 144 150
-0.74826 0.48126 -1.17262 150 146 155
-0.75103 0.47348 -1.17383 151 151 156
-0.71396 0.46225 -1.14673 214 226 237
-0.70786 0.45530 -1.13395 249 252 254
-0.69814 0.46004 -1.12951 254 254 254
-0.70088 0.45232 -1.13072 254 254 254
-0.67036 0.42159 -1.07602 251 208 187
-0.66420 0.41616 -1.06675 240 119 27
-0.66005 0.40566 -1.06475 234 114 34
-0.54602 0.37049 -1.02299 254 132 33
-0.55290 0.37343 -1.02618 254 129 45
-0.55560 0.36582 -1.02736 254 126 34
-0.54872 0.36288 -1.02417 254 129 23
-0.54013 0.36531 -1.01416 235 114 24
-0.53600 0.35629 -0.99561 206 91 34
-0.52747 0.35712 -1.00190 198 111 88
-0.52198 0.35129 -0.99137 221 175 166
-0.51847 0.34145 -0.97064 243 231 229
-0.51154 0.33888 -0.96832 251 251 252
-0.50211 0.34348 -0.96401 254 254 254
-0.50477 0.33599 -0.96518 254 254 254
-0.35793 0.29446 -0.94567 253 245 217
-0.34882 0.29461 -0.95072 245 201 170
-0.32900 0.30950 -0.99506 208 94 93
-0.21249 0.37187 -1.19805 216 229 247
-0.20412 0.36923 -1.19631 216 219 239
-0.19838 0.36337 -1.18583 214 216 238
-0.11692 0.20883 -0.87363 97 29 57
-0.12670 0.20406 -0.87810 111 23 38
-0.06116 0.20226 -0.88731 209 208 214
-0.07110 0.19742 -0.89185 205 208 215
-0.06396 0.19437 -0.88854 206 209 217
-0.05471 0.19865 -0.88237 207 199 186
-0.05192 0.19206 -0.86870 105 87 102
-0.04567 0.18835 -0.86342 93 91 119
-0.03025 0.18328 -0.85974 128 88 119
-0.01406 0.18733 -0.87737 171 166 171
0.00165 0.19084 -0.89352 199 190 182
0.00811 0.18717 -0.88843 218 217 216
0.01473 0.18362 -0.88373 229 233 237
0.02998 0.17804 -0.87879 217 227 235
0.04415 0.17999 -0.89056 189 197 226
0.05586 0.18006 -0.89675 186 191 204
0.08256 0.18226 -0.91556 104 117 109
0.10373 0.18029 -0.92195 129 108 120
0.11945 0.18270 -0.93558 177 176 182
0.13334 0.18375 -0.94515 209 219 218
0.14343 0.18221 -0.94681 194 193 199
0.14914 0.17777 -0.93957 146 118 125
0.23702 0.19250 -1.01862 133 73 112
0.26701 0.20259 -1.05722 164 197 211
0.26227 0.19146 -1.02926 214 235 244
0.27628 0.19166 -1.03694 207 218 222
0.28113 0.17940 -1.03461 84 105 169
0.28857 0.19078 -1.04125 65 108 172
0.29573 0.18684 -1.03592 67 123 188
0.28911 0.17499 -1.00536 171 232 247
0.29704 0.17161 -1.00169 209 232 243
0.30481 0.16814 -0.99774 118 161 219
0.30416 0.15999 -0.97872 104 173 231
0.30193 0.15107 -0.95714 194 219 243
0.31430 0.15022 -0.96155 171 208 243
0.32406 0.14038 -0.94404 227 224 241
0.34031 0.14150 -0.95499 171 201 241
0.38183 0.11864 -0.92399 132 186 242
0.37095 0.11334 -0.92896 152 202 246
0.38626 0.11366 -0.91486 167 205 238
0.38717 0.10701 -0.90009 205 225 244
0.39075 0.10171 -0.88978 217 228 245
0.39844 0.09839 -0.88614 210 225 244
0.41010 0.09691 -0.88877 208 231 249
0.42249 0.09574 -0.89245 204 235 250
0.44624 0.09278 -0.89793 187 230 247
0.45100 0.08078 -0.89564 219 252 252
0.56385 0.09557 -0.96494 230 212 184
0.57540 0.09348 -0.96609 179 145 115
0.62475 0.10677 -1.02198 93 60 55
0.62408 0.09951 -1.00501 36 27 26
0.63439 0.09672 -1.00392 33 38 51
0.61459 0.06207 -0.91431 47 61 85
0.62416 0.05917 -0.91260 60 83 97
0.62907 0.04676 -0.91023 84 88 98
0.63775 0.05129 -0.90154 83 90 105
0.63906 0.04536 -0.88862 66 72 87
0.64147 0.03989 -0.87732 37 40 68
0.65265 0.04533 -0.87222 26 40 68
0.64861 0.03614 -0.87241 32 43 76
0.65978 0.04158 -0.86731 26 41 73
0.65504 0.03216 -0.86659 38 44 82
0.66620 0.03759 -0.86150 25 43 68
0.66564 0.02963 -0.86628 35 43 81
0.67681 0.03508 -0.86117 25 43 74
0.67353 0.02616 -0.86238 32 43 83
0.68470 0.03160 -0.85728 28 45 73
0.68482 0.02385 -0.86291 39 49 81
0.69602 0.02931 -0.85780 26 47 84
0.69286 0.02041 -0.85918 38 50 81
1.01790 -0.11109 -0.72532 38 72 108
1.02281 -0.12349 -0.72296 42 62 88
1.02226 -0.11533 -0.71784 35 63 94
1.02716 -0.12771 -0.71548 47 60 84
1.03278 -0.11827 -0.71653 46 64 89
1.03769 -0.13066 -0.71417 57 66 94
1.09340 -0.15651 -0.66012 66 102 135
1.08854 -0.14424 -0.66246 62 99 140
1.08540 -0.15309 -0.66384 63 100 141
1.08225 -0.16194 -0.66521 64 101 142
1.09848 -0.16046 -0.65370 61 89 117
1.10796 -0.16361 -0.65137 43 57 101
1.11447 -0.16729 -0.64629 154 152 151
1.31172 -0.21680 -0.63448 244 220 202
1.31670 -0.22939 -0.63208 246 231 215
1.46964 -0.25209 -0.63500 240 234 237
-0.74395 0.47069 -1.17110 173 153 140
