ply
format ascii 1.0
element face 0
property list uchar int vertex_indices
element vertex 1314
property float x
property float y
property float z
property uchar diffuse_red
property uchar diffuse_green
property uchar diffuse_blue
end_header
0.44598 -0.19283 -0.73930 59 62 83
0.45010 -0.19985 -0.73407 61 62 83
0.45753 -0.19207 -0.73352 62 64 77
0.48386 -0.24265 -0.69197 68 68 82
0.48703 -0.25018 -0.68491 74 72 83
0.49077 -0.25739 -0.67897 87 86 94
0.49595 -0.26381 -0.67583 112 123 125
0.50198 -0.26979 -0.67432 140 154 142
0.52304 -0.28636 -0.67521 95 106 134
0.53137 -0.30047 -0.66476 48 35 49
0.53670 -0.30695 -0.66174 60 35 46
0.55468 -0.30728 -0.68223 104 70 74
0.56116 -0.31333 -0.68116 147 120 116
0.54176 -0.33166 -0.63232 197 183 173
0.57395 -0.33470 -0.66553 254 253 243
0.57253 -0.34858 -0.66480 254 254 254
0.57818 -0.34184 -0.66026 254 254 252
0.57676 -0.35572 -0.65954 254 254 254
0.57020 -0.44140 -0.50871 253 252 248
0.56076 -0.44098 -0.51827 254 254 254
0.57903 -0.44647 -0.51177 221 211 192
0.59889 -0.44750 -0.53346 60 38 80
0.60770 -0.45276 -0.53622 52 72 92
0.60631 -0.46636 -0.53551 63 74 87
0.61421 -0.51730 -0.45161 33 41 67
0.62363 -0.52250 -0.45517 188 229 213
0.62392 -0.53056 -0.44399 150 159 234
0.62936 -0.53704 -0.44108 220 231 228
0.62799 -0.55042 -0.44038 254 254 254
0.63461 -0.54358 -0.43786 254 254 254
0.63324 -0.55697 -0.43716 254 254 254
0.79883 -0.91152 -0.10373 250 253 253
0.80016 -0.89853 -0.10441 252 252 252
0.79491 -0.90482 -0.10872 253 252 253
0.80409 -0.90523 -0.09942 252 252 252
0.83754 -0.93092 -0.12116 163 151 154
0.85688 -0.93740 -0.13445 108 99 116
0.85552 -0.95073 -0.13375 84 77 74
1.05520 -1.00920 -0.26321 48 42 56
1.05668 -0.99464 -0.26397 84 84 58
1.04491 -1.00874 -0.27363 43 41 51
1.04931 -1.01625 -0.26804 40 39 47
1.05371 -1.02375 -0.26245 33 38 39
1.06240 -1.01677 -0.26079 38 36 41
1.06091 -1.03135 -0.26003 26 37 28
0.46984 -0.23538 -0.70631 73 71 83
0.47122 -0.22179 -0.70702 75 75 75
0.46573 -0.22838 -0.71153 76 77 84
0.47323 -0.24280 -0.69967 75 68 84
0.47638 -0.25034 -0.69256 93 88 106
0.47883 -0.25825 -0.68408 115 121 136
0.48448 -0.26440 -0.68191 143 154 155
0.48919 -0.27107 -0.67789 152 167 162
0.49473 -0.27731 -0.67545 130 148 142
0.53961 -0.30025 -0.69541 105 73 70
0.54913 -0.30476 -0.70014 148 122 108
0.53643 -0.32012 -0.66313 203 187 176
0.55041 -0.32250 -0.67618 245 231 220
0.54899 -0.33633 -0.67545 254 254 254
0.55435 -0.33881 -0.65741 254 254 251
0.55295 -0.35259 -0.65669 254 254 254
0.56257 -0.44872 -0.50929 249 250 246
0.55314 -0.44830 -0.51884 254 254 254
0.56253 -0.45713 -0.49717 199 202 186
0.58589 -0.45684 -0.52512 55 40 65
0.59309 -0.46266 -0.52525 51 73 90
0.59171 -0.47617 -0.52454 62 72 86
0.59551 -0.51986 -0.44597 59 61 59
0.58613 -0.51944 -0.45547 63 72 77
0.59415 -0.53313 -0.44528 33 41 73
0.60115 -0.52619 -0.44353 33 41 71
0.61207 -0.53089 -0.44965 188 225 219
0.62134 -0.54430 -0.44133 220 237 237
0.61997 -0.55765 -0.44063 254 254 254
0.78043 -0.90464 -0.11144 251 253 253
0.78175 -0.89170 -0.11212 253 253 253
0.77651 -0.89796 -0.11641 253 253 253
0.78566 -0.89837 -0.10714 252 252 252
0.78212 -0.91140 -0.10373 242 251 246
0.80761 -0.91732 -0.12526 218 219 211
0.80851 -0.92417 -0.11649 174 159 159
0.84646 -0.94394 -0.13281 80 71 74
0.84510 -0.95723 -0.13212 92 89 71
0.42373 -0.19079 -0.73632 63 63 71
0.41965 -0.18383 -0.74151 68 64 73
0.41419 -0.19037 -0.74599 68 65 83
0.42920 -0.18425 -0.73184 50 54 62
0.42235 -0.20430 -0.73561 72 78 88
0.45947 -0.23540 -0.71449 81 74 94
0.46085 -0.22182 -0.71520 75 78 86
0.45536 -0.22840 -0.71971 72 72 82
0.45839 -0.24537 -0.69883 96 97 117
0.46290 -0.25212 -0.69447 119 125 139
0.47242 -0.26533 -0.68673 148 163 176
0.48504 -0.27693 -0.68502 98 96 126
0.47813 -0.28977 -0.65827 69 53 86
0.48400 -0.29579 -0.65657 48 39 55
0.52425 -0.31178 -0.68141 203 189 176
0.53388 -0.31620 -0.68651 245 234 217
0.53247 -0.33000 -0.68579 254 254 254
0.53651 -0.32406 -0.67830 254 254 242
0.53510 -0.33784 -0.67758 254 254 254
0.55304 -0.45675 -0.50653 242 245 244
0.54364 -0.45633 -0.51605 254 254 253
0.55080 -0.46593 -0.49062 159 176 178
0.57179 -0.46654 -0.51473 51 41 51
0.57042 -0.47993 -0.51403 60 72 83
0.57506 -0.47373 -0.50825 54 73 85
0.57369 -0.48712 -0.50755 65 75 89
0.58118 -0.52914 -0.43559 61 64 60
0.60188 -0.53882 -0.44626 187 216 221
0.60190 -0.54689 -0.43464 152 119 221
0.61389 -0.55137 -0.44245 221 245 246
0.61253 -0.56471 -0.44175 254 254 254
0.76610 -0.89762 -0.12409 252 254 254
0.76743 -0.88469 -0.12477 253 253 253
0.76220 -0.89095 -0.12906 253 253 253
0.77134 -0.89135 -0.11980 253 253 253
0.79113 -0.91029 -0.13561 224 219 216
0.79028 -0.91719 -0.12463 183 166 173
0.82328 -0.92998 -0.14546 94 77 80
0.82193 -0.94322 -0.14477 89 84 67
0.83794 -0.93657 -0.15340 82 69 70
0.83658 -0.94989 -0.15271 93 89 73
0.85087 -0.95025 -0.14907 91 85 72
0.84547 -0.95672 -0.15350 92 89 74
0.44215 -0.23011 -0.72199 80 73 83
0.44755 -0.23633 -0.71947 96 91 98
0.44559 -0.24682 -0.70189 124 126 131
0.44770 -0.25490 -0.69273 149 155 162
0.45362 -0.26081 -0.69127 149 157 171
0.46353 -0.26453 -0.69781 127 133 152
0.46215 -0.27808 -0.69710 50 37 59
0.47369 -0.26819 -0.70471 93 87 118
0.46642 -0.28138 -0.67684 63 48 83
0.46987 -0.29778 -0.65721 69 43 66
0.48767 -0.30670 -0.66569 150 133 123
0.50742 -0.30576 -0.69080 207 189 187
0.52033 -0.30846 -0.70240 246 237 221
0.51892 -0.32227 -0.70168 254 254 254
0.52433 -0.31566 -0.69678 254 254 242
0.52292 -0.32946 -0.69606 254 254 254
0.52830 -0.32288 -0.69109 254 254 252
0.52689 -0.33668 -0.69037 254 254 254
0.54405 -0.46454 -0.50465 234 238 238
0.54634 -0.47201 -0.49656 114 136 156
0.55906 -0.47568 -0.50654 51 41 39
0.55770 -0.48900 -0.50585 63 73 87
0.56319 -0.52346 -0.44222 60 71 83
0.56453 -0.51033 -0.44291 64 75 85
0.55391 -0.52305 -0.45163 60 56 71
0.56850 -0.51710 -0.43786 64 72 81
0.56907 -0.52962 -0.44037 57 65 72
0.57270 -0.53652 -0.43474 59 51 53
0.57734 -0.54309 -0.43078 46 45 75
0.58822 -0.54778 -0.43707 191 212 222
0.59703 -0.55317 -0.43985 158 106 204
0.60221 -0.55967 -0.43665 222 248 249
0.60085 -0.57295 -0.43596 254 254 254
0.74781 -0.89082 -0.13161 253 254 254
0.74913 -0.87793 -0.13229 253 253 253
0.74392 -0.88417 -0.13657 254 254 254
0.75303 -0.88458 -0.12734 253 253 253
0.75524 -0.89730 -0.13115 246 253 248
0.76856 -0.90355 -0.13811 228 228 222
0.76330 -0.91061 -0.12154 192 181 181
0.76608 -0.91731 -0.11516 140 120 131
0.76476 -0.93022 -0.11449 78 72 69
0.80298 -0.92295 -0.15137 100 77 94
0.80164 -0.93613 -0.15068 88 83 70
0.81461 -0.92955 -0.15579 83 71 75
0.81326 -0.94279 -0.15509 94 88 67
0.41718 -0.22013 -0.72692 70 72 72
0.41311 -0.21319 -0.73209 68 76 82
0.42263 -0.21361 -0.72245 75 78 86
0.42362 -0.22565 -0.72670 81 76 78
0.43377 -0.22897 -0.73419 98 101 108
0.43273 -0.23899 -0.71832 121 130 133
0.43596 -0.24645 -0.71137 145 153 158
0.43713 -0.25509 -0.70021 146 153 165
0.44764 -0.25837 -0.70820 123 123 144
0.44626 -0.27190 -0.70749 54 34 68
0.45876 -0.26141 -0.71727 88 79 114
0.45785 -0.27121 -0.70189 58 48 77
0.47486 -0.28966 -0.69568 108 78 88
0.48645 -0.30195 -0.69184 211 196 182
0.48506 -0.31559 -0.69113 254 254 254
0.50181 -0.30325 -0.70860 247 244 228
0.50040 -0.31701 -0.70788 254 254 254
0.50851 -0.30907 -0.70827 254 254 245
0.50710 -0.32285 -0.70755 254 254 254
0.51421 -0.31542 -0.70594 254 254 253
0.51280 -0.32921 -0.70522 254 254 254
0.53233 -0.46501 -0.50999 254 254 252
0.53368 -0.45177 -0.51069 254 254 254
0.52833 -0.45818 -0.51508 254 254 254
0.52298 -0.46459 -0.51947 254 254 254
0.53536 -0.47220 -0.50319 228 234 231
0.53483 -0.48067 -0.49020 81 114 141
0.55028 -0.48335 -0.50507 52 43 39
0.55354 -0.53123 -0.43927 57 53 71
0.56007 -0.53717 -0.43854 57 61 77
0.56231 -0.54447 -0.43062 77 65 87
0.57915 -0.54728 -0.44698 108 92 126
0.57923 -0.55528 -0.43544 209 218 219
0.58772 -0.56076 -0.43776 170 117 186
0.59207 -0.56747 -0.43327 226 249 251
0.59072 -0.58071 -0.43258 254 254 254
0.73621 -0.89055 -0.13761 248 253 250
0.73752 -0.87768 -0.13829 254 254 254
0.73231 -0.88391 -0.14256 254 254 254
0.74491 -0.89695 -0.13886 234 235 232
0.76411 -0.90293 -0.15348 201 195 200
0.76726 -0.90968 -0.14746 148 139 146
0.76593 -0.92271 -0.14678 76 72 72
0.78578 -0.91588 -0.16093 105 91 101
0.78444 -0.92903 -0.16024 87 83 74
0.78769 -0.92272 -0.15328 84 71 79
0.78635 -0.93586 -0.15259 93 88 70
2.32804 -1.44433 -1.26440 17 15 12
2.32106 -1.43242 -1.27326 18 26 28
2.31172 -1.44361 -1.28093 22 30 35
2.33738 -1.43315 -1.25673 9 9 5
2.34436 -1.44505 -1.24786 6 7 7
2.33502 -1.45623 -1.25553 11 9 8
2.15455 -1.52841 -0.93115 10 16 18
2.15673 -1.50712 -0.93226 10 14 11
2.13951 -1.52774 -0.94639 13 30 36
2.16317 -1.51810 -0.92408 9 10 10
2.16960 -1.52908 -0.91591 8 9 10
2.16099 -1.53939 -0.92297 9 11 12
0.40108 -0.21434 -0.73634 67 65 71
0.40245 -0.20090 -0.73704 74 75 89
0.39702 -0.20741 -0.74150 69 73 85
0.40651 -0.20783 -0.73188 70 76 87
0.40954 -0.23737 -0.71299 127 135 131
0.42448 -0.23780 -0.73070 143 154 153
0.42617 -0.24618 -0.72051 135 148 154
0.42677 -0.25515 -0.70810 111 117 142
0.42539 -0.26860 -0.70739 59 38 66
0.43808 -0.25795 -0.71788 84 74 109
0.44163 -0.26522 -0.71159 59 42 76
0.46644 -0.27934 -0.72135 114 87 97
0.46232 -0.29080 -0.69953 164 142 143
0.48467 -0.29743 -0.71726 248 246 232
0.48327 -0.31115 -0.71654 254 254 254
0.48776 -0.30505 -0.70989 254 254 245
0.48636 -0.31875 -0.70917 254 254 254
0.52166 -0.47341 -0.50494 254 254 252
0.51234 -0.47300 -0.51438 254 254 254
0.52534 -0.48032 -0.49933 226 230 230
0.52936 -0.48711 -0.49434 69 96 140
0.54136 -0.49105 -0.50328 53 32 33
0.53772 -0.50056 -0.48489 59 56 70
0.54704 -0.50098 -0.47545 61 74 88
0.53764 -0.50876 -0.47279 55 56 73
0.54693 -0.50917 -0.46338 65 71 83
0.54162 -0.51554 -0.46774 59 64 81
0.53802 -0.53286 -0.43797 105 74 87
0.55121 -0.54464 -0.43691 144 142 147
0.54445 -0.55469 -0.41389 167 167 186
0.56429 -0.55657 -0.43549 206 192 217
0.56826 -0.56334 -0.43044 221 215 204
0.57787 -0.56847 -0.43471 183 133 142
0.58246 -0.57510 -0.43065 232 250 253
0.58111 -0.58829 -0.42996 254 254 254
0.71609 -0.88392 -0.14241 249 254 250
0.71740 -0.87111 -0.14308 254 254 254
0.71222 -0.87732 -0.14733 254 254 254
0.72127 -0.87772 -0.13816 254 254 254
0.73444 -0.89661 -0.14635 207 204 198
0.75067 -0.90271 -0.15734 156 149 149
0.76843 -0.90885 -0.17014 116 100 118
0.76709 -0.92197 -0.16945 87 80 77
0.77426 -0.91555 -0.16749 86 73 89
0.77292 -0.92868 -0.16681 93 86 74
2.30704 -1.46448 -1.24462 20 15 10
2.32326 -1.46520 -1.22818 8 8 12
2.31398 -1.47631 -1.23580 11 10 10
2.12044 -1.53384 -0.91406 13 27 33
2.11190 -1.54406 -0.92107 15 31 42
2.13721 -1.54675 -0.91575 12 18 21
2.15218 -1.54741 -0.90058 9 10 10
2.14361 -1.55767 -0.90761 10 13 11
0.38769 -0.21637 -0.73751 74 76 92
0.38632 -0.22977 -0.73681 140 155 138
0.39774 -0.21954 -0.74531 98 104 108
0.40360 -0.24417 -0.71633 131 149 144
0.42297 -0.24201 -0.74353 104 109 129
0.41687 -0.25496 -0.71691 73 67 101
0.45105 -0.28206 -0.71940 173 146 153
0.47693 -0.27731 -0.75848 226 205 195
0.47552 -0.29114 -0.75775 254 254 254
0.46230 -0.29446 -0.71508 250 249 232
0.46090 -0.30809 -0.71437 254 254 254
0.47080 -0.29919 -0.71868 254 254 243
0.46941 -0.31286 -0.71796 254 254 254
0.51281 -0.48110 -0.50303 254 253 252
0.50351 -0.48069 -0.51244 254 254 254
0.51709 -0.48777 -0.49852 230 220 232
0.52550 -0.49296 -0.50130 97 74 151
0.53711 -0.49708 -0.50965 81 50 64
0.52333 -0.51009 -0.47342 107 72 96
0.54609 -0.51044 -0.50112 129 105 110
0.53639 -0.52188 -0.47226 138 135 145
0.50900 -0.53896 -0.41316 163 162 175
0.51652 -0.54441 -0.41447 206 188 188
0.51520 -0.55729 -0.41379 250 254 254
0.53610 -0.54608 -0.43629 244 235 222
0.54272 -0.55197 -0.43582 254 249 232
0.54759 -0.55842 -0.43238 254 253 243
0.55177 -0.56508 -0.42774 244 245 244
0.55144 -0.57308 -0.41556 191 176 192
0.56762 -0.57627 -0.43093 203 163 132
0.57288 -0.58268 -0.42801 244 252 254
0.57154 -0.59584 -0.42732 254 254 254
0.69220 -0.87761 -0.14189 250 254 252
0.69349 -0.86490 -0.14255 254 254 254
0.68835 -0.87105 -0.14677 254 254 254
0.69734 -0.87145 -0.13767 254 254 254
0.70400 -0.88370 -0.14756 239 246 237
0.71857 -0.88971 -0.15678 213 212 198
0.73403 -0.90264 -0.15691 121 109 111
0.76089 -0.90837 -0.18178 86 74 78
0.75955 -0.92150 -0.18110 92 87 76
0.77496 -0.91477 -0.18980 77 69 73
0.77361 -0.92798 -0.18911 93 88 75
0.88062 -0.96912 -0.24080 48 46 48
0.88203 -0.95531 -0.24152 87 86 63
0.87645 -0.96200 -0.24611 62 60 53
0.87503 -0.97581 -0.24538 30 34 43
0.89039 -0.96955 -0.23091 60 58 54
0.87921 -0.98294 -0.24008 31 33 38
0.88462 -0.97625 -0.23527 38 36 44
0.89438 -0.97668 -0.22538 48 45 51
0.88321 -0.99006 -0.23455 30 29 34
2.33475 -1.35933 -1.46918 14 11 6
2.33718 -1.33552 -1.47043 16 14 12
2.31792 -1.35858 -1.48623 23 28 26
2.34437 -1.34780 -1.46128 10 9 5
2.35157 -1.36008 -1.45214 6 6 5
2.34194 -1.37161 -1.46004 9 6 6
2.32014 -1.39132 -1.40400 11 8 15
2.32255 -1.36779 -1.40523 6 4 5
2.31303 -1.37919 -1.41304 8 5 9
2.32966 -1.37993 -1.39619 6 4 7
2.33678 -1.39206 -1.38715 7 5 7
2.33805 -1.40494 -1.40615 17 14 19
2.28459 -1.47346 -1.23905 27 25 19
2.29034 -1.48506 -1.22911 17 16 13
2.30649 -1.48577 -1.21276 8 8 8
2.29725 -1.49684 -1.22034 10 10 7
2.09752 -1.53164 -0.92152 12 28 38
2.09967 -1.51059 -0.92262 12 24 30
2.08264 -1.53098 -0.93659 10 13 12
2.11602 -1.55450 -0.91082 15 25 29
2.10749 -1.56471 -0.91782 14 24 35
2.11387 -1.57559 -0.90972 11 19 27
0.37426 -0.20899 -0.75244 76 75 90
0.37239 -0.21966 -0.73431 96 100 114
0.36480 -0.23384 -0.70384 123 133 134
0.38087 -0.24249 -0.71117 126 137 132
0.39917 -0.24071 -0.73674 101 96 124
0.40308 -0.25706 -0.71744 47 42 71
0.41053 -0.26200 -0.71946 57 39 64
0.41935 -0.26620 -0.72429 87 53 65
0.42476 -0.27240 -0.72190 124 95 106
0.46466 -0.26881 -0.77718 231 213 199
0.46325 -0.28266 -0.77646 254 254 254
0.44459 -0.28916 -0.72194 251 251 236
0.44320 -0.30275 -0.72123 254 254 254
0.44954 -0.29571 -0.71845 254 254 246
0.44815 -0.30931 -0.71774 254 254 254
0.50438 -0.48862 -0.50180 254 252 252
0.49511 -0.48821 -0.51120 254 254 254
0.49907 -0.49497 -0.50616 254 254 254
0.50817 -0.49545 -0.49645 243 225 236
0.51303 -0.50189 -0.49301 181 128 191
0.51700 -0.50866 -0.48796 170 161 172
0.51101 -0.51884 -0.46540 208 185 212
0.51762 -0.52466 -0.46507 244 234 220
0.52058 -0.53172 -0.45834 253 249 231
0.52380 -0.53868 -0.45209 254 253 241
0.52559 -0.54609 -0.44337 254 254 245
0.53744 -0.55829 -0.44015 244 252 252
0.53915 -0.56569 -0.43134 239 247 232
0.53782 -0.57873 -0.43066 199 148 139
0.54468 -0.57194 -0.42903 219 202 194
0.54749 -0.57900 -0.42211 164 142 211
0.55330 -0.58520 -0.42022 227 215 206
0.55196 -0.59825 -0.41954 254 254 254
0.56129 -0.59080 -0.42194 254 254 254
0.55996 -0.60389 -0.42126 254 254 254
0.67051 -0.87126 -0.14388 251 254 254
0.67180 -0.85862 -0.14455 254 254 254
0.66668 -0.86474 -0.14874 254 254 254
0.66157 -0.87087 -0.15294 244 252 246
0.67562 -0.86514 -0.13969 254 254 254
0.67481 -0.87775 -0.13968 243 250 246
0.71201 -0.88229 -0.17955 220 219 212
0.70627 -0.88948 -0.16172 172 173 167
0.71131 -0.89605 -0.15833 130 115 111
0.73978 -0.90155 -0.18584 89 78 72
0.75147 -0.90796 -0.19100 74 69 72
0.75013 -0.92109 -0.19031 92 88 79
0.76311 -0.91445 -0.19598 85 79 75
0.76177 -0.92764 -0.19529 90 89 76
2.30369 -1.39061 -1.42104 16 15 18
2.30969 -1.40259 -1.41083 22 24 30
2.32861 -1.41639 -1.41411 31 31 36
2.32619 -1.44001 -1.41287 40 44 49
2.24934 -1.46965 -1.23607 33 33 42
2.25438 -1.48106 -1.22551 35 36 35
2.26655 -1.49366 -1.22211 27 26 21
2.28169 -1.50681 -1.22162 14 14 8
2.29780 -1.50752 -1.20530 9 8 9
2.28858 -1.51857 -1.21286 9 9 8
2.07977 -1.54002 -0.91961 10 19 23
2.06494 -1.53936 -0.93464 10 10 7
2.07128 -1.55018 -0.92658 9 12 12
2.08177 -1.54998 -0.90741 12 24 34
2.07963 -1.57093 -0.90631 10 16 30
0.35634 -0.19499 -0.77152 67 61 72
0.35770 -0.18160 -0.77222 64 65 74
0.35229 -0.18809 -0.77666 66 64 75
0.34687 -0.19457 -0.78111 87 85 106
0.36175 -0.18851 -0.76707 62 64 72
0.35300 -0.21623 -0.73572 99 101 105
0.35907 -0.22175 -0.73521 117 126 126
0.36260 -0.22890 -0.72904 123 141 137
0.38160 -0.23582 -0.74279 92 84 111
0.39047 -0.24919 -0.73414 48 39 50
0.39503 -0.25580 -0.73007 64 40 53
0.39890 -0.26283 -0.72453 89 53 64
0.39743 -0.27294 -0.70763 127 100 111
0.42606 -0.28441 -0.72681 253 253 237
0.42468 -0.29794 -0.72610 254 254 254
0.43035 -0.29128 -0.72202 254 254 247
0.42897 -0.30482 -0.72131 254 254 254
0.50107 -0.50244 -0.49757 253 253 250
0.49181 -0.50203 -0.50695 254 254 253
0.50603 -0.50884 -0.49433 250 246 241
0.51116 -0.51520 -0.49137 250 253 242
0.51315 -0.52264 -0.48284 250 253 253
0.51293 -0.53079 -0.47044 246 253 254
0.51900 -0.55281 -0.44538 231 216 246
0.52082 -0.56017 -0.43674 224 208 229
0.53163 -0.57268 -0.43182 194 204 176
0.54228 -0.58530 -0.42654 201 182 234
0.54095 -0.59833 -0.42586 254 254 254
0.54886 -0.59128 -0.42598 241 252 248
0.54753 -0.60434 -0.42529 254 254 254
0.69132 -0.88258 -0.17317 187 186 186
0.69018 -0.88947 -0.16147 141 124 127
0.68887 -0.90226 -0.16080 82 74 70
0.71638 -0.89492 -0.18651 93 77 86
0.72576 -0.90136 -0.18881 75 64 72
0.72443 -0.91438 -0.18813 94 89 78
0.75132 -0.91413 -0.20217 92 86 77
0.74998 -0.92730 -0.20148 88 88 70
2.30198 -1.39188 -1.45379 25 27 33
2.30250 -1.40316 -1.43768 30 33 30
2.31169 -1.41562 -1.43078 37 43 42
2.30927 -1.43924 -1.42954 47 50 66
2.31559 -1.42733 -1.41831 42 44 54
2.31318 -1.45092 -1.41708 45 49 55
2.25314 -1.45075 -1.30449 44 48 53
2.23691 -1.45003 -1.32093 46 50 54
2.24385 -1.46187 -1.31211 48 54 60
2.25080 -1.47371 -1.30329 49 55 67
2.24075 -1.45951 -1.27578 44 51 59
2.23842 -1.48232 -1.27459 48 51 67
2.23242 -1.47936 -1.23574 47 44 61
2.23011 -1.50201 -1.23455 52 61 66
2.23782 -1.49079 -1.22557 46 50 53
2.25007 -1.50341 -1.22232 38 41 35
2.27087 -1.51757 -1.22758 23 24 18
2.28341 -1.53034 -1.22446 12 13 10
2.29954 -1.53105 -1.20812 9 8 11
2.29031 -1.54211 -1.21569 9 10 9
2.28108 -1.55316 -1.22327 12 11 12
1.78028 -1.71834 -0.30843 33 31 38
1.76772 -1.71778 -0.32116 21 25 25
1.79256 -1.72951 -0.30736 54 51 55
1.79074 -1.74732 -0.30643 72 71 62
0.33933 -0.20917 -0.74967 103 105 111
0.32996 -0.20875 -0.75916 122 134 137
0.34355 -0.21587 -0.74505 119 128 131
0.34619 -0.22359 -0.73688 121 132 133
0.35502 -0.22734 -0.74256 106 109 121
0.35366 -0.24064 -0.74186 57 38 53
0.36437 -0.23083 -0.74929 78 77 89
0.36926 -0.23719 -0.74604 50 51 68
0.37604 -0.24240 -0.74692 50 39 55
0.38066 -0.24897 -0.74301 75 44 44
0.37929 -0.26237 -0.74231 209 191 175
0.38918 -0.27183 -0.71975 201 176 170
0.40247 -0.27340 -0.73439 245 230 213
0.40109 -0.28686 -0.73369 254 254 254
0.40764 -0.27971 -0.73156 254 253 240
0.40626 -0.29320 -0.73086 254 254 254
0.41449 -0.28511 -0.73226 254 254 249
0.41311 -0.29862 -0.73155 254 254 254
0.49469 -0.50917 -0.49996 250 248 245
0.48544 -0.50876 -0.50933 254 253 251
0.49815 -0.51609 -0.49404 231 225 229
0.50329 -0.52243 -0.49114 227 227 231
0.50501 -0.52994 -0.48212 226 222 226
0.51027 -0.53624 -0.47942 212 211 216
0.50237 -0.54684 -0.45349 154 185 192
0.50294 -0.55459 -0.44264 138 159 187
0.49816 -0.56397 -0.42252 142 106 178
0.51003 -0.56815 -0.43144 180 125 156
0.51867 -0.57340 -0.43464 188 149 162
0.52647 -0.57895 -0.43632 184 174 162
0.52903 -0.58605 -0.42898 220 187 205
0.52771 -0.59905 -0.42830 254 254 254
0.65258 -0.85683 -0.18228 253 254 254
0.65387 -0.84413 -0.18295 254 254 254
0.64874 -0.85028 -0.18716 254 254 254
0.65772 -0.85068 -0.17807 254 254 254
0.66156 -0.85723 -0.17319 254 254 254
0.64898 -0.86394 -0.16707 246 253 247
0.65792 -0.86434 -0.15802 252 254 254
0.67340 -0.87588 -0.18043 193 196 191
0.67841 -0.88241 -0.17709 145 130 124
0.67710 -0.89520 -0.17642 78 73 64
0.69372 -0.88836 -0.18776 104 80 90
0.69240 -0.90126 -0.18708 91 85 65
0.70356 -0.89471 -0.19086 78 63 71
0.70224 -0.90765 -0.19019 93 89 69
0.72420 -0.90751 -0.19810 92 87 75
0.71892 -0.91383 -0.20244 92 90 74
0.72287 -0.92057 -0.19742 91 90 71
2.29519 -1.40372 -1.46461 36 40 50
2.29277 -1.42739 -1.46337 46 47 53
2.29500 -1.41488 -1.44769 41 43 45
2.29259 -1.43850 -1.44646 49 50 56
2.31136 -1.42841 -1.44839 46 48 54
2.30894 -1.45209 -1.44715 49 51 61
2.24052 -1.51433 -1.22947 46 53 51
2.22449 -1.51362 -1.24571 50 59 68
2.23135 -1.52531 -1.23699 49 58 60
2.25240 -1.52693 -1.22582 34 39 34
2.27271 -1.54112 -1.23057 21 21 20
0.33397 -0.21559 -0.75407 114 132 123
0.32460 -0.21517 -0.76356 91 91 115
0.33732 -0.22286 -0.74748 96 98 111
0.33597 -0.23610 -0.74679 56 41 45
0.34225 -0.22910 -0.74446 69 65 93
0.34945 -0.23390 -0.74656 48 44 73
0.36502 -0.24294 -0.75307 78 42 40
0.36752 -0.25079 -0.74452 96 70 56
0.36740 -0.26020 -0.73024 144 125 116
0.36604 -0.27351 -0.72954 254 254 244
0.38556 -0.27726 -0.72805 254 253 242
0.38015 -0.28375 -0.73250 254 254 254
0.38420 -0.29065 -0.72735 254 254 254
0.39237 -0.28258 -0.72885 254 254 251
0.39100 -0.29600 -0.72815 254 254 254
0.48783 -0.53222 -0.47719 193 171 167
0.48152 -0.55025 -0.44195 180 140 133
0.49189 -0.55479 -0.44853 68 80 66
0.49214 -0.56261 -0.43711 39 56 74
0.49285 -0.57023 -0.42657 55 40 64
0.50605 -0.57404 -0.43790 177 167 135
0.50929 -0.58091 -0.43176 244 231 227
0.50797 -0.59384 -0.43109 254 254 254
0.51055 -0.58835 -0.42222 254 250 231
0.50923 -0.60126 -0.42154 254 254 254
0.51695 -0.59429 -0.42155 254 254 249
0.51562 -0.60723 -0.42087 254 254 254
0.63658 -0.85699 -0.18148 248 253 249
0.63788 -0.84435 -0.18214 254 254 254
0.63276 -0.85047 -0.18634 254 254 254
0.64452 -0.86321 -0.18240 233 232 229
0.68708 -0.88092 -0.21075 106 83 95
0.69416 -0.88742 -0.21013 75 66 60
0.69283 -0.90039 -0.20946 96 89 69
2.26884 -1.39044 -1.48798 31 38 35
2.26169 -1.37824 -1.49706 25 29 34
2.25213 -1.38970 -1.50491 34 40 35
2.25928 -1.40189 -1.49583 36 42 39
2.28189 -1.40346 -1.48527 36 43 40
2.27947 -1.42715 -1.48403 47 50 54
2.23322 -1.53608 -1.22323 44 52 46
2.21722 -1.53537 -1.23944 49 59 64
2.25431 -1.55045 -1.22890 32 33 34
2.27193 -1.56424 -1.23094 18 15 19
2.28807 -1.56495 -1.21459 8 10 9
2.27884 -1.57601 -1.22217 11 10 10
1.80105 -1.74595 -0.34998 29 28 35
1.78832 -1.74538 -0.36288 23 24 21
1.79921 -1.76396 -0.34904 49 45 42
1.83817 -1.77244 -0.35813 70 71 55
1.85103 -1.77301 -0.34510 79 70 56
1.84367 -1.78182 -0.35114 79 69 58
1.83631 -1.79063 -0.35718 78 70 55
0.32909 -0.23114 -0.74530 48 48 57
0.34359 -0.24064 -0.74988 71 45 45
0.34806 -0.24722 -0.74579 103 78 93
0.35357 -0.25316 -0.74400 164 132 135
0.34960 -0.26489 -0.72112 221 201 181
0.34825 -0.27811 -0.72043 254 254 254
0.48600 -0.52930 -0.49988 227 223 203
0.48258 -0.53851 -0.48150 206 194 155
0.48673 -0.54514 -0.47691 208 195 165
0.47969 -0.56327 -0.44036 121 129 71
0.48808 -0.56849 -0.44343 73 56 47
0.49989 -0.57272 -0.45245 110 85 79
0.49680 -0.58150 -0.43515 222 240 215
0.49548 -0.59441 -0.43448 254 254 254
0.50154 -0.58791 -0.43167 254 254 254
0.50023 -0.60082 -0.43099 254 254 254
0.65336 -0.86835 -0.20634 159 150 147
0.66333 -0.87455 -0.20999 115 94 109
0.67839 -0.88048 -0.22068 73 62 70
0.67707 -0.89344 -0.22000 94 89 75
2.27484 -1.41530 -1.49590 40 46 45
2.25808 -1.41455 -1.51288 37 44 45
2.27242 -1.43901 -1.49466 51 55 61
2.22377 -1.54700 -1.23045 49 57 54
2.20777 -1.54629 -1.24666 48 58 69
2.21461 -1.55796 -1.23796 50 58 63
2.23657 -1.55982 -1.22779 43 48 39
2.25956 -1.57468 -1.23535 28 28 21
2.27149 -1.58744 -1.23163 15 14 9
2.28763 -1.58816 -1.21528 8 10 8
2.27839 -1.59922 -1.22286 7 10 4
2.26915 -1.61028 -1.23044 9 10 7
1.80711 -1.75868 -0.36732 31 25 30
1.79431 -1.75811 -0.38029 22 23 27
0.31870 -0.23141 -0.75235 50 50 54
0.30937 -0.23100 -0.76180 75 47 37
0.32454 -0.23702 -0.75153 47 47 31
0.32789 -0.24426 -0.74495 88 77 30
0.32472 -0.25560 -0.72357 167 149 88
0.33295 -0.25972 -0.72817 228 221 186
0.33161 -0.27290 -0.72748 252 253 254
0.34106 -0.26398 -0.73240 251 251 233
0.33971 -0.27721 -0.73170 254 254 254
0.34486 -0.27093 -0.72686 254 254 247
0.34351 -0.28416 -0.72617 254 254 254
0.47277 -0.54631 -0.47752 254 253 229
0.47145 -0.55926 -0.47685 254 254 253
0.47315 -0.55414 -0.46614 254 254 233
0.47252 -0.56225 -0.45301 240 243 220
0.46948 -0.57106 -0.43563 151 162 138
0.47857 -0.57605 -0.44004 63 39 38
0.47529 -0.58484 -0.42237 156 134 127
0.48772 -0.58890 -0.43260 239 251 251
0.48640 -0.60176 -0.43193 254 254 254
0.60389 -0.84381 -0.19885 250 254 251
0.60517 -0.83123 -0.19951 254 254 254
0.60008 -0.83733 -0.20369 254 254 254
0.60897 -0.83772 -0.19468 254 254 254
0.61700 -0.85634 -0.19712 216 218 214
0.64361 -0.86800 -0.21450 126 102 126
0.65231 -0.87427 -0.21645 76 68 72
0.65100 -0.88711 -0.21578 95 88 76
0.66241 -0.88051 -0.22030 75 71 73
0.66109 -0.89340 -0.21962 95 89 77
0.67324 -0.88675 -0.22509 89 85 73
0.67192 -0.89971 -0.22442 93 88 77
2.22449 -1.57023 -1.23236 47 56 50
2.20848 -1.56952 -1.24859 48 58 69
2.21533 -1.58121 -1.23988 47 57 68
2.23517 -1.58269 -1.22753 36 43 27
2.25472 -1.59697 -1.23162 21 23 13
0.31248 -0.23839 -0.75467 82 54 33
0.30315 -0.23797 -0.76412 155 137 119
0.31700 -0.24484 -0.75085 100 70 36
0.31236 -0.25715 -0.72588 153 134 79
0.31796 -0.26287 -0.72462 207 204 166
0.32769 -0.26606 -0.73271 239 242 234
0.45452 -0.58029 -0.42222 149 161 155
0.48046 -0.58012 -0.45703 62 79 61
0.45735 -0.59483 -0.40380 201 204 198
0.45605 -0.60748 -0.40314 254 254 254
0.47748 -0.59659 -0.42793 254 254 254
0.47617 -0.60941 -0.42726 254 254 254
0.58579 -0.83745 -0.20471 251 254 252
0.58707 -0.82492 -0.20536 254 254 254
0.58200 -0.83099 -0.20952 254 254 254
0.59086 -0.83138 -0.20055 254 254 254
0.59075 -0.84381 -0.20161 244 247 242
0.60315 -0.84953 -0.20941 221 225 218
0.62918 -0.85421 -0.23692 178 177 172
0.62652 -0.86132 -0.22252 135 112 127
0.63001 -0.86793 -0.21710 75 68 69
0.65131 -0.88023 -0.22669 89 82 72
0.64999 -0.89310 -0.22602 94 89 73
2.21045 -1.59050 -1.21921 42 51 46
2.19449 -1.58979 -1.23538 51 56 66
2.22479 -1.60370 -1.21816 30 32 26
2.23862 -1.61685 -1.21652 15 12 15
2.25465 -1.61756 -1.20028 5 6 5
2.24548 -1.62855 -1.20781 7 5 8
0.29659 -0.25164 -0.73432 201 186 144
0.28735 -0.25123 -0.74368 214 193 177
0.29526 -0.26471 -0.73364 214 194 180
0.30222 -0.25731 -0.73321 219 211 162
0.30259 -0.26633 -0.71986 165 178 149
0.30960 -0.27114 -0.72193 133 129 115
0.31606 -0.27634 -0.72264 192 195 199
0.32742 -0.27859 -0.73446 243 247 253
0.33141 -0.28540 -0.72939 254 254 254
0.45260 -0.57769 -0.44418 240 242 236
0.44718 -0.58712 -0.42243 157 166 163
0.45373 -0.59284 -0.42247 105 115 89
0.46339 -0.59768 -0.42804 215 242 226
0.46208 -0.61044 -0.42738 254 254 254
0.57163 -0.83075 -0.21621 252 254 253
0.57291 -0.81824 -0.21687 254 254 254
0.56784 -0.82430 -0.22102 254 254 254
0.57669 -0.82469 -0.21206 254 254 254
0.57965 -0.84362 -0.20727 227 231 226
0.61296 -0.84748 -0.24616 185 193 182
0.60801 -0.85481 -0.22826 144 121 128
0.61469 -0.86114 -0.22754 82 67 88
0.62378 -0.86733 -0.23028 72 65 82
0.62247 -0.88011 -0.22961 92 91 78
0.63017 -0.87374 -0.22905 85 81 65
0.62887 -0.88655 -0.22838 94 90 74
0.64166 -0.87986 -0.23512 94 88 72
0.64034 -0.89273 -0.23444 91 89 68
2.18389 -1.59780 -1.20884 48 53 53
2.16803 -1.59709 -1.22491 56 60 67
2.19296 -1.60986 -1.20255 40 41 37
2.21170 -1.62401 -1.20605 25 21 19
2.21671 -1.63525 -1.19556 12 7 7
2.23264 -1.63595 -1.17942 6 5 5
2.22352 -1.64687 -1.18690 6 5 5
2.21441 -1.65778 -1.19438 9 5 6
0.29060 -0.25843 -0.73701 208 181 171
0.28137 -0.25802 -0.74636 169 132 145
0.29914 -0.27150 -0.72846 203 190 165
0.30321 -0.28733 -0.70959 138 155 163
0.31720 -0.28795 -0.72765 224 232 240
0.32394 -0.29306 -0.72892 252 254 254
0.33325 -0.29348 -0.71949 254 254 254
0.32793 -0.29986 -0.72386 254 254 254
0.32260 -0.30624 -0.72824 254 254 254
0.43529 -0.57990 -0.43804 254 254 252
0.43658 -0.56721 -0.43870 254 254 254
0.43145 -0.57336 -0.44291 254 254 254
0.42632 -0.57950 -0.44712 254 254 254
0.43766 -0.58689 -0.43048 237 234 228
0.43691 -0.59481 -0.41724 148 127 170
0.44072 -0.60132 -0.41240 176 141 162
0.45274 -0.60545 -0.42236 240 251 248
0.45144 -0.61816 -0.42170 254 254 254
0.55836 -0.82398 -0.22902 253 254 254
0.55964 -0.81146 -0.22967 254 254 254
0.55458 -0.81752 -0.23383 254 254 254
0.56342 -0.81791 -0.22487 254 254 254
0.56048 -0.83060 -0.22169 249 253 249
0.56625 -0.83685 -0.21990 234 234 230
0.59062 -0.84137 -0.24603 201 208 195
0.58886 -0.84842 -0.23278 151 130 136
0.59849 -0.85446 -0.23656 86 72 91
2.15933 -1.60537 -1.20033 53 56 57
2.14355 -1.60467 -1.21631 57 62 69
2.15030 -1.61619 -1.20774 56 60 67
2.17118 -1.61799 -1.19698 48 47 48
2.17623 -1.62915 -1.18664 36 31 29
2.19071 -1.64240 -1.18590 20 14 12
2.37145 -2.22061 -0.54010 5 8 36
2.37360 -2.19956 -0.54120 4 5 18
2.36508 -2.20975 -0.54819 3 5 11
2.35657 -2.21995 -0.55517 4 6 7
2.37996 -2.21041 -0.53311 8 10 46
2.38633 -2.22127 -0.52502 15 17 69
0.28842 -0.27203 -0.73432 220 193 173
0.29442 -0.28666 -0.71988 136 145 180
0.29962 -0.30172 -0.70368 211 195 213
0.31004 -0.30455 -0.71359 250 252 254
0.30870 -0.31763 -0.71291 254 254 254
0.42376 -0.58803 -0.43038 254 253 251
0.41484 -0.58764 -0.43942 254 254 254
0.42509 -0.59530 -0.42093 240 227 223
0.42865 -0.60187 -0.41564 169 115 173
0.43241 -0.60838 -0.41073 198 172 203
0.44316 -0.61288 -0.41852 245 251 254
0.44187 -0.62554 -0.41786 254 254 254
0.54835 -0.82371 -0.23618 249 253 250
0.54963 -0.81121 -0.23684 254 254 254
0.54457 -0.81726 -0.24098 253 254 254
0.55293 -0.83007 -0.23261 237 234 236
0.55999 -0.83620 -0.23280 207 218 208
0.56281 -0.84276 -0.22651 160 128 125
0.58185 -0.84785 -0.24476 106 75 82
0.58881 -0.85412 -0.24461 73 62 76
0.58752 -0.86682 -0.24395 97 93 75
0.59616 -0.86039 -0.24499 87 80 74
0.59486 -0.87312 -0.24432 95 93 82
0.60509 -0.86657 -0.24767 96 91 80
0.60379 -0.87935 -0.24700 93 90 78
2.14374 -1.62476 -1.18543 54 57 62
2.12803 -1.62407 -1.20135 57 64 75
2.13475 -1.63553 -1.19281 59 63 74
2.14723 -1.63550 -1.17358 47 45 49
2.15870 -1.64803 -1.16991 32 24 29
2.16590 -1.65961 -1.16185 16 8 11
2.18162 -1.66031 -1.14592 5 4 4
2.17262 -1.67108 -1.15330 7 4 3
2.35690 -2.23672 -0.52964 9 15 56
0.27553 -0.27398 -0.73490 205 191 160
0.26633 -0.27357 -0.74421 223 207 173
0.27834 -0.29056 -0.71297 234 229 228
0.27702 -0.30350 -0.71230 111 75 144
0.28513 -0.29546 -0.71474 135 92 179
0.28380 -0.30844 -0.71406 168 159 191
0.28905 -0.30216 -0.70975 145 96 149
0.28772 -0.31514 -0.70908 239 241 242
0.29255 -0.30911 -0.70378 220 210 214
0.29122 -0.32208 -0.70310 254 254 254
0.30069 -0.31329 -0.70855 251 254 254
0.29936 -0.32632 -0.70787 254 254 254
0.41346 -0.59575 -0.42486 253 252 247
0.40458 -0.59535 -0.43385 254 254 254
0.41435 -0.60310 -0.41464 244 227 190
0.42355 -0.60797 -0.41982 216 158 108
0.41982 -0.61665 -0.40111 218 186 201
0.42726 -0.62206 -0.40301 246 252 254
0.42598 -0.63461 -0.40235 254 254 254
0.52953 -0.81759 -0.24021 251 253 251
0.53080 -0.80514 -0.24086 254 254 254
0.52577 -0.81117 -0.24499 254 254 254
0.53456 -0.81156 -0.23608 254 254 254
0.53779 -0.82351 -0.24243 243 242 241
0.54457 -0.82963 -0.24231 215 226 215
0.54613 -0.83631 -0.23406 170 133 146
0.56445 -0.84136 -0.25160 116 83 110
0.57688 -0.85397 -0.24921 84 76 73
0.57559 -0.86665 -0.24854 94 94 79
1.97549 -1.27476 -1.53403 16 20 25
1.97781 -1.25208 -1.53521 14 12 9
1.96863 -1.26306 -1.54274 15 14 18
1.98466 -1.26378 -1.52650 12 14 14
1.98968 -1.28728 -1.53420 25 29 27
2.12188 -1.64252 -1.16406 57 62 71
2.10627 -1.64183 -1.17987 55 64 79
2.11295 -1.65321 -1.17139 55 64 76
2.11919 -1.65174 -1.14596 46 49 51
2.13026 -1.66412 -1.14201 31 25 22
2.13380 -1.67475 -1.13037 18 8 9
2.14936 -1.67544 -1.11461 4 4 3
2.14045 -1.68610 -1.12191 9 4 7
2.32585 -2.22956 -0.53227 7 6 18
2.31110 -2.22890 -0.54721 7 6 3
2.31741 -2.23966 -0.53919 7 7 12
2.32268 -2.23649 -0.51706 8 12 50
2.32699 -2.24642 -0.50758 15 25 74
2.34168 -2.24707 -0.49270 16 22 83
2.33328 -2.25714 -0.49959 17 29 87
2.32487 -2.26721 -0.50649 21 32 96
2.32046 -2.29210 -0.42733 89 69 34
2.31836 -2.31260 -0.42626 105 85 36
0.26676 -0.28253 -0.73077 241 227 208
0.25759 -0.28212 -0.74005 226 228 210
0.26798 -0.29091 -0.71936 237 242 223
0.26666 -0.30385 -0.71868 117 49 90
0.40017 -0.60433 -0.41361 249 249 249
0.39135 -0.60394 -0.42255 254 254 253
0.40151 -0.61149 -0.40427 224 222 217
0.40827 -0.61704 -0.40505 239 214 164
0.41204 -0.62348 -0.40026 238 196 197
0.40872 -0.63190 -0.38240 249 253 254
0.40745 -0.64432 -0.38175 254 254 254
0.45852 -0.71493 -0.32213 252 252 252
0.45979 -0.70250 -0.32278 254 254 254
0.45476 -0.70852 -0.32690 253 254 254
0.46354 -0.70891 -0.31800 254 254 254
0.46730 -0.71532 -0.31323 253 254 254
0.47054 -0.73401 -0.30908 250 241 252
0.47932 -0.73440 -0.30017 254 254 254
0.47429 -0.74042 -0.30430 254 254 254
0.51177 -0.81142 -0.24561 252 254 252
0.51304 -0.79902 -0.24626 254 254 254
0.50803 -0.80502 -0.25038 254 254 254
0.51679 -0.80541 -0.24150 254 254 254
0.51882 -0.81742 -0.24608 248 247 246
0.52553 -0.82350 -0.24596 221 232 223
0.53128 -0.82971 -0.24429 180 163 159
0.55126 -0.83450 -0.26480 127 95 118
0.55904 -0.84751 -0.25533 78 78 78
0.55775 -0.86013 -0.25467 98 93 82
1.93058 -1.27091 -1.51471 23 20 25
1.93287 -1.24846 -1.51588 14 15 18
1.92380 -1.25934 -1.52333 13 10 19
1.94986 -1.28389 -1.52139 29 33 36
1.94756 -1.30644 -1.52021 45 46 53
1.96319 -1.29628 -1.52067 35 41 37
1.96088 -1.31888 -1.51949 46 48 60
2.10179 -1.66039 -1.14450 53 63 67
2.08628 -1.65970 -1.16022 54 63 75
2.09292 -1.67102 -1.15179 55 63 72
2.09955 -1.68234 -1.14336 55 64 67
2.09142 -1.66764 -1.11861 48 56 51
2.10980 -1.68175 -1.12226 38 35 36
2.10632 -1.69056 -1.10358 23 12 19
2.12175 -1.69124 -1.08794 6 4 5
2.10580 -1.70004 -1.08800 11 4 5
2.12119 -1.70073 -1.07240 4 4 7
2.11239 -1.71127 -1.07963 5 4 7
2.27963 -2.24051 -0.48490 15 25 73
2.28817 -2.28393 -0.42885 78 64 27
2.28609 -2.30431 -0.42778 95 79 36
0.25806 -0.29101 -0.72670 222 240 214
0.24892 -0.29061 -0.73596 150 143 159
0.25674 -0.30393 -0.72603 98 55 87
0.26215 -0.29755 -0.72220 173 162 144
0.39581 -0.61772 -0.40716 166 194 225
0.39765 -0.62469 -0.39879 225 223 204
0.40223 -0.63087 -0.39554 249 210 202
0.44818 -0.71486 -0.32832 242 248 251
0.44945 -0.70245 -0.32897 254 254 254
0.44443 -0.70846 -0.33309 253 254 254
0.45244 -0.72116 -0.32443 237 233 237
0.46397 -0.72605 -0.33304 233 183 210
0.46707 -0.73262 -0.32708 233 178 233
0.46584 -0.73997 -0.31377 245 212 241
0.46457 -0.75241 -0.31312 254 254 254
0.50132 -0.81124 -0.25176 248 250 247
0.50258 -0.79886 -0.25240 254 254 254
0.49757 -0.80485 -0.25651 252 254 253
0.50864 -0.81720 -0.25274 226 236 225
0.52602 -0.82206 -0.26969 191 181 180
0.53417 -0.82806 -0.27178 136 102 129
0.53175 -0.83519 -0.25713 68 57 60
0.54633 -0.84060 -0.26926 77 78 80
0.54504 -0.85322 -0.26860 101 94 80
0.55283 -0.84686 -0.26861 96 89 71
0.55154 -0.85951 -0.26795 99 92 81
1.90636 -1.26930 -1.52038 17 15 26
1.90865 -1.24692 -1.52155 14 14 17
1.89960 -1.25776 -1.52898 13 14 18
1.89055 -1.26859 -1.53640 12 15 18
1.89731 -1.28013 -1.52781 16 15 29
1.91352 -1.28088 -1.51227 32 35 42
1.91124 -1.30326 -1.51111 40 46 53
1.93314 -1.29392 -1.51951 41 44 57
1.93084 -1.31641 -1.51833 46 50 55
2.08460 -1.68832 -1.11275 53 63 62
2.06921 -1.68764 -1.12835 57 65 72
2.07579 -1.69887 -1.11998 57 69 74
2.07914 -1.69654 -1.09207 45 51 48
2.08821 -1.70836 -1.08629 31 24 25
2.08263 -1.71644 -1.06566 17 7 8
2.09791 -1.71712 -1.05018 4 5 9
2.08916 -1.72759 -1.05735 8 4 9
2.26629 -2.24836 -0.48786 10 17 59
2.25903 -2.25332 -0.46978 18 30 88
2.27346 -2.25396 -0.45517 23 31 88
2.26520 -2.26385 -0.46194 28 32 87
2.25695 -2.27373 -0.46871 29 34 90
2.28793 -2.29722 -0.44156 79 67 28
2.27349 -2.29658 -0.45619 62 53 45
2.27967 -2.30711 -0.44834 82 68 33
2.28585 -2.31765 -0.44049 96 80 31
0.25187 -0.29788 -0.72866 121 101 125
0.24275 -0.29747 -0.73791 42 31 49
0.24665 -0.30413 -0.73295 88 64 59
0.26070 -0.31056 -0.72121 171 107 145
0.26461 -0.31723 -0.71624 236 214 219
0.38002 -0.61940 -0.40279 229 234 242
0.37127 -0.61901 -0.41165 254 253 252
0.37876 -0.63178 -0.40214 120 151 212
0.38739 -0.63220 -0.39306 209 225 205
0.37750 -0.64968 -0.35121 254 254 254
0.37626 -0.66188 -0.35058 254 254 254
0.44648 -0.72020 -0.33825 229 214 239
0.45514 -0.72566 -0.34198 221 170 225
0.45797 -0.73228 -0.33555 233 185 224
0.45670 -0.74476 -0.33490 254 254 254
0.45410 -0.74013 -0.31758 250 248 247
0.45283 -0.75253 -0.31694 254 254 254
0.45600 -0.74685 -0.30966 254 254 250
0.45474 -0.75924 -0.30901 254 254 254
0.48503 -0.80496 -0.25917 251 253 251
0.48629 -0.79261 -0.25981 254 254 254
0.48130 -0.79859 -0.26391 253 254 254
0.49002 -0.79898 -0.25507 254 254 254
0.49199 -0.81092 -0.25969 232 243 233
0.51143 -0.81543 -0.28035 194 206 184
0.51576 -0.82183 -0.27643 145 117 110
0.52170 -0.82806 -0.27506 75 70 71
0.52926 -0.83414 -0.27624 78 75 80
0.52797 -0.84672 -0.27559 100 95 85
0.53830 -0.84011 -0.27972 96 90 68
0.53700 -0.85275 -0.27906 100 94 87
0.54835 -0.84605 -0.28472 100 92 82
0.54706 -0.85874 -0.28405 97 92 83
1.89515 -1.29062 -1.50809 29 31 42
2.07001 -1.70696 -1.09891 56 69 74
2.05468 -1.70628 -1.11444 58 68 77
2.06124 -1.71746 -1.10611 59 69 79
2.06780 -1.72865 -1.09777 59 67 78
2.06209 -1.71440 -1.07577 51 61 64
2.05472 -1.72190 -1.05335 40 42 39
2.06638 -1.73435 -1.05033 24 19 16
2.08159 -1.73502 -1.03492 4 4 5
2.06770 -1.74405 -1.03684 11 5 3
2.08288 -1.74473 -1.02146 4 6 3
2.07419 -1.75513 -1.02859 5 4 2
2.25245 -2.25597 -0.49041 7 10 33
2.23799 -2.25532 -0.50505 8 10 10
2.25516 -2.26505 -0.47989 14 26 82
2.31440 -2.33796 -0.44919 107 86 36
2.32895 -2.33861 -0.43446 120 91 49
0.24750 -0.31269 -0.72054 188 156 155
0.24619 -0.32557 -0.71987 254 254 253
0.24510 -0.32320 -0.70032 245 234 229
0.24379 -0.33600 -0.69965 254 254 254
0.37812 -0.63939 -0.38911 207 227 213
0.36941 -0.63900 -0.39794 134 151 209
0.38138 -0.64588 -0.38348 253 231 216
0.37110 -0.65599 -0.35251 254 254 254
0.36985 -0.66817 -0.35187 254 254 254
0.44206 -0.73325 -0.33209 254 248 246
0.44080 -0.74566 -0.33144 254 254 254
0.44425 -0.73994 -0.32458 254 254 249
0.44298 -0.75233 -0.32394 254 254 254
0.46768 -0.79887 -0.26461 252 254 252
0.46894 -0.78657 -0.26526 254 254 254
0.46396 -0.79253 -0.26934 254 254 254
0.47265 -0.79291 -0.26053 254 254 254
0.47649 -0.80454 -0.26831 242 247 245
0.49980 -0.81537 -0.28478 155 132 112
0.50680 -0.82145 -0.28523 73 72 67
0.51173 -0.82778 -0.28226 73 68 82
0.51045 -0.84032 -0.28161 99 96 88
0.51810 -0.83398 -0.28160 94 91 76
0.51681 -0.84654 -0.28094 101 96 83
0.52931 -0.83972 -0.28867 98 96 82
0.52802 -0.85236 -0.28801 100 95 84
1.86941 -1.28875 -1.51151 13 15 26
1.86269 -1.27729 -1.52004 11 15 16
1.85370 -1.28805 -1.52742 11 12 11
1.86042 -1.29951 -1.51888 11 12 22
1.87775 -1.30041 -1.50500 24 30 47
1.88733 -1.31223 -1.50002 38 44 61
1.89406 -1.32371 -1.49147 47 49 57
1.88505 -1.33449 -1.49886 48 48 55
2.05060 -1.73352 -1.06514 56 64 63
2.03540 -1.73284 -1.08055 60 66 79
2.04190 -1.74394 -1.07228 60 66 75
2.03990 -1.73999 -1.03938 47 56 40
2.04961 -1.75190 -1.03445 33 37 16
2.05437 -1.76246 -1.02450 15 10 2
2.06950 -1.76313 -1.00918 4 6 5
2.05768 -1.77262 -1.01311 7 5 4
2.07278 -1.77329 -0.99781 4 8 7
2.06414 -1.78364 -1.00490 5 5 6
2.22441 -2.25751 -0.48193 7 8 23
2.21004 -2.25687 -0.49648 10 9 6
2.21619 -2.26735 -0.48867 8 9 16
2.26624 -2.30691 -0.46374 56 38 35
2.32222 -2.36294 -0.45545 129 108 49
0.23233 -0.32511 -0.70036 247 242 235
0.22332 -0.32471 -0.70949 250 251 244
0.22717 -0.33129 -0.70459 254 254 253
0.23103 -0.33786 -0.69969 254 254 254
0.36820 -0.64672 -0.38380 205 219 214
0.35952 -0.64634 -0.39259 133 159 205
0.36840 -0.65401 -0.37244 250 234 226
0.36715 -0.66625 -0.37180 254 254 254
0.45387 -0.79234 -0.27577 252 254 253
0.45512 -0.78006 -0.27641 254 254 254
0.45015 -0.78601 -0.28049 254 254 254
0.45883 -0.78639 -0.27169 254 254 254
0.46012 -0.79833 -0.27532 245 248 248
0.47013 -0.80384 -0.28111 214 237 213
0.48541 -0.80876 -0.29556 171 131 115
0.49136 -0.81494 -0.29437 102 67 111
0.49533 -0.82136 -0.28989 71 63 80
0.49406 -0.83386 -0.28924 101 95 89
0.50336 -0.82734 -0.29205 93 89 73
0.50208 -0.83988 -0.29139 98 96 96
0.51150 -0.83335 -0.29432 100 97 91
0.51022 -0.84593 -0.29366 98 93 88
1.85664 -1.30964 -1.49712 19 15 42
1.84100 -1.30895 -1.51297 12 10 17
2.03639 -1.75174 -1.05172 57 66 66
2.02125 -1.75107 -1.06706 55 64 77
2.02772 -1.76212 -1.05883 55 67 75
2.03420 -1.77317 -1.05061 54 68 74
2.03762 -1.76134 -1.03815 52 63 59
2.04178 -1.78091 -1.01290 28 27 12
2.04978 -1.79235 -1.00627 17 7 4
2.06486 -1.79302 -0.99099 5 8 9
2.05623 -1.80335 -0.99807 10 4 6
2.26533 -2.32003 -0.47612 59 47 38
2.26528 -2.32785 -0.46353 78 64 29
2.31112 -2.36385 -0.47285 111 102 27
2.30901 -2.38452 -0.47177 130 117 57
2.31208 -2.37214 -0.46097 127 111 50
2.30997 -2.39277 -0.45990 136 112 68
0.35531 -0.65483 -0.37269 194 206 203
0.34669 -0.65445 -0.38143 157 171 194
0.35037 -0.66074 -0.37674 182 174 188
0.36128 -0.66051 -0.37236 247 240 231
0.36003 -0.67274 -0.37173 254 254 254
0.44248 -0.79235 -0.27994 250 251 252
0.44373 -0.78009 -0.28058 254 254 254
0.43877 -0.78602 -0.28465 253 254 253
0.45024 -0.79810 -0.28212 221 243 232
0.45403 -0.80444 -0.27753 182 150 162
0.47391 -0.80871 -0.29998 108 80 102
0.47906 -0.81497 -0.29752 65 60 80
0.47779 -0.82743 -0.29687 100 96 90
0.48621 -0.82100 -0.29837 87 84 93
0.48494 -0.83350 -0.29771 103 95 87
0.49407 -0.82699 -0.30033 101 97 89
0.49279 -0.83953 -0.29967 102 95 86
1.83901 -1.31923 -1.49349 15 9 25
1.82342 -1.31854 -1.50928 14 12 18
1.84623 -1.33068 -1.48570 30 26 51
1.85749 -1.34270 -1.48298 43 46 55
1.87311 -1.34339 -1.46715 50 51 59
1.86417 -1.35410 -1.47449 49 53 58
1.85523 -1.36480 -1.48182 50 54 58
2.03368 -1.79138 -1.02049 49 59 48
2.04349 -1.80336 -1.01570 41 45 39
2.04719 -1.81356 -1.00473 28 22 14
2.06226 -1.81423 -0.98946 7 9 10
2.05439 -1.82478 -0.99730 14 11 9
2.06947 -1.82545 -0.98202 8 12 12
2.06084 -1.83578 -0.98910 12 11 14
2.25455 -2.32885 -0.48100 50 44 39
2.29974 -2.37250 -0.47743 113 113 45
0.24948 -0.44278 -0.57922 249 248 244
0.25075 -0.43034 -0.57987 254 254 254
0.24571 -0.43636 -0.58400 253 254 251
0.25451 -0.43675 -0.57509 254 254 254
0.25827 -0.44317 -0.57031 254 254 254
0.24821 -0.45522 -0.57857 234 220 220
0.25453 -0.44856 -0.57739 249 248 247
0.26333 -0.44895 -0.56847 254 254 254
0.25829 -0.45498 -0.57260 253 254 254
0.42436 -0.78651 -0.28343 252 252 251
0.42560 -0.77431 -0.28407 254 254 254
0.42067 -0.78022 -0.28812 253 254 254
0.42929 -0.78060 -0.27939 254 254 254
0.42973 -0.79255 -0.28166 225 243 233
0.44111 -0.79778 -0.29017 199 173 178
0.45763 -0.80240 -0.30734 119 88 121
0.46268 -0.80864 -0.30478 59 56 69
0.46142 -0.82107 -0.30413 102 99 92
0.46986 -0.81462 -0.30579 81 82 90
0.46858 -0.82709 -0.30514 101 99 85
0.47820 -0.82051 -0.30870 97 97 88
0.47692 -0.83302 -0.30805 102 99 82
1.81509 -1.32789 -1.48172 23 16 30
1.82982 -1.34033 -1.48354 38 42 44
1.82757 -1.36233 -1.48239 52 56 61
1.83674 -1.35171 -1.47543 47 51 57
1.83449 -1.37372 -1.47428 52 56 61
2.03892 -1.81490 -1.02690 55 62 67
2.02381 -1.81423 -1.04221 53 67 72
2.03027 -1.82525 -1.03399 56 67 74
2.04923 -1.82707 -1.02257 50 55 53
2.05855 -1.83897 -1.01720 39 45 44
2.06928 -1.85132 -1.01322 31 23 29
2.08444 -1.85199 -0.99785 11 13 9
2.08326 -1.86469 -1.01242 19 15 14
2.09847 -1.86537 -0.99701 11 12 9
2.08976 -1.87579 -1.00415 12 12 9
2.23500 -2.34148 -0.46659 39 26 37
2.24569 -2.35403 -0.46222 66 49 32
2.28702 -2.38052 -0.48099 105 91 58
0.23768 -0.44390 -0.58112 244 240 241
0.23894 -0.43150 -0.58177 254 254 254
0.23392 -0.43751 -0.58589 254 254 253
0.23641 -0.45631 -0.58047 216 197 202
0.25234 -0.46145 -0.57465 250 250 250
0.26114 -0.46184 -0.56574 254 254 254
0.25611 -0.46787 -0.56987 254 254 254
0.25107 -0.47390 -0.57400 254 254 254
0.32998 -0.65631 -0.37433 245 244 237
0.32142 -0.65593 -0.38300 254 254 254
0.33684 -0.66169 -0.37591 190 179 188
0.34009 -0.66806 -0.37042 167 126 162
0.34314 -0.67448 -0.36456 231 232 234
0.35006 -0.67992 -0.36613 254 254 254
0.35866 -0.68030 -0.35742 254 254 254
0.35374 -0.68620 -0.36146 254 254 254
0.34882 -0.69209 -0.36550 254 254 254
0.40756 -0.78054 -0.28894 253 254 254
0.40880 -0.76839 -0.28957 254 254 254
0.40388 -0.77427 -0.29361 254 254 254
0.41248 -0.77465 -0.28490 254 254 254
0.41452 -0.78631 -0.29003 231 250 239
0.42395 -0.79175 -0.29538 204 188 184
0.44597 -0.80240 -0.31124 67 56 73
0.44470 -0.81479 -0.31059 103 98 87
0.45537 -0.80806 -0.31620 86 82 85
0.45409 -0.82050 -0.31555 104 97 87
0.46124 -0.81421 -0.31504 103 93 79
0.45997 -0.82667 -0.31439 102 98 93
0.48601 -0.83892 -0.31214 99 97 80
0.49300 -0.84509 -0.31263 94 95 72
0.49680 -0.85158 -0.30780 78 77 69
0.49171 -0.85767 -0.31197 39 55 69
1.78559 -1.32530 -1.47941 17 12 17
1.78781 -1.30348 -1.48055 13 13 16
1.77899 -1.31405 -1.48779 12 13 10
1.80130 -1.33783 -1.48270 32 27 45
1.81486 -1.35011 -1.48313 47 52 52
1.81262 -1.37207 -1.48198 56 60 67
2.04253 -1.83803 -1.03166 57 67 72
2.02739 -1.83736 -1.04699 57 69 77
2.03386 -1.84841 -1.03877 59 71 78
2.04034 -1.85945 -1.03054 55 74 80
2.05086 -1.84965 -1.02530 54 65 68
2.06099 -1.86183 -1.02073 46 60 55
2.07968 -1.87671 -1.02467 29 40 33
2.09336 -1.89009 -1.02351 13 11 6
2.10863 -1.89076 -1.00804 9 11 11
2.09989 -1.90123 -1.01521 7 7 7
2.09115 -1.91169 -1.02238 4 5 5
1.99334 -2.00204 -0.69034 19 14 26
1.99539 -1.98195 -0.69139 16 15 12
1.98726 -1.99168 -0.69805 18 17 20
2.00146 -1.99231 -0.68367 13 10 11
2.23083 -2.35318 -0.47647 28 20 37
2.21643 -2.35254 -0.49107 14 14 51
2.22259 -2.36306 -0.48324 30 21 36
2.24183 -2.36590 -0.47234 63 50 28
2.27452 -2.38860 -0.48466 92 77 48
2.28582 -2.40156 -0.48059 103 91 53
0.22371 -0.44616 -0.57775 253 252 247
0.22497 -0.43382 -0.57840 254 254 254
0.21998 -0.43979 -0.58249 254 254 254
0.21498 -0.44577 -0.58659 254 254 253
0.23904 -0.46325 -0.57312 237 232 227
0.23403 -0.46925 -0.57723 247 242 239
0.23778 -0.47564 -0.57247 254 254 254
0.31968 -0.66365 -0.36770 250 248 244
0.31116 -0.66327 -0.37633 254 254 254
0.32288 -0.66999 -0.36220 214 195 182
0.32165 -0.68204 -0.36157 139 113 129
0.31972 -0.67797 -0.34429 149 110 113
0.32773 -0.68303 -0.34821 223 225 224
0.34034 -0.68701 -0.36092 254 254 254
0.33911 -0.69913 -0.36028 254 254 254
0.39598 -0.77378 -0.30353 254 254 254
0.39722 -0.76162 -0.30417 254 254 254
0.39230 -0.76751 -0.30821 254 254 254
0.40090 -0.76789 -0.29950 254 254 254
0.39710 -0.78046 -0.29430 238 253 248
0.40533 -0.78602 -0.29774 207 213 197
0.42537 -0.79678 -0.31065 75 68 72
0.43627 -0.80214 -0.31848 85 80 91
0.43501 -0.81452 -0.31783 103 100 88
0.44176 -0.80830 -0.31675 98 95 79
0.44049 -0.82069 -0.31610 104 101 93
0.46824 -0.83261 -0.31727 98 102 92
0.47351 -0.83890 -0.31499 93 100 77
0.48223 -0.84487 -0.31850 83 79 69
0.49607 -0.85042 -0.33050 66 66 77
0.49478 -0.86309 -0.32984 45 53 63
1.76430 -1.32382 -1.48740 19 13 21
1.76652 -1.30205 -1.48854 17 11 14
1.75772 -1.31259 -1.49576 15 10 13
1.77560 -1.33571 -1.48515 32 31 32
1.78836 -1.34784 -1.48470 45 51 55
1.78612 -1.36970 -1.48356 56 62 70
1.80271 -1.36026 -1.48623 54 61 68
1.80048 -1.38219 -1.48508 59 62 67
2.05511 -1.87310 -1.03068 42 63 66
2.08205 -1.89067 -1.04296 21 28 19
2.07985 -1.91230 -1.04183 3 4 3
2.08943 -1.90209 -1.03548 8 6 4
2.08722 -1.92373 -1.03435 3 5 5
1.96998 -1.99804 -0.69630 26 32 36
1.97203 -1.97801 -0.69735 16 19 17
1.96393 -1.98771 -0.70399 17 21 24
1.95583 -1.99741 -0.71064 17 22 23
2.02386 -2.02613 -0.73237 37 50 45
2.02178 -2.04651 -0.73131 51 65 56
2.17084 -2.11502 -0.81073 30 31 34
2.26143 -2.39636 -0.48786 80 70 28
0.21595 -0.45354 -0.57529 244 238 242
0.21469 -0.46585 -0.57464 213 196 203
0.31094 -0.67053 -0.36402 252 251 247
0.30244 -0.67016 -0.37262 254 254 254
0.31190 -0.67743 -0.35414 225 210 196
0.31936 -0.68973 -0.34535 217 220 220
0.32782 -0.69474 -0.35014 254 254 254
0.32659 -0.70677 -0.34951 254 254 254
0.38370 -0.77401 -0.30557 241 253 251
0.38647 -0.78041 -0.29928 212 234 204
0.40582 -0.78423 -0.32279 159 132 71
0.41852 -0.79613 -0.32275 81 77 74
0.41726 -0.80845 -0.32211 103 101 86
0.42329 -0.80234 -0.31985 101 94 73
0.42203 -0.81468 -0.31921 102 100 90
0.43494 -0.80765 -0.32904 105 100 90
0.43367 -0.82007 -0.32839 103 102 86
0.46641 -0.83833 -0.32695 82 87 60
0.46513 -0.85087 -0.32630 51 54 61
0.47541 -0.84427 -0.33102 65 62 62
0.47413 -0.85687 -0.33036 50 56 58
0.48346 -0.85037 -0.33336 52 54 68
0.48217 -0.86300 -0.33270 44 50 54
0.49686 -0.85603 -0.34468 48 55 71
0.49556 -0.86875 -0.34402 46 52 56
1.73718 -1.32153 -1.48757 21 14 28
1.73940 -1.29986 -1.48870 13 13 10
1.73063 -1.31035 -1.49589 14 12 13
1.74840 -1.33336 -1.48535 34 35 39
1.74618 -1.35507 -1.48421 54 61 56
