ply
format ascii 1.0
element face 0
property list uchar int vertex_indices
element vertex 1326
property float x
property float y
property float z
property uchar diffuse_red
property uchar diffuse_green
property uchar diffuse_blue
end_header
1.20051 -0.69229 0.18523 25 21 14
1.51594 -0.86959 0.25565 9 12 32
1.50621 -0.87003 0.24374 23 19 24
1.54413 -0.87779 0.25143 20 59 102
1.55197 -0.88539 0.25657 176 222 236
1.76682 -0.93995 0.21501 239 254 254
1.76812 -0.92351 0.21341 254 254 254
1.76223 -0.93197 0.20779 254 254 254
1.71831 -0.94508 0.24513 210 203 238
1.79846 -0.95718 0.21980 125 117 157
1.80531 -0.96535 0.22612 60 52 63
1.81073 -0.97344 0.23306 46 19 43
1.81665 -0.98158 0.23978 56 30 58
1.83436 -0.99049 0.24161 95 77 85
1.82646 -0.99772 0.25411 143 141 123
1.82945 -1.00565 0.26206 161 154 107
1.85710 -1.01540 0.25995 157 136 63
1.87373 -1.02442 0.26243 153 127 69
1.89575 -1.04173 0.27209 145 122 114
1.90330 -1.05014 0.27835 147 115 123
1.91419 -1.05886 0.28331 151 125 135
1.91890 -1.06705 0.29071 137 114 126
1.91286 -1.07574 0.28495 116 82 108
3.43487 -1.32575 -0.15269 145 77 51
3.41924 -1.32646 -0.17182 150 112 111
3.42609 -1.33837 -0.16106 170 112 98
3.37443 -1.32975 -0.11800 93 38 24
3.38088 -1.34146 -0.10729 58 25 24
3.62865 -1.43962 -0.11335 67 61 77
3.60876 -1.44821 -0.09329 107 114 132
3.68886 -1.47052 -0.10645 167 180 188
3.68685 -1.49600 -0.10398 196 202 207
3.68830 -1.48181 -0.09276 197 203 209
3.68629 -1.50725 -0.09029 201 205 207
2.90175 -1.84145 0.72415 183 186 203
2.89620 -1.83180 0.71543 199 203 218
2.89463 -1.85168 0.71736 171 177 198
2.86224 -1.85584 0.76081 173 185 204
2.87365 -1.86692 0.76832 183 198 223
2.88244 -1.88542 0.78596 183 195 208
2.90162 -1.89861 0.79214 146 146 171
2.90006 -1.91832 0.79406 83 82 100
2.92556 -1.91315 0.79755 102 103 132
2.90894 -1.91675 0.81006 80 88 105
2.89705 -1.92155 0.82166 81 80 97
2.80871 -1.95958 0.91060 114 118 124
2.82058 -1.98605 0.93617 85 85 97
2.81909 -2.00502 0.93802 96 100 103
0.82514 0.34499 -0.86286 171 216 253
0.82084 0.33293 -0.84631 164 204 253
0.83540 0.33097 -0.85129 146 184 249
0.86799 0.32860 -0.86481 111 142 235
0.91331 0.32240 -0.88015 72 86 169
0.90957 0.31063 -0.86425 65 80 148
0.90956 0.30080 -0.85252 56 68 118
0.91827 0.29532 -0.85036 49 53 76
0.92720 0.28992 -0.84840 35 45 61
0.92595 0.27417 -0.84687 11 9 27
0.92686 0.27997 -0.83637 18 26 61
0.92849 0.27100 -0.82650 9 14 49
0.93496 0.26438 -0.82186 11 13 37
0.95305 0.24378 -0.80638 18 16 33
0.96359 0.23896 -0.80592 25 23 54
0.96712 0.23089 -0.79806 28 40 54
0.97077 0.22288 -0.79035 24 28 48
0.96952 0.20710 -0.78882 11 12 23
0.97445 0.21489 -0.78268 20 17 39
0.97320 0.19912 -0.78114 10 12 27
0.97572 0.19627 -0.76112 7 9 44
0.96120 0.18042 -0.73494 56 68 101
0.98553 0.17193 -0.73703 121 158 208
0.99558 0.16670 -0.73583 119 156 210
1.00917 0.16289 -0.73812 101 134 204
1.02711 0.15128 -0.73327 80 119 196
1.02586 0.13541 -0.73173 49 67 114
1.03584 0.14531 -0.73054 85 122 192
1.14520 0.15987 -0.80274 56 80 148
1.14002 0.14802 -0.78602 84 100 174
1.15053 0.14850 -0.77316 141 159 218
1.14462 0.14001 -0.77879 123 138 201
1.23411 0.12420 -0.80483 101 132 226
1.22208 0.09028 -0.75836 120 171 251
1.20435 0.07433 -0.73046 148 188 247
1.21230 0.06740 -0.72618 171 194 222
1.22152 0.06089 -0.72304 155 168 172
1.21601 0.03977 -0.69511 181 189 214
1.55955 0.02605 -0.85108 220 199 195
1.56113 0.01608 -0.83999 191 167 154
1.57048 0.00831 -0.83542 213 191 141
1.54088 -0.05100 -0.74988 209 190 164
1.58298 -0.08072 -0.73557 119 137 182
1.58154 -0.09896 -0.73380 118 129 116
1.53265 -0.10311 -0.68364 186 211 179
1.53014 -0.11360 -0.66988 224 243 254
1.52648 -0.12430 -0.65528 247 253 252
1.52767 -0.15331 -0.62131 234 235 237
1.53904 -0.16047 -0.61848 254 254 254
1.55034 -0.15995 -0.60464 254 254 254
1.54854 -0.16808 -0.61417 250 253 253
1.55077 -0.17729 -0.60431 244 232 242
1.56208 -0.17678 -0.59046 251 246 240
1.55572 -0.18591 -0.59652 245 226 224
1.60416 -0.27227 -0.51788 254 252 247
1.59286 -0.27278 -0.53172 254 254 254
1.62023 -0.27893 -0.51800 242 229 206
1.64115 -0.28483 -0.52147 174 151 144
1.65169 -0.29259 -0.51751 150 133 127
1.65910 -0.30090 -0.51132 123 116 89
1.19359 -0.67854 0.17231 87 80 67
1.18459 -0.67895 0.16129 120 119 95
1.20354 -0.68515 0.17520 39 28 21
1.20242 -0.69931 0.17658 31 20 15
1.51400 -0.87756 0.24880 10 11 36
1.50426 -0.87800 0.23688 21 19 18
1.54353 -0.88588 0.24391 19 24 94
1.57256 -0.89432 0.23941 168 211 235
1.76605 -0.94093 0.19791 224 249 232
1.80661 -0.95088 0.18942 155 164 155
1.76611 -0.95642 0.21635 72 52 102
1.78275 -0.96512 0.21836 35 19 51
1.79183 -0.97341 0.22369 49 34 34
1.79273 -0.98120 0.23252 82 63 72
1.79143 -0.99771 0.23413 140 153 167
1.77302 -0.98759 0.25003 125 118 128
1.78504 -0.99606 0.25410 157 164 160
1.79077 -1.00411 0.26082 170 178 182
1.79904 -1.01236 0.26651 174 182 174
1.80829 -1.02071 0.27181 172 168 124
1.85304 -1.03188 0.26269 163 142 70
1.87259 -1.04120 0.26399 150 114 68
1.87575 -1.04922 0.27195 126 89 81
1.87998 -1.05731 0.27948 120 88 84
1.89691 -1.06654 0.28199 128 94 105
3.36332 -1.35280 -0.11238 155 86 66
3.36142 -1.37693 -0.11003 176 114 103
3.39106 -1.36714 -0.10920 130 71 53
3.38915 -1.39138 -0.10684 165 92 84
3.41102 -1.38059 -0.10318 98 50 43
3.61067 -1.45139 -0.11894 69 69 84
3.60868 -1.47658 -0.11650 120 128 139
3.57853 -1.45817 -0.09473 113 124 136
3.57655 -1.48317 -0.09230 166 176 182
3.64632 -1.47890 -0.10402 166 179 182
3.64432 -1.50421 -0.10156 193 198 203
2.89651 -1.84392 0.70716 176 179 198
2.89095 -1.83425 0.69842 191 192 203
2.86053 -1.86733 0.75311 188 208 231
2.87740 -1.88798 0.76926 161 170 196
2.88998 -1.89943 0.77660 119 117 149
2.89993 -1.91020 0.78445 90 82 112
2.90690 -1.92825 0.80247 90 94 99
2.89777 -1.93378 0.81364 100 97 101
2.88589 -1.93849 0.82520 97 96 102
2.88435 -1.95804 0.82711 74 67 86
2.88469 -1.94612 0.83490 78 83 84
2.88938 -1.95538 0.84360 70 71 81
2.88784 -1.97491 0.84549 101 111 118
0.81624 0.36470 -0.89938 164 208 253
0.81491 0.35412 -0.88605 156 200 254
0.81881 0.34643 -0.87884 147 189 251
0.81098 0.33242 -0.85811 130 171 246
0.83260 0.33427 -0.87131 120 152 238
0.82668 0.32136 -0.85287 90 116 214
0.87562 0.32747 -0.88503 66 77 157
0.88554 0.32274 -0.88442 58 70 132
0.87837 0.30922 -0.86462 49 56 103
0.89225 0.30647 -0.86838 46 53 90
0.89101 0.29081 -0.86685 11 11 48
0.90964 0.30540 -0.87593 35 36 72
0.90839 0.28964 -0.87440 12 12 41
0.91525 0.29835 -0.87035 17 21 57
0.92393 0.29281 -0.86813 9 12 43
0.92518 0.28359 -0.85774 13 9 36
0.92287 0.26293 -0.83187 12 12 37
0.92934 0.25630 -0.82722 16 15 40
0.93303 0.24834 -0.81959 19 19 34
0.93766 0.24082 -0.81295 32 30 52
0.95623 0.23975 -0.82111 45 43 62
0.96255 0.23294 -0.81618 29 35 62
0.97239 0.21803 -0.80334 12 14 30
0.97114 0.20219 -0.80180 7 12 27
0.96779 0.18718 -0.76412 6 9 30
0.95778 0.18672 -0.77638 7 12 26
0.96217 0.17910 -0.76949 7 12 21
0.96690 0.17727 -0.75182 22 29 59
0.96079 0.16518 -0.73427 42 66 126
0.96971 0.15954 -0.73205 54 67 144
0.97922 0.15411 -0.73039 67 75 143
0.99849 0.15268 -0.73847 70 76 136
1.01319 0.14925 -0.74184 59 65 123
1.16698 0.14232 -0.81169 93 97 136
1.18645 0.13982 -0.81857 80 102 137
1.18512 0.12303 -0.81694 20 25 58
1.20369 0.13636 -0.82320 54 73 130
1.20236 0.11949 -0.82156 14 16 53
1.20506 0.12693 -0.81262 42 48 126
1.21802 0.12177 -0.81304 40 49 130
1.21928 0.11231 -0.80237 42 57 142
1.18198 0.07939 -0.74405 54 91 179
1.21045 0.06025 -0.73563 188 208 231
1.21345 0.04196 -0.71529 156 162 169
1.22345 0.03566 -0.71284 138 149 168
1.21078 0.02192 -0.68998 172 188 207
1.22133 0.02240 -0.67707 251 253 254
1.24827 0.02449 -0.71209 222 233 243
1.25895 0.02497 -0.69902 254 254 254
1.25515 0.01705 -0.70670 249 252 254
1.26584 0.01754 -0.69361 254 254 254
1.25983 0.00891 -0.69934 254 254 254
1.53057 -0.00014 -0.82606 204 165 183
1.53146 -0.02043 -0.80225 235 223 222
1.52238 -0.07346 -0.73424 226 198 155
1.55717 -0.08478 -0.73837 155 121 137
1.55040 -0.11644 -0.69709 155 154 186
1.52300 -0.13278 -0.66363 210 205 208
1.51627 -0.14412 -0.64665 205 219 244
1.52452 -0.16170 -0.62983 228 213 220
1.53645 -0.16876 -0.62744 251 249 250
1.54755 -0.18575 -0.61277 246 224 237
1.54615 -0.20352 -0.61104 254 254 253
1.60144 -0.28076 -0.52655 254 251 243
1.59012 -0.28127 -0.54041 254 254 254
1.60538 -0.28956 -0.51803 236 219 208
1.64445 -0.29240 -0.53448 203 176 166
1.64204 -0.30235 -0.52136 137 100 81
1.64822 -0.32037 -0.50296 112 102 80
1.64582 -0.33021 -0.48996 90 81 72
1.65719 -0.32970 -0.47603 89 80 71
1.65080 -0.33888 -0.48213 85 79 70
1.64441 -0.34807 -0.48823 84 76 55
1.19112 -0.68570 0.16604 90 81 70
1.20502 -0.69219 0.16674 47 28 23
1.20390 -0.70639 0.16812 34 22 14
1.50466 -0.88528 0.24538 7 11 27
1.49493 -0.88572 0.23348 20 18 20
1.55550 -0.89450 0.23058 55 67 100
1.58757 -0.90318 0.22467 164 188 222
1.67279 -0.93712 0.22195 195 180 231
1.73945 -0.94829 0.20144 105 106 167
1.73816 -0.96466 0.20303 27 16 54
1.75973 -0.95713 0.20172 39 31 81
1.76478 -0.96515 0.20874 38 11 61
1.77208 -0.97332 0.21479 51 38 55
1.75067 -0.97964 0.23323 89 92 94
1.77094 -0.98863 0.23368 126 139 146
1.79134 -1.00539 0.24335 132 144 165
1.80693 -1.01421 0.24598 130 144 170
1.80454 -1.02170 0.25615 144 160 178
1.80979 -1.02977 0.26313 166 174 182
1.82238 -1.03844 0.26710 171 154 144
1.86209 -1.04945 0.26009 151 115 87
1.86219 -1.05718 0.26928 122 86 62
1.85758 -1.06446 0.28033 102 65 63
1.85337 -1.07174 0.29117 95 49 72
1.86095 -1.08009 0.29730 85 42 72
1.87155 -1.07961 0.31028 89 72 109
1.86641 -1.08824 0.30428 73 46 71
1.87701 -1.08776 0.31727 110 117 159
1.88163 -1.09737 0.30746 73 54 97
1.89227 -1.09689 0.32049 191 202 220
1.88629 -1.10548 0.31479 136 131 175
3.57678 -1.46087 -0.11907 81 72 82
3.57480 -1.48594 -0.11663 155 129 139
3.12821 -1.88063 0.61067 211 217 220
3.12988 -1.85945 0.60861 216 219 222
3.12230 -1.87034 0.60137 215 219 222
2.96036 -1.85564 0.66606 184 187 201
2.89134 -1.85468 0.69996 173 179 199
2.88977 -1.87461 0.70190 189 206 232
2.87275 -1.85808 0.71348 175 184 208
2.86172 -1.86337 0.72541 183 198 226
2.85097 -1.86867 0.73721 190 208 234
2.84314 -1.87468 0.74837 179 190 215
2.87915 -1.90854 0.77056 79 81 108
2.89181 -1.92006 0.77790 90 87 107
2.90812 -1.93261 0.78462 105 106 112
2.90511 -1.93985 0.79480 123 132 131
2.91751 -1.95135 0.80226 133 137 135
2.90829 -1.95681 0.81347 106 100 112
2.90791 -1.97270 0.83265 82 86 97
2.90636 -1.99234 0.83456 105 110 118
2.76194 -1.97694 0.91188 109 112 119
2.76046 -1.99575 0.91371 85 80 84
2.76407 -1.98514 0.92060 91 88 97
2.76931 -1.99426 0.92885 92 91 96
2.77456 -2.00339 0.93709 98 106 107
2.76783 -2.01306 0.93067 100 103 111
0.81378 0.35845 -0.90825 118 151 241
0.81035 0.34672 -0.89241 111 143 238
0.81171 0.33765 -0.88224 101 121 220
0.81212 0.32811 -0.87101 74 97 186
0.83971 0.33306 -0.89114 61 75 151
0.86017 0.31432 -0.87919 33 34 71
0.85894 0.29875 -0.87768 11 12 43
0.86143 0.30518 -0.86887 19 19 60
0.87102 0.30030 -0.86795 10 10 45
0.88421 0.29719 -0.87102 8 11 45
0.91519 0.28316 -0.87013 13 16 45
0.91952 0.27547 -0.86313 18 16 41
0.92511 0.26837 -0.85749 29 26 37
0.91751 0.25498 -0.83752 36 32 55
0.94168 0.25671 -0.85203 42 47 83
0.94559 0.24878 -0.84453 55 69 103
0.94434 0.23294 -0.84299 96 121 187
0.96261 0.24693 -0.85107 80 95 135
0.98798 0.24881 -0.86637 106 120 145
0.98415 0.23722 -0.85050 54 81 105
0.97007 0.22107 -0.82390 19 20 35
0.96882 0.20518 -0.82235 10 9 28
0.95732 0.16750 -0.75309 8 11 36
0.94735 0.16705 -0.76530 9 12 26
0.95172 0.15946 -0.75843 9 11 31
0.95938 0.15893 -0.74386 14 18 63
0.96742 0.15289 -0.74075 31 37 85
0.97679 0.14737 -0.73896 61 64 101
0.99276 0.14454 -0.74378 61 67 99
1.03058 0.14094 -0.75893 32 28 63
1.02932 0.12497 -0.75737 23 26 40
1.05429 0.14089 -0.77105 23 24 51
1.05301 0.12478 -0.76949 25 26 40
1.09273 0.14650 -0.79756 17 22 50
1.09144 0.13016 -0.79597 27 26 42
1.11532 0.14562 -0.80813 20 22 51
1.11402 0.12916 -0.80653 25 24 47
1.18314 0.15211 -0.85080 43 49 78
1.17710 0.14343 -0.85656 19 24 50
1.18181 0.13524 -0.84916 16 20 49
1.17666 0.13967 -0.83255 56 66 88
1.17533 0.12288 -0.83092 19 20 46
1.16295 0.07590 -0.74902 16 18 63
1.16165 0.05939 -0.74741 22 23 49
1.16195 0.06591 -0.73652 15 26 78
1.17691 0.06152 -0.73894 32 48 110
1.14712 0.04167 -0.69982 70 89 158
1.18696 0.04573 -0.72519 117 143 195
1.17885 0.01443 -0.68347 97 118 145
1.18665 0.00752 -0.67919 81 112 157
1.20738 0.00471 -0.68649 140 177 212
1.24689 0.00771 -0.71042 220 243 251
1.25636 0.00107 -0.70732 251 254 254
1.26706 0.00155 -0.69422 254 254 254
1.26104 -0.00709 -0.69995 254 254 254
1.49781 -0.00662 -0.82230 209 172 195
1.51133 -0.01307 -0.82152 217 181 200
1.50989 -0.03126 -0.81976 252 252 249
1.52141 -0.02053 -0.81777 245 250 241
1.51997 -0.03875 -0.81600 239 232 231
1.51909 -0.04156 -0.79135 229 214 214
1.55575 -0.08277 -0.76079 168 140 140
1.54419 -0.09571 -0.73933 203 180 153
1.51622 -0.11249 -0.70481 224 223 194
1.51364 -0.13282 -0.67910 212 193 187
1.52076 -0.14098 -0.67298 174 143 152
1.51309 -0.15251 -0.65520 108 75 120
1.53123 -0.17765 -0.63439 245 236 247
1.52983 -0.19541 -0.63266 253 253 253
1.54155 -0.18513 -0.63073 252 246 247
1.54015 -0.20293 -0.62900 254 254 253
1.59942 -0.28914 -0.53575 254 251 241
1.59723 -0.29900 -0.52281 236 224 210
1.61222 -0.30594 -0.52219 216 187 186
1.64546 -0.30997 -0.53446 114 86 86
1.65009 -0.31876 -0.52630 116 138 125
1.65218 -0.32795 -0.51635 113 118 108
1.63989 -0.33933 -0.49638 89 84 66
1.19114 -0.69278 0.15837 95 86 69
1.20802 -0.69921 0.15740 52 30 23
1.20690 -0.71345 0.15878 34 22 18
1.54875 -0.89507 0.21700 7 12 29
1.53885 -0.89552 0.20488 22 20 17
1.52161 -0.90130 0.23843 35 56 85
1.58196 -0.91124 0.21932 148 190 219
1.72634 -0.94091 0.18062 133 119 194
1.73431 -0.94905 0.18629 70 71 124
1.73301 -0.96546 0.18788 36 32 40
1.74137 -0.95716 0.19238 26 30 65
1.75874 -0.97361 0.20318 48 44 54
1.72344 -0.97902 0.22782 96 103 103
1.74236 -0.98788 0.22871 129 139 142
1.75134 -0.99611 0.23397 119 131 150
1.75199 -1.00377 0.24282 100 109 135
1.75070 -1.02010 0.24440 78 75 93
1.75790 -1.01180 0.24941 87 95 126
1.77246 -1.02051 0.25236 101 114 131
1.81171 -1.03124 0.24504 130 144 153
1.80336 -1.03822 0.25771 156 162 177
1.81376 -1.04673 0.26256 173 171 177
1.83232 -1.05598 0.26411 163 142 126
1.85517 -1.06568 0.26399 123 88 69
1.84536 -1.07246 0.27716 93 49 59
1.84624 -1.08018 0.28597 81 31 53
1.85225 -1.08838 0.29271 67 26 35
1.85099 -1.09586 0.30233 52 21 30
1.87127 -1.10552 0.30348 65 48 65
1.93466 -1.11976 0.28795 141 153 167
1.94549 -1.11927 0.30121 230 235 245
1.93940 -1.12801 0.29540 230 246 249
1.93332 -1.13675 0.28960 248 253 253
2.81315 -1.26078 0.00515 254 251 241
2.79945 -1.26140 -0.01162 254 254 254
2.80545 -1.27183 -0.00219 254 254 253
3.53595 -1.45811 -0.13002 156 77 63
3.52006 -1.45883 -0.14948 150 120 121
3.52702 -1.47094 -0.13854 168 112 104
3.53398 -1.48305 -0.12760 183 122 110
3.11844 -1.87335 0.58276 215 218 222
3.12011 -1.85212 0.58070 217 219 222
3.11251 -1.86304 0.57345 216 218 222
3.12604 -1.86243 0.59001 217 219 223
2.97606 -1.86352 0.64421 176 181 195
2.84579 -1.87118 0.72042 189 203 228
2.85210 -1.89712 0.74828 82 77 109
2.87310 -1.91895 0.76365 93 99 102
2.86605 -1.92908 0.75693 139 146 157
2.87155 -1.93864 0.76557 165 175 175
2.89575 -1.93325 0.76915 118 122 131
2.89419 -1.95302 0.77107 161 167 172
2.89548 -1.94124 0.77887 144 152 155
2.89392 -1.96099 0.78079 133 124 146
2.90230 -1.95119 0.78730 150 159 155
2.90074 -1.97095 0.78922 86 68 100
2.91225 -1.96203 0.79519 121 113 130
2.91069 -1.98181 0.79711 66 65 80
2.89991 -1.96656 0.80697 80 61 92
2.89835 -1.98625 0.80889 93 103 106
2.89710 -1.97375 0.81704 80 75 93
2.89555 -1.99340 0.81895 102 108 111
2.74825 -1.99959 0.92460 93 97 103
2.74677 -2.01832 0.92642 103 105 117
0.82411 0.32955 -0.89659 36 43 90
0.84195 0.31936 -0.89363 11 10 61
0.85274 0.30536 -0.88239 11 10 45
0.86543 0.29228 -0.87328 13 14 32
0.87750 0.28858 -0.87512 17 16 40
0.89412 0.28708 -0.88197 22 21 47
0.90328 0.28179 -0.88037 30 25 51
0.90811 0.27435 -0.87394 36 40 74
0.89514 0.25829 -0.84786 50 69 105
0.91475 0.25799 -0.85772 76 104 132
0.94887 0.24480 -0.85962 89 114 167
0.98494 0.23193 -0.86293 56 80 123
0.97396 0.21719 -0.83948 20 18 33
0.97270 0.20123 -0.83793 11 10 30
0.94915 0.14893 -0.74443 16 13 41
0.93921 0.14848 -0.75660 9 12 30
0.96197 0.14490 -0.74626 45 56 69
0.97382 0.14040 -0.74702 67 77 90
0.98793 0.13676 -0.74999 54 54 82
0.98668 0.12098 -0.74845 37 29 57
1.00648 0.13484 -0.75735 38 33 65
1.00523 0.11896 -0.75580 31 27 48
1.12964 0.03876 -0.70591 17 17 56
1.11928 0.03829 -0.71860 22 26 45
1.12381 0.03040 -0.71147 21 23 47
1.12835 0.02250 -0.70433 18 20 48
1.12540 0.02788 -0.69062 16 17 74
1.14394 0.02473 -0.69649 48 66 115
1.15069 0.01755 -0.69136 81 114 155
1.16170 0.01176 -0.69013 85 119 171
1.17238 0.00580 -0.68853 70 106 164
1.20954 -0.01073 -0.68799 151 204 235
1.20823 -0.02729 -0.68638 132 180 218
1.46577 -0.02309 -0.80660 208 177 171
1.49795 -0.05477 -0.78525 215 216 216
1.46740 -0.08275 -0.73568 226 180 203
1.46602 -0.09299 -0.72265 223 150 199
1.47764 -0.09993 -0.72034 224 162 174
1.47459 -0.12036 -0.69418 241 232 214
1.47063 -0.13108 -0.67922 238 233 226
1.50842 -0.14172 -0.68611 238 219 203
1.50358 -0.15262 -0.67048 231 199 185
1.50720 -0.16154 -0.66163 212 179 158
1.50743 -0.17120 -0.65012 191 170 124
1.51364 -0.17953 -0.64334 208 176 134
1.59435 -0.28857 -0.55421 254 254 254
1.59576 -0.27074 -0.55594 254 254 254
1.58937 -0.27991 -0.56203 254 254 254
1.60255 -0.29668 -0.54872 245 247 236
1.60309 -0.30608 -0.53769 235 217 194
1.61467 -0.31365 -0.53461 223 194 178
1.63699 -0.31954 -0.53915 95 58 54
1.63876 -0.32878 -0.52897 87 72 77
1.67168 -0.33319 -0.54080 133 134 113
1.63070 -0.34893 -0.50052 114 96 65
1.61809 -0.36019 -0.48041 95 80 62
1.62939 -0.35968 -0.46657 87 76 65
1.61669 -0.37792 -0.47868 101 90 71
1.18852 -0.69295 0.14368 124 128 94
1.19972 -0.69960 0.14585 97 93 68
1.21025 -0.70631 0.14843 53 33 22
1.20912 -0.72059 0.14982 36 21 20
1.55988 -0.90376 0.20385 12 16 28
1.54992 -0.90421 0.19166 20 22 17
1.55428 -0.91180 0.19851 20 21 27
1.55864 -0.91939 0.20537 21 23 38
1.64968 -0.93035 0.18906 120 113 177
1.73990 -0.94264 0.15684 56 58 93
1.72901 -0.94981 0.17114 44 56 77
1.73435 -0.97322 0.19652 37 42 44
1.70496 -0.97896 0.21874 79 89 92
1.72642 -0.98797 0.21841 120 136 140
1.72513 -1.00427 0.21999 139 154 156
1.73140 -0.99592 0.22537 132 140 154
1.73679 -1.00389 0.23215 116 115 140
1.74295 -1.01193 0.23861 94 90 109
1.75843 -1.02828 0.25022 91 91 103
1.79584 -1.03895 0.24356 128 132 143
1.83716 -1.06550 0.25399 155 133 132
1.83496 -1.07296 0.26410 117 62 65
1.83799 -1.08088 0.27206 92 37 48
1.83947 -1.08865 0.28063 81 36 45
1.84167 -1.09647 0.28889 63 25 26
1.85123 -1.10503 0.29421 69 36 47
1.87083 -1.11468 0.29560 133 122 129
1.89148 -1.12451 0.29667 211 222 216
1.89016 -1.14129 0.29830 254 254 254
2.81419 -1.28260 0.00621 254 253 249
2.80048 -1.28323 -0.01057 254 254 254
2.80648 -1.29367 -0.00113 254 254 254
2.81249 -1.30411 0.00830 254 254 253
2.82436 -1.30326 0.02576 240 235 209
2.90818 -1.32375 0.00675 212 197 161
3.02625 -1.87165 0.60438 184 186 194
2.87651 -1.87504 0.68646 189 205 229
2.82982 -1.89504 0.73485 75 73 108
2.86130 -1.91972 0.74815 97 96 113
2.85974 -1.93942 0.75006 180 186 186
2.72842 -1.99773 0.91121 83 87 91
2.72695 -2.01642 0.91303 100 105 105
2.73605 -2.00754 0.91904 96 104 111
2.73457 -2.02624 0.92086 104 107 108
0.82372 0.32434 -0.90791 18 11 38
0.82990 0.31778 -0.90325 16 11 42
0.84190 0.30442 -0.89346 15 16 43
0.84717 0.29735 -0.88771 15 15 35
0.85451 0.29133 -0.88431 25 19 52
0.85635 0.28249 -0.87462 31 28 66
0.85512 0.26693 -0.87311 88 119 172
0.86646 0.27782 -0.87431 39 52 95
0.91510 0.29216 -0.91727 58 79 116
0.92419 0.28670 -0.91548 79 97 132
0.96259 0.29544 -0.94628 92 117 164
0.95477 0.28163 -0.92550 108 148 174
0.92219 0.25613 -0.87753 100 136 171
0.92815 0.24916 -0.87227 86 106 167
0.93405 0.24215 -0.86691 78 104 167
0.94064 0.23544 -0.86230 76 109 162
0.95716 0.23327 -0.86839 83 92 148
0.97626 0.23217 -0.87714 83 90 141
0.97312 0.22093 -0.86191 44 57 87
0.98140 0.21485 -0.85894 19 17 27
0.98013 0.19880 -0.85738 14 14 26
0.93887 0.13894 -0.74491 14 12 39
0.92896 0.13849 -0.75705 12 14 33
0.93330 0.13093 -0.75022 14 13 40
0.94700 0.13296 -0.74197 32 36 58
0.97366 0.12513 -0.74659 40 35 69
0.97242 0.10942 -0.74507 49 46 59
1.11155 0.00748 -0.67734 25 28 60
1.10128 0.00701 -0.68992 22 25 45
1.15972 -0.00482 -0.68791 69 125 204
1.17432 -0.00956 -0.68989 61 116 193
1.23604 -0.02830 -0.69983 178 174 206
1.47419 -0.00782 -0.85016 214 205 204
1.42787 -0.03102 -0.79772 193 183 162
1.45281 -0.03414 -0.80712 204 203 185
1.48512 -0.04554 -0.81041 239 240 240
1.48369 -0.06360 -0.80865 214 193 191
1.46194 -0.06180 -0.77855 226 206 212
1.44145 -0.08704 -0.73729 185 152 207
1.45774 -0.09273 -0.73900 215 169 205
1.46668 -0.11022 -0.72262 246 228 230
1.46528 -0.12797 -0.72090 254 254 254
1.44025 -0.12649 -0.68905 253 253 247
1.43886 -0.14404 -0.68734 254 254 254
1.43653 -0.13708 -0.67431 253 251 248
1.43515 -0.15457 -0.67260 254 254 252
1.44294 -0.14521 -0.66787 249 247 243
1.44156 -0.16271 -0.66617 254 254 250
1.44976 -0.15326 -0.66176 248 246 234
1.44838 -0.17077 -0.66006 254 254 251
1.45485 -0.16172 -0.65424 250 246 233
1.45346 -0.17923 -0.65253 254 254 252
1.46018 -0.17012 -0.64690 253 245 234
1.45879 -0.18764 -0.64520 254 254 252
1.48873 -0.19265 -0.63478 222 207 165
1.48761 -0.20248 -0.62233 232 214 205
1.57968 -0.29916 -0.55422 250 243 234
1.58798 -0.30723 -0.54885 226 201 185
1.59000 -0.31635 -0.53890 239 217 220
1.59622 -0.32478 -0.53201 250 233 192
1.65150 -0.32548 -0.56033 161 110 39
1.63080 -0.33825 -0.53400 102 61 41
1.64006 -0.34632 -0.52915 126 123 129
1.64507 -0.35504 -0.52127 126 128 119
1.61782 -0.36843 -0.49073 108 98 75
1.18080 -0.70035 0.14033 127 129 101
1.20758 -0.70651 0.13364 100 96 76
1.21088 -0.71349 0.14032 55 36 25
1.20975 -0.72781 0.14171 37 23 23
1.69980 -0.94924 0.16695 33 44 47
1.69851 -0.96558 0.16854 18 17 33
1.71001 -0.95750 0.17152 29 40 46
1.72931 -0.96634 0.17201 26 26 46
1.73005 -0.97408 0.18096 35 32 52
1.70512 -0.98011 0.20140 66 79 93
1.71034 -0.98806 0.20823 101 121 136
1.71766 -0.99615 0.21413 123 140 156
1.73049 -1.01224 0.22679 145 150 152
1.72465 -1.02063 0.22122 144 161 169
1.73601 -1.02023 0.23352 129 125 127
1.74261 -1.02832 0.23979 109 104 102
1.74132 -1.04464 0.24138 145 152 158
1.76412 -1.03766 0.23971 115 117 117
1.78976 -1.04743 0.23799 139 149 157
1.79701 -1.05569 0.24413 152 158 176
1.81529 -1.06496 0.24567 142 125 152
1.81804 -1.07285 0.25375 118 72 91
1.82283 -1.08093 0.26096 99 42 48
1.83162 -1.08939 0.26655 88 33 41
1.83520 -1.09736 0.27428 76 27 39
1.84215 -1.10567 0.28063 79 46 62
1.84417 -1.11347 0.28898 136 118 139
1.88121 -1.12504 0.28341 216 211 215
1.87989 -1.14183 0.28504 254 254 254
1.86276 -1.13063 0.29989 249 251 248
1.86144 -1.14730 0.30151 254 254 254
2.82816 -1.32548 0.02583 253 249 233
2.81387 -1.33320 0.04268 243 234 201
2.84345 -1.35646 0.05514 181 163 129
2.85716 -1.35584 0.07193 135 120 124
2.84945 -1.36690 0.06458 135 120 81
3.14500 -1.87905 0.52675 213 214 217
3.14670 -1.85753 0.52466 215 216 220
3.13899 -1.86861 0.51731 216 217 219
3.15271 -1.86798 0.53410 215 216 220
3.11133 -1.87957 0.54514 206 208 210
3.10965 -1.90090 0.54721 173 177 189
3.06001 -1.87548 0.56726 190 190 195
3.02381 -1.87500 0.58578 177 175 184
2.98533 -1.88229 0.61487 175 179 193
2.93440 -1.88591 0.64611 189 203 228
2.87630 -1.88713 0.67823 164 168 202
2.84550 -1.89518 0.70419 101 105 126
2.82954 -1.90697 0.72683 73 68 77
2.82799 -1.92660 0.72874 179 191 181
2.71920 -1.99159 0.88715 109 111 118
2.70727 -1.99214 0.87254 120 123 130
2.72324 -2.00781 0.90459 91 96 100
2.72177 -2.02651 0.90641 103 105 114
0.81074 0.32223 -0.91635 14 14 28
0.81817 0.31636 -0.91320 23 17 27
0.82434 0.30979 -0.90855 29 19 32
0.83540 0.30575 -0.90956 29 21 56
0.84759 0.30223 -0.91182 34 40 76
0.88480 0.31142 -0.94281 45 62 102
0.89943 0.30887 -0.94754 68 83 132
0.89817 0.29292 -0.94599 84 118 186
0.95290 0.30539 -0.97188 91 125 184
0.95728 0.29742 -0.96458 92 126 184
0.96155 0.28941 -0.95715 90 125 188
0.93002 0.26425 -0.90986 88 118 178
0.90262 0.24138 -0.86754 70 96 145
0.90794 0.23417 -0.86166 60 87 142
0.96115 0.23934 -0.89633 58 60 110
0.94822 0.22358 -0.87035 85 92 122
0.98163 0.22893 -0.89466 92 105 128
1.00174 0.22807 -0.90436 45 56 74
0.97416 0.20593 -0.86283 20 21 23
0.97289 0.18989 -0.86127 19 18 30
1.10185 -0.00211 -0.67917 29 30 67
1.11907 -0.00576 -0.68395 74 92 139
1.12552 -0.01298 -0.67865 105 150 211
1.12914 -0.02113 -0.67073 91 151 234
1.14193 -0.02637 -0.67121 81 152 232
1.16994 -0.02694 -0.68548 66 138 210
1.20637 -0.04400 -0.68428 112 116 164
1.22661 -0.04741 -0.69097 166 135 165
1.34856 -0.04087 -0.76401 155 140 166
1.37523 -0.04316 -0.77548 140 125 139
1.39785 -0.04674 -0.78322 140 132 123
1.41353 -0.05236 -0.78480 161 161 163
1.42769 -0.05846 -0.78497 184 182 198
1.44359 -0.08407 -0.76245 210 176 195
1.43246 -0.09681 -0.74109 199 173 194
1.46490 -0.19588 -0.63849 252 248 238
1.45374 -0.19639 -0.65216 253 254 252
1.47234 -0.20385 -0.63281 240 221 205
1.46957 -0.21397 -0.61908 226 203 192
1.49320 -0.21861 -0.62608 246 243 240
1.49181 -0.23622 -0.62437 254 254 254
1.51878 -0.28008 -0.56533 251 254 254
1.52017 -0.26252 -0.56704 254 254 254
1.51388 -0.27155 -0.57304 254 254 254
1.52507 -0.27104 -0.55934 254 254 254
1.52997 -0.27957 -0.55163 254 254 254
1.51740 -0.29763 -0.56363 242 202 238
1.53939 -0.28580 -0.56941 251 250 254
1.54277 -0.29465 -0.56051 251 236 246
1.57233 -0.31791 -0.54813 249 243 225
1.57093 -0.33565 -0.54640 254 254 254
1.57563 -0.32679 -0.53914 253 251 248
1.57423 -0.34452 -0.53742 254 254 253
1.58864 -0.33413 -0.53721 254 253 237
1.64880 -0.35331 -0.54611 127 88 76
1.59441 -0.38925 -0.47356 105 91 85
1.60564 -0.38874 -0.45980 99 91 78
1.59933 -0.39781 -0.46582 102 91 84
1.59301 -0.40688 -0.47184 105 86 69
1.18748 -0.70022 0.12021 82 72 59
1.17838 -0.70063 0.10906 69 56 50
1.18352 -0.70740 0.13102 130 130 109
1.20900 -0.71369 0.12503 107 95 83
1.21153 -0.72070 0.13217 58 35 28
1.21039 -0.73506 0.13356 31 25 18
1.72609 -0.97497 0.16518 24 25 49
1.71560 -0.97545 0.15234 14 8 22
1.70231 -0.98108 0.18528 51 62 83
1.70102 -0.99739 0.18686 68 81 112
1.68967 -0.98782 0.20018 73 87 110
1.69848 -0.99599 0.20537 89 103 125
1.70887 -1.00431 0.20989 109 121 139
1.71792 -1.01255 0.21503 128 143 159
1.72608 -1.02829 0.22973 149 154 157
1.75057 -1.03787 0.22825 148 152 151
1.77912 -1.05551 0.23436 141 127 151
1.77568 -1.06279 0.24501 125 83 116
1.77438 -1.07924 0.24660 89 15 28
1.80736 -1.07332 0.24084 102 44 83
1.81281 -1.08146 0.24778 91 27 58
1.81922 -1.08970 0.25433 89 24 29
1.82728 -1.09811 0.26021 91 22 28
1.83818 -1.10684 0.26495 111 55 78
1.83505 -1.11410 0.27542 162 146 156
1.87245 -1.12573 0.26953 221 224 222
1.87112 -1.14253 0.27116 254 254 254
1.84164 -1.12995 0.29108 249 248 249
1.84033 -1.14656 0.29269 254 254 254
2.81218 -1.34505 0.03317 254 253 246
2.79851 -1.34567 0.01643 254 254 254
2.80450 -1.35608 0.02584 254 254 254
2.81048 -1.36650 0.03525 254 254 253
2.80408 -1.35349 0.04772 252 248 229
2.80979 -1.36384 0.05719 238 230 193
2.87068 -1.38215 0.04684 204 185 130
2.88448 -1.38152 0.06375 127 113 108
2.89586 -1.39548 0.04953 173 153 132
2.90973 -1.39485 0.06651 130 119 117
2.90194 -1.40605 0.05908 134 123 107
3.14361 -1.88275 0.50710 211 213 213
3.14532 -1.86117 0.50500 214 215 220
3.13759 -1.87227 0.49763 213 216 222
3.01544 -1.86820 0.55793 180 184 194
2.99483 -1.88018 0.58345 174 175 190
2.97382 -1.88330 0.59845 175 182 198
2.94983 -1.88554 0.61396 184 199 218
2.91178 -1.89228 0.64245 178 185 211
2.88677 -1.89391 0.65777 148 147 181
2.88518 -1.91398 0.65972 98 96 114
2.85535 -1.90184 0.68416 100 98 119
2.84443 -1.90699 0.69622 86 83 96
2.82234 -1.90900 0.71045 75 74 76
2.82078 -1.92865 0.71236 162 176 176
2.82679 -1.91826 0.71928 120 129 118
2.82524 -1.93791 0.72119 187 193 196
0.80345 0.31334 -0.91958 30 33 58
0.90543 0.35730 -1.02811 42 58 90
0.82880 0.30704 -0.92563 68 84 115
0.94708 0.29703 -0.97743 88 121 195
0.94580 0.28078 -0.97585 42 55 88
0.94924 0.28799 -0.96762 80 114 173
0.94796 0.27176 -0.96604 24 24 50
0.94891 0.27777 -0.95503 65 84 131
0.98669 0.28575 -0.98514 45 62 105
0.98539 0.26931 -0.98354 28 27 55
0.97547 0.27031 -0.96033 28 41 87
0.97418 0.25399 -0.95874 29 31 52
0.97760 0.25123 -0.93831 29 18 56
0.96861 0.23713 -0.91632 45 46 66
0.95598 0.22149 -0.89050 61 72 83
0.95471 0.20544 -0.88894 40 40 80
0.96183 0.21432 -0.88496 51 61 100
0.98922 0.21672 -0.90268 35 36 64
0.98659 0.20569 -0.88786 24 23 33
0.98531 0.18951 -0.88629 19 19 28
0.91524 0.10847 -0.73122 23 21 48
0.90540 0.10802 -0.74327 12 9 32
0.92297 0.10236 -0.72798 36 38 56
1.07329 -0.00867 -0.67443 27 31 39
1.07455 0.00730 -0.67598 22 26 41
1.06884 -0.00091 -0.68144 24 30 38
1.06312 -0.00913 -0.68689 28 35 48
1.08235 -0.01490 -0.67175 34 46 80
1.09846 -0.01889 -0.67563 93 127 178
1.11172 -0.02388 -0.67673 143 195 239
1.11732 -0.03136 -0.67068 120 185 248
1.12017 -0.03972 -0.66207 90 172 251
1.16277 -0.04513 -0.67853 84 158 215
1.18497 -0.04775 -0.68735 75 143 200
1.20393 -0.06088 -0.68165 163 169 178
1.33251 -0.04280 -0.77314 161 145 136
1.33114 -0.06013 -0.77145 216 198 159
1.36407 -0.04367 -0.78914 156 136 122
1.36896 -0.05217 -0.78146 160 137 119
1.36758 -0.06969 -0.77976 235 218 180
1.39854 -0.05389 -0.79537 176 156 131
1.39715 -0.07157 -0.79365 234 217 194
1.40465 -0.07206 -0.77660 204 185 182
1.40325 -0.08972 -0.77488 228 213 200
1.40049 -0.08303 -0.76103 215 199 193
1.39910 -0.10063 -0.75932 225 213 203
1.41582 -0.08887 -0.76223 232 218 202
1.41501 -0.09891 -0.74960 239 223 211
1.41581 -0.13771 -0.70291 242 249 247
1.41606 -0.14731 -0.69139 250 253 252
1.42094 -0.15579 -0.68372 254 254 252
1.44987 -0.20676 -0.63747 250 247 242
1.43874 -0.20727 -0.65110 250 246 241
1.44362 -0.21575 -0.64344 246 238 232
1.45836 -0.21449 -0.63268 241 224 218
1.46816 -0.22197 -0.62889 241 227 216
1.46677 -0.23949 -0.62719 254 254 253
1.49165 -0.28349 -0.56688 249 252 244
1.49875 -0.29157 -0.56091 244 216 222
1.54010 -0.30310 -0.56927 246 209 235
1.53870 -0.32077 -0.56755 254 254 252
1.54531 -0.31163 -0.56173 251 248 238
1.54392 -0.32930 -0.56001 254 254 253
1.55667 -0.31915 -0.55873 253 251 240
1.55527 -0.33686 -0.55701 254 254 254
1.56457 -0.32727 -0.55315 254 253 251
1.56317 -0.34500 -0.55143 254 254 254
1.57470 -0.35381 -0.52639 254 253 243
1.56342 -0.35432 -0.54020 254 254 254
1.56836 -0.36292 -0.53243 254 254 254
1.59043 -0.36080 -0.52640 249 240 211
1.59689 -0.36921 -0.51968 233 215 162
1.58924 -0.38892 -0.49162 149 123 104
1.59863 -0.39689 -0.48702 120 98 61
1.19087 -0.70729 0.11040 81 69 63
1.18173 -0.70771 0.09922 75 58 44
1.19072 -0.71437 0.11908 130 130 110
1.20556 -0.72104 0.11915 117 97 83
1.21849 -0.72781 0.12038 58 35 27
1.21735 -0.74223 0.12178 33 23 9
1.71219 -0.98290 0.16324 33 37 70
1.70173 -0.98338 0.15043 21 16 31
1.67449 -0.98795 0.18975 56 75 115
1.68740 -1.00395 0.20220 79 79 110
1.69243 -1.01186 0.20909 86 91 125
1.70741 -1.02056 0.21155 107 115 147
1.71839 -1.02898 0.21584 137 150 167
1.72123 -1.03675 0.22374 149 159 169
1.73715 -1.04565 0.22593 146 143 152
1.75388 -1.05467 0.22785 130 106 123
1.78033 -1.06465 0.22567 110 52 77
1.79094 -1.07325 0.23037 97 21 41
1.80820 -1.09014 0.24155 90 16 32
1.81205 -1.09812 0.24916 109 55 73
1.81387 -1.10589 0.25761 155 121 131
1.84752 -1.11704 0.25297 209 183 185
1.84426 -1.12431 0.26355 238 235 230
1.84294 -1.14102 0.26517 254 254 254
1.83772 -1.13117 0.27542 251 253 250
1.83640 -1.14782 0.27704 254 254 254
2.81907 -1.37729 0.04372 254 253 243
2.80539 -1.37791 0.02697 254 254 254
2.81138 -1.38834 0.03639 254 254 254
2.81738 -1.39876 0.04580 254 254 253
2.80523 -1.38479 0.06031 251 245 226
2.79934 -1.39339 0.07393 233 225 206
2.92286 -1.42161 0.04142 203 192 160
2.93682 -1.42098 0.05852 123 116 111
2.92898 -1.43225 0.05104 195 177 157
2.98939 -1.88279 0.56550 173 177 191
2.85766 -1.91465 0.67541 109 99 104
2.81995 -1.91237 0.69303 84 67 87
2.81839 -1.93207 0.69495 153 153 148
2.83142 -1.92359 0.70047 95 91 115
2.82986 -1.94333 0.70238 184 194 198
2.69804 -2.00847 0.87565 119 101 111
2.68613 -2.00901 0.86107 139 134 143
2.69656 -2.02715 0.87746 91 83 91
2.70587 -2.02580 0.89246 98 103 106
2.70440 -2.04448 0.89428 107 107 117
0.86731 0.33201 -0.99529 81 110 162
0.87925 0.32815 -0.99713 83 115 169
0.88687 0.32199 -0.99380 81 114 176
0.95015 0.29300 -0.99311 78 100 151
0.97571 0.27488 -0.98502 31 26 55
0.96525 0.27440 -0.99782 33 37 50
0.96983 0.26644 -0.99062 39 36 59
0.97441 0.25848 -0.98343 34 33 51
0.96045 0.22773 -0.91924 30 28 57
0.95016 0.22726 -0.93185 30 31 47
0.95467 0.21942 -0.92476 31 34 53
0.95918 0.21158 -0.91767 48 45 64
0.90331 0.09791 -0.72981 20 17 37
0.89350 0.09747 -0.74183 12 9 24
0.91242 0.09238 -0.72805 32 36 49
0.92591 0.08855 -0.73078 41 45 63
0.93578 0.08900 -0.71869 51 54 69
0.93023 0.08103 -0.72398 43 49 69
0.92468 0.07306 -0.72927 40 42 59
1.00508 0.01697 -0.68692 37 37 43
1.00633 0.03269 -0.68844 30 26 42
1.00070 0.02460 -0.69381 42 38 47
0.99507 0.01652 -0.69918 54 53 59
1.01071 0.02506 -0.68155 26 27 40
1.01510 0.01743 -0.67466 24 28 37
1.00000 0.00603 -0.67080 35 38 36
1.00997 0.00648 -0.65859 25 29 38
1.01262 0.00128 -0.67193 34 37 40
1.02263 0.00174 -0.65967 29 30 41
1.01138 -0.01442 -0.67040 45 47 58
1.05774 -0.02012 -0.67055 36 43 40
1.06466 -0.02703 -0.66592 69 86 102
1.08905 -0.02833 -0.67769 115 157 208
1.09192 -0.03664 -0.66914 145 206 251
1.09065 -0.05267 -0.66758 103 193 252
1.10146 -0.04283 -0.66681 122 197 252
1.10386 -0.05128 -0.65783 93 184 253
1.10961 -0.05869 -0.65196 94 192 252
1.11808 -0.06529 -0.64855 96 190 242
1.13840 -0.06837 -0.65591 82 172 229
1.15377 -0.07304 -0.65865 92 175 226
1.40082 -0.10998 -0.74886 225 214 205
1.38962 -0.11049 -0.76258 217 202 191
1.39452 -0.11902 -0.75487 216 201 188
1.39943 -0.12755 -0.74716 217 201 191
1.38664 -0.14259 -0.70138 209 195 172
1.38526 -0.15997 -0.69969 219 201 176
1.45136 -0.27072 -0.58071 248 252 253
1.44999 -0.28806 -0.57902 236 235 227
1.46766 -0.28635 -0.57060 244 229 212
1.48862 -0.30124 -0.56393 247 222 233
1.48725 -0.31868 -0.56224 254 254 253
1.51318 -0.30631 -0.57119 252 245 247
1.51180 -0.32388 -0.56949 254 254 253
1.52547 -0.31359 -0.56905 253 248 247
1.52407 -0.33121 -0.56733 254 254 254
1.56557 -0.38192 -0.50776 253 252 237
1.58274 -0.39803 -0.49753 230 217 161
1.19181 -0.71449 0.10197 81 69 59
1.18265 -0.71491 0.09076 76 61 47
1.19185 -0.72157 0.11057 129 131 109
1.19673 -0.72851 0.11636 119 107 86
1.21778 -0.73514 0.11291 61 40 28
1.21664 -0.74959 0.11431 35 25 18
1.37092 -0.84956 0.16847 21 13 20
1.37210 -0.83460 0.16702 19 14 14
1.36675 -0.84230 0.16191 18 14 18
1.37627 -0.84186 0.17358 17 15 12
1.38045 -0.84912 0.18014 17 15 18
1.38942 -0.85721 0.16767 29 17 13
1.39900 -0.85677 0.17940 19 14 14
1.39806 -0.86464 0.17199 31 18 10
1.40766 -0.86420 0.18374 21 15 11
1.40227 -0.87195 0.17860 24 15 5
1.69213 -0.99036 0.16419 37 49 57
1.68172 -0.99084 0.15145 23 21 29
1.68628 -0.99877 0.15861 28 31 44
1.67432 -0.99668 0.18164 50 69 86
1.67654 -1.00438 0.18981 63 72 95
1.68065 -1.01222 0.19710 79 82 98
1.69036 -1.02050 0.20187 97 104 118
1.69614 -1.02848 0.20843 116 127 145
1.70897 -1.03706 0.21187 120 127 150
1.72450 -1.04593 0.21416 110 91 126
1.75636 -1.05631 0.20938 99 61 92
1.76162 -1.06438 0.21632 95 39 60
1.77546 -1.07326 0.21957 100 14 29
1.78524 -1.08180 0.22461 105 25 27
1.78791 -1.08965 0.23272 107 57 38
1.80018 -1.09847 0.23675 148 118 100
1.80396 -1.10644 0.24439 208 193 188
1.82406 -1.11616 0.24522 234 229 225
1.82275 -1.13284 0.24685 254 254 254
1.82997 -1.12439 0.25203 250 246 245
1.82865 -1.14108 0.25365 254 254 254
1.83422 -1.13245 0.25951 254 254 251
1.83290 -1.14913 0.26114 254 254 254
2.84708 -1.42235 0.05829 254 251 235
2.84537 -1.44391 0.06038 254 254 254
2.85929 -1.43379 0.06554 252 245 233
2.87305 -1.43317 0.08239 181 157 153
2.85758 -1.45538 0.06764 254 254 251
2.86745 -1.50128 0.14329 129 132 142
2.88110 -1.50066 0.15999 194 200 216
2.82809 -1.50371 0.16779 142 143 176
2.84159 -1.50309 0.18432 176 174 201
2.83400 -1.51399 0.17708 130 129 176
2.88877 -1.55168 0.19302 212 215 222
2.90239 -1.55106 0.20970 211 212 212
2.89473 -1.56206 0.20240 219 218 219
3.08812 -1.87697 0.48018 199 200 207
3.08643 -1.89841 0.48227 171 175 183
2.98265 -1.86783 0.52678 173 174 178
2.96339 -1.88863 0.56266 182 196 210
2.94304 -1.89180 0.57766 188 204 218
2.92623 -1.89580 0.59173 174 188 204
2.92508 -1.90389 0.60223 144 149 176
2.92346 -1.92431 0.60421 95 92 107
2.92157 -1.91133 0.61320 113 114 136
2.91245 -1.91720 0.62535 98 97 112
2.90233 -1.92274 0.63764 101 94 110
2.89234 -1.92826 0.64983 118 115 135
2.88993 -1.93581 0.66035 126 122 136
2.88834 -1.95592 0.66230 142 139 129
2.68099 -2.01485 0.87100 114 101 117
2.67952 -2.03349 0.87281 95 86 97
0.87351 0.31991 -1.00260 85 104 170
0.88244 0.31442 -1.00083 94 106 173
0.88144 0.30383 -0.98735 91 109 178
0.89668 0.08954 -0.73390 18 15 25
0.88687 0.08909 -0.74590 14 10 20
0.90351 0.08308 -0.72979 28 34 45
0.91227 0.07737 -0.72767 37 41 60
0.98632 0.00427 -0.67936 50 52 55
0.97636 0.00382 -0.69155 57 57 67
0.98072 -0.00376 -0.68470 53 57 63
0.98508 -0.01135 -0.67785 48 56 61
0.98106 -0.00665 -0.66310 47 51 51
0.97983 -0.02221 -0.66159 45 53 66
0.99413 -0.01121 -0.66477 47 50 54
0.99290 -0.02683 -0.66325 41 45 67
1.03159 -0.02589 -0.66759 35 37 60
1.03283 -0.01010 -0.66912 33 38 50
1.02718 -0.01822 -0.67451 42 45 60
1.03953 -0.03239 -0.66404 50 59 82
1.07252 -0.03084 -0.68422 114 151 173
1.07125 -0.04684 -0.68266 111 200 253
1.07051 -0.04067 -0.67109 140 202 241
1.06925 -0.05663 -0.66954 98 194 254
1.07975 -0.04691 -0.66858 121 200 253
1.07849 -0.06291 -0.66703 98 198 253
1.09467 -0.06060 -0.66012 95 195 253
1.08893 -0.06885 -0.66559 101 206 254
1.09912 -0.06839 -0.65306 98 200 254
1.10612 -0.07542 -0.64835 103 206 253
1.11644 -0.08149 -0.64666 97 200 249
1.13454 -0.08533 -0.65200 90 187 246
1.15140 -0.08963 -0.65608 102 175 241
1.44991 -0.26002 -0.61324 238 244 246
1.44685 -0.26998 -0.59937 244 227 229
1.45646 -0.29618 -0.57268 248 243 232
1.45509 -0.31352 -0.57100 254 254 253
1.46287 -0.30432 -0.56628 252 246 243
1.46150 -0.32168 -0.56459 254 254 254
1.47693 -0.31115 -0.56572 253 249 249
1.47556 -0.32857 -0.56403 254 254 254
1.61645 -0.41114 -0.52084 233 228 179
1.61503 -0.42902 -0.51910 233 226 202
1.53719 -0.43050 -0.45326 159 144 100
1.59140 -0.43283 -0.48045 116 81 62
1.59313 -0.44179 -0.47045 102 72 62
1.60214 -0.44989 -0.46555 96 82 73
1.61340 -0.44937 -0.45176 96 86 79
1.60707 -0.45847 -0.45780 96 86 73
1.18516 -0.72192 0.09794 81 71 55
1.17601 -0.72234 0.08674 76 65 45
1.19436 -0.72877 0.10122 130 134 104
1.19850 -0.73576 0.10746 123 107 84
1.21999 -0.74245 0.10373 65 40 28
1.21884 -0.75694 0.10514 33 27 20
1.33655 -0.84227 0.16114 19 11 15
1.33773 -0.82744 0.15970 15 15 12
1.33241 -0.83507 0.15463 16 14 9
1.34187 -0.83464 0.16621 16 14 15
1.34285 -0.84953 0.16652 33 21 29
1.35511 -0.85696 0.16881 51 55 57
1.35907 -0.86419 0.17544 93 95 80
1.37357 -0.87176 0.17666 82 66 52
1.39799 -0.87974 0.17288 27 13 4
1.40759 -0.87930 0.18464 21 16 12
1.40220 -0.88705 0.17949 19 17 11
1.39680 -0.89480 0.17435 22 19 13
1.68942 -1.00659 0.16644 38 46 59
1.67133 -1.01276 0.18400 52 60 68
1.67403 -1.02048 0.19194 67 80 80
1.68819 -1.02914 0.19468 90 107 112
1.69430 -1.03717 0.20110 107 107 125
1.70795 -1.04586 0.20416 90 71 88
1.74411 -1.05663 0.19728 69 33 63
1.74281 -1.07311 0.19889 52 19 36
1.75407 -1.06513 0.20215 61 18 52
1.75998 -1.07327 0.20883 61 25 46
1.77550 -1.08236 0.21133 118 71 105
1.79740 -1.09214 0.21115 194 154 161
1.78696 -1.09868 0.22493 210 200 165
1.78565 -1.11526 0.22654 228 232 236
1.79375 -1.10696 0.23129 213 208 185
1.81405 -1.11671 0.23195 237 234 230
1.81853 -1.12479 0.23934 252 253 251
1.81721 -1.14147 0.24097 254 254 254
2.82005 -1.47740 0.11535 253 246 231
2.80647 -1.47802 0.09873 254 254 254
2.81242 -1.48836 0.10807 254 254 254
2.81836 -1.49870 0.11742 254 254 249
2.84029 -1.49020 0.11978 239 227 210
2.83860 -1.51158 0.12185 254 252 233
2.84923 -1.51043 0.13955 183 166 146
2.84158 -1.52142 0.13225 251 242 220
2.81874 -1.51429 0.16115 143 129 145
2.83031 -1.57137 0.22451 209 213 227
2.84372 -1.57076 0.24093 213 210 207
2.83618 -1.58159 0.23374 217 219 216
3.14067 -1.87614 0.42500 209 209 214
3.14239 -1.85431 0.42288 212 212 215
3.13458 -1.86555 0.41542 213 211 214
3.14849 -1.86491 0.43245 211 212 216
2.94224 -1.91258 0.57947 128 125 146
2.92956 -1.91758 0.59261 102 103 119
2.90641 -1.92798 0.61815 102 98 111
2.91234 -1.93791 0.62700 135 134 149
2.87864 -1.94501 0.65435 140 128 117
2.87705 -1.96510 0.65630 178 180 179
2.69461 -2.01589 0.84294 152 158 163
2.69609 -1.99710 0.84111 124 120 141
2.68937 -2.00677 0.83470 137 141 147
2.70134 -2.00623 0.84935 133 130 147
2.68595 -2.02810 0.86266 115 96 115
0.85526 0.31526 -1.00546 122 119 183
0.91365 0.33529 -1.06276 152 152 194
0.91371 0.32505 -1.05024 173 183 202
0.91242 0.30872 -1.04865 155 154 199
0.92658 0.32132 -1.05289 148 169 217
0.92529 0.30493 -1.05129 71 94 154
0.91068 0.30310 -1.02163 72 103 169
0.90939 0.28686 -1.02005 39 44 71
0.93531 0.30519 -1.03801 55 77 127
0.93402 0.28880 -1.03642 36 40 62
0.88875 0.08065 -0.73660 18 12 26
0.89420 0.07364 -0.73107 27 26 41
0.90163 0.06741 -0.72760 37 36 50
0.91162 0.06215 -0.72676 40 39 41
0.92146 0.06260 -0.71471 57 55 62
0.93153 0.06067 -0.73610 80 78 53
0.94144 0.06112 -0.72397 57 57 60
0.94410 0.05626 -0.73775 87 87 74
0.95405 0.05671 -0.72557 52 52 58
0.94846 0.04868 -0.73090 79 74 63
1.00666 -0.03128 -0.66551 40 49 63
1.01753 -0.03676 -0.66489 59 65 93
1.02830 -0.04233 -0.66410 88 116 161
1.05310 -0.04345 -0.67663 115 183 229
1.08937 -0.07785 -0.65481 106 213 254
1.09853 -0.08423 -0.65213 111 217 254
1.10446 -0.09159 -0.64643 109 210 253
1.12125 -0.09582 -0.65066 98 180 243
1.10763 -0.10882 -0.62707 74 134 216
1.13633 -0.10977 -0.64201 115 145 204
1.37399 -0.12188 -0.76046 235 219 201
1.36910 -0.11338 -0.76814 238 221 206
1.36362 -0.13416 -0.73959 231 216 191
1.37027 -0.14218 -0.73349 228 211 191
1.36890 -0.15960 -0.73180 243 229 213
1.40862 -0.26638 -0.60272 191 181 207
1.39764 -0.26688 -0.61616 236 226 216
1.40245 -0.27525 -0.60860 236 227 225
1.42223 -0.27307 -0.60216 203 198 231
1.43213 -0.28981 -0.58719 248 246 239
1.43077 -0.30710 -0.58551 254 254 253
1.43792 -0.29803 -0.58036 250 250 243
1.43656 -0.31533 -0.57868 254 254 254
1.49046 -0.45333 -0.41943 203 177 120
1.48435 -0.46211 -0.42527 241 237 217
1.58632 -0.46006 -0.46494 117 81 46
1.17892 -0.72933 0.09368 80 72 48
1.16978 -0.72975 0.08249 78 66 48
1.19624 -0.73604 0.09219 130 134 101
1.20027 -0.74304 0.09852 125 110 84
1.22109 -0.74981 0.09514 65 43 29
1.21995 -0.76434 0.09655 32 29 25
1.32217 -0.84259 0.15220 18 17 12
1.32334 -0.82779 0.15076 15 16 5
1.31803 -0.83540 0.14570 16 17 8
1.31273 -0.84302 0.14065 17 18 10
1.32953 -0.84986 0.15698 34 41 37
1.33480 -0.85709 0.16289 103 109 94
1.34294 -0.86441 0.16730 124 124 112
1.34708 -0.87163 0.17382 126 126 110
1.36822 -0.87945 0.17156 78 65 48
1.38252 -0.88710 0.17291 25 10 5
1.38134 -0.90211 0.17437 25 20 12
1.72896 -1.01854 0.13975 19 17 28
1.71839 -1.01902 0.12681 17 11 11
1.72302 -1.02707 0.13409 15 12 15
1.72765 -1.03512 0.14136 16 12 20
1.71900 -1.02541 0.15376 19 18 37
1.71770 -1.04191 0.15536 15 12 22
1.70114 -1.03155 0.17131 22 25 45
1.69458 -1.03855 0.18356 35 41 61
1.69962 -1.04651 0.19050 46 41 61
1.69833 -1.06283 0.19209 35 23 29
1.71557 -1.05547 0.19254 51 27 44
1.71428 -1.07185 0.19413 43 23 27
1.73007 -1.06435 0.19529 54 21 37
1.75009 -1.08137 0.20494 56 28 42
1.79996 -1.09395 0.19238 109 104 130
1.77143 -1.09864 0.21414 183 200 225
1.79439 -1.10863 0.21350 225 239 241
1.80834 -1.12532 0.22614 227 232 244
1.81503 -1.13365 0.23260 247 251 254
1.81371 -1.15035 0.23423 251 254 254
2.75307 -1.51462 0.17356 208 195 187
2.73977 -1.51523 0.15728 254 253 251
2.74560 -1.52536 0.16643 247 245 241
2.75142 -1.53549 0.17559 246 245 234
2.65963 -1.53289 0.24836 150 146 159
2.64510 -1.53884 0.26380 143 152 186
2.66015 -1.55047 0.26962 157 172 208
2.76419 -1.57970 0.24711 186 201 208
2.77739 -1.57910 0.26327 218 217 217
2.80448 -1.59665 0.24528 206 213 227
2.81780 -1.59604 0.26159 216 213 214
2.80670 -1.60606 0.25558 211 214 226
2.82000 -1.60546 0.27187 213 210 207
2.81253 -1.61620 0.26474 217 215 217
2.94099 -1.89087 0.52944 187 201 218
2.93451 -1.89767 0.54141 170 178 203
2.92029 -1.90236 0.55513 143 142 170
2.91867 -1.92290 0.55713 101 95 107
2.93021 -1.91346 0.56318 115 112 133
2.92956 -1.92171 0.57366 99 98 113
2.92490 -1.92884 0.58502 102 92 101
2.91923 -1.93565 0.59655 113 103 120
2.93580 -1.94859 0.60311 153 161 165
2.93309 -1.95618 0.61394 185 196 184
2.93433 -1.96485 0.62387 160 151 158
2.93271 -1.98527 0.62586 176 177 191
2.68460 -2.02452 0.83710 157 162 157
2.69350 -2.03479 0.84470 149 142 140
2.68219 -2.03865 0.85578 104 88 102
0.92276 0.32421 -1.07358 203 180 201
0.92146 0.30777 -1.07198 133 146 202
0.89165 0.15102 -0.84290 46 51 59
0.88727 0.15863 -0.84978 50 54 69
0.90164 0.15147 -0.83066 37 31 51
0.89602 0.14340 -0.83602 38 39 48
0.90197 0.10817 -0.79606 24 9 18
0.91191 0.10862 -0.78389 15 11 23
0.90500 0.10006 -0.78780 31 16 16
0.90200 0.08952 -0.77314 45 25 19
0.89824 0.07873 -0.75774 63 30 25
0.90134 0.07074 -0.74966 82 48 48
0.91185 0.06565 -0.74937 98 75 62
0.91697 0.05842 -0.74339 104 105 76
0.92251 0.05135 -0.73783 110 112 93
0.92805 0.04426 -0.73226 117 122 138
0.93443 0.03749 -0.72755 115 120 134
0.95855 -0.01753 -0.67358 49 56 64
0.95423 -0.01000 -0.68038 54 57 69
0.95300 -0.02551 -0.67888 33 41 58
0.95783 -0.02679 -0.66178 38 49 57
0.96214 -0.03430 -0.65499 28 40 63
0.97976 -0.03738 -0.66121 25 37 77
1.00023 -0.03962 -0.67007 43 71 103
1.01872 -0.04263 -0.67686 92 137 171
1.02223 -0.05058 -0.66908 120 188 231
1.03668 -0.05505 -0.67179 109 199 251
1.04514 -0.06147 -0.66870 98 200 254
1.05761 -0.06668 -0.66936 103 202 254
1.06638 -0.07308 -0.66647 106 202 254
1.07098 -0.08079 -0.65960 102 197 252
1.08087 -0.08691 -0.65769 98 184 241
1.10553 -0.08873 -0.66945 90 170 225
1.10237 -0.09878 -0.65529 74 152 214
1.09667 -0.10951 -0.63886 64 129 201
1.10696 -0.11563 -0.63717 46 99 166
1.11783 -0.12164 -0.63595 70 92 140
1.11358 -0.13185 -0.62098 165 165 176
1.35558 -0.14356 -0.74397 249 239 218
1.35421 -0.16096 -0.74228 252 247 233
1.35857 -0.15246 -0.73471 246 234 214
1.35719 -0.16985 -0.73302 251 242 228
1.42197 -0.28085 -0.61280 241 239 243
1.41576 -0.28976 -0.61871 254 254 252
1.42060 -0.29818 -0.61111 254 254 253
1.42486 -0.28962 -0.60365 250 247 248
1.42349 -0.30693 -0.60197 254 254 254
1.45840 -0.48265 -0.38529 225 210 154
1.54855 -0.49056 -0.42673 100 65 23
1.54718 -0.50792 -0.42505 136 91 58
1.17877 -0.73662 0.08583 78 71 53
1.16961 -0.73703 0.07461 77 70 48
1.19830 -0.74334 0.08301 128 132 106
1.20234 -0.75037 0.08936 126 116 91
1.22468 -0.75719 0.08507 63 46 33
1.22352 -0.77177 0.08648 34 27 21
1.31699 -0.85021 0.14707 25 19 17
1.30756 -0.85064 0.13552 19 18 9
1.32697 -0.85757 0.15045 50 59 52
1.33114 -0.86477 0.15695 111 133 122
1.33361 -0.87192 0.16434 115 114 107
1.33595 -0.87906 0.17179 112 103 90
1.35833 -0.88696 0.16880 58 47 21
1.35715 -0.90189 0.17026 30 14 4
1.37737 -0.89483 0.16767 33 11 5
1.37619 -0.90984 0.16913 22 21 17
1.70718 -1.04858 0.16954 21 16 23
1.69672 -1.04905 0.15673 30 17 14
1.70131 -1.05702 0.16393 33 19 18
1.70589 -1.06499 0.17113 39 25 22
1.70070 -1.05554 0.18178 27 22 26
1.73197 -1.08110 0.19546 46 27 34
1.74045 -1.08948 0.20096 51 33 45
1.76409 -1.09946 0.19981 52 48 77
1.77359 -1.10802 0.20495 73 84 126
1.79012 -1.11738 0.20708 140 155 189
1.77323 -1.12307 0.22367 191 208 239
1.78183 -1.13156 0.22923 208 220 246
1.80462 -1.14172 0.22878 236 238 248
2.59904 -1.51569 0.23774 247 239 230
2.58626 -1.51627 0.22210 252 254 254
2.59856 -1.52426 0.24855 237 228 218
2.63092 -1.53916 0.24851 182 165 171
2.66287 -1.55411 0.24875 119 120 133
2.67897 -1.56603 0.25427 109 122 150
2.67160 -1.57329 0.26739 126 136 161
2.69664 -1.58706 0.27011 147 158 199
2.70733 -1.59798 0.27747 153 166 214
2.78480 -1.62274 0.26395 205 209 223
2.79803 -1.62214 0.28016 214 211 214
2.79059 -1.63283 0.27307 219 215 219
2.98080 -1.88815 0.47911 179 186 206
