ply
format ascii 1.0
element face 0
property list uchar int vertex_indices
element vertex 1306
property float x
property float y
property float z
property uchar diffuse_red
property uchar diffuse_green
property uchar diffuse_blue
end_header
1.55061 -1.80544 -1.36737 43 57 55
1.52308 -1.89949 -1.15990 86 92 117
1.52698 -1.87756 -1.16096 83 89 117
1.51817 -1.88776 -1.16919 80 86 113
1.50935 -1.89797 -1.17742 80 88 111
1.51426 -1.90969 -1.16813 85 93 119
1.70349 -2.02922 -1.23942 103 115 136
1.70759 -2.00621 -1.24053 103 113 136
1.69835 -2.01692 -1.24916 106 118 145
1.71274 -2.01851 -1.23079 105 118 135
1.72236 -2.04288 -1.24760 94 110 129
1.73285 -2.05579 -1.24472 83 85 113
1.75667 -2.07017 -1.25905 56 59 74
1.75251 -2.09349 -1.25792 36 40 47
1.76782 -2.08330 -1.25683 36 44 51
1.76366 -2.10666 -1.25570 45 44 53
1.79292 -2.37338 -0.88794 74 78 72
1.79693 -2.35083 -0.88903 78 81 86
1.78787 -2.36132 -0.89749 80 82 86
1.78385 -2.38386 -0.89640 62 69 71
1.81254 -2.39956 -0.87973 74 65 78
1.81674 -2.42241 -0.85388 83 88 84
1.81272 -2.44498 -0.85279 89 99 83
1.82375 -2.43493 -0.84653 86 96 77
1.81905 -2.44473 -0.82604 77 87 70
1.82332 -2.45659 -0.81566 52 57 75
1.80914 -2.46400 -0.78481 87 97 76
1.80625 -2.47403 -0.76662 78 83 78
1.78312 -2.50008 -0.69682 107 114 118
1.85690 -2.62489 -0.62911 133 137 131
1.84301 -2.62335 -0.64683 133 136 126
1.84798 -2.63521 -0.63743 138 139 124
1.86975 -2.63907 -0.62787 114 117 111
1.88369 -2.65364 -0.62767 88 89 82
1.88826 -2.66544 -0.61778 87 94 99
1.88536 -2.67497 -0.60029 122 135 139
1.89254 -2.68754 -0.59309 134 138 132
2.10103 -3.06879 -0.36188 150 155 154
2.10508 -3.04610 -0.36298 145 149 144
2.09596 -3.05666 -0.37149 150 154 154
2.08684 -3.06722 -0.38000 150 156 156
2.09191 -3.07935 -0.37039 145 153 156
1.13837 -3.05739 1.01325 137 148 179
1.14746 -3.05840 1.02485 82 102 167
1.14162 -3.06516 1.01940 99 106 161
1.21500 -3.18519 1.08102 96 106 159
1.20579 -3.18417 1.06926 68 80 135
1.20908 -3.19205 1.07550 85 101 152
1.20076 -3.18229 1.09754 92 89 142
1.23659 -3.23358 1.11740 172 191 194
1.51450 -1.75710 -1.38248 20 21 33
1.51850 -1.73462 -1.38357 22 26 22
1.50946 -1.74508 -1.39200 18 20 15
1.50043 -1.75554 -1.40043 17 19 18
1.54189 -1.93430 -1.17393 97 111 129
1.54683 -1.94611 -1.16457 98 109 132
1.67878 -2.02664 -1.24411 106 115 136
1.68287 -2.00372 -1.24522 107 114 140
1.67365 -2.01439 -1.25382 110 118 135
1.71092 -2.05341 -1.25346 80 87 109
1.75175 -2.08152 -1.27360 34 38 46
1.74759 -2.10487 -1.27247 40 42 51
1.78550 -2.39518 -0.88294 76 65 65
1.78149 -2.41769 -0.88185 94 107 105
1.79638 -2.40851 -0.88010 85 89 95
1.79236 -2.43107 -0.87901 94 98 100
1.80014 -2.42028 -0.86907 87 93 94
1.79612 -2.44283 -0.86798 99 104 100
1.81043 -2.46613 -0.81979 66 75 84
1.79368 -2.47282 -0.78597 106 112 112
1.78081 -2.48031 -0.75669 123 125 114
1.78888 -2.49295 -0.75074 95 84 63
1.78897 -2.50357 -0.73598 85 81 72
1.77177 -2.50967 -0.70232 88 97 103
1.74882 -2.51410 -0.66264 103 112 119
1.76245 -2.51561 -0.64525 113 119 122
1.75370 -2.52575 -0.65342 112 117 119
1.85024 -2.64627 -0.62522 128 128 112
1.83637 -2.64473 -0.64293 129 133 126
1.86648 -2.66153 -0.62751 96 96 85
1.87146 -2.67343 -0.61808 81 88 100
1.88308 -2.68738 -0.61547 119 138 146
1.87910 -2.70969 -0.61439 136 149 142
1.88908 -2.69962 -0.60706 135 145 140
1.89497 -2.71184 -0.59852 126 126 122
1.90894 -2.71339 -0.58070 121 126 129
1.90722 -2.72609 -0.59640 122 125 123
1.92122 -2.72764 -0.57854 127 135 141
1.91223 -2.73805 -0.58693 131 140 137
1.90324 -2.74846 -0.59532 137 149 136
2.01171 -2.90617 -0.49627 158 163 153
2.00665 -2.89407 -0.50585 159 166 157
1.99756 -2.90460 -0.51434 157 166 155
2.02081 -2.89564 -0.48779 140 148 144
2.00262 -2.91669 -0.50476 165 171 160
2.02587 -2.90774 -0.47821 140 149 142
2.01335 -2.91700 -0.48348 153 160 148
2.02749 -2.91857 -0.46543 145 154 142
2.01204 -2.92671 -0.46795 149 158 144
2.02615 -2.92827 -0.44994 139 148 141
2.01708 -2.93876 -0.45840 141 152 144
2.00802 -2.94926 -0.46686 152 159 149
1.99189 -2.95937 -0.39274 158 161 148
1.99586 -2.93711 -0.39382 145 152 147
1.98691 -2.94747 -0.40217 147 155 145
2.00084 -2.94901 -0.38440 150 154 149
1.98294 -2.96973 -0.40109 166 171 154
2.00582 -2.96092 -0.37497 147 155 146
1.99877 -2.97201 -0.38505 164 166 149
2.01271 -2.97356 -0.36726 145 154 143
2.00375 -2.98392 -0.37561 149 150 144
2.07836 -3.08376 -0.34444 145 150 149
2.06425 -3.08219 -0.36245 156 165 155
2.06929 -3.09425 -0.35290 156 163 156
2.07434 -3.10631 -0.34335 160 167 168
2.07739 -3.09330 -0.32963 152 157 155
2.07337 -3.11581 -0.32854 165 168 153
2.07207 -3.15974 -0.22869 156 164 158
2.07603 -3.13751 -0.22976 151 153 145
2.06709 -3.14786 -0.23810 141 151 147
2.08598 -3.16129 -0.21094 160 161 156
2.07704 -3.17163 -0.21927 166 171 163
2.06811 -3.18197 -0.22761 166 170 167
1.15321 -2.97271 0.84939 130 84 88
1.15053 -2.98774 0.85012 138 140 154
1.12813 -3.05572 1.00239 202 231 242
1.11904 -3.05471 0.99080 203 235 248
1.12229 -3.06247 0.99695 205 236 248
1.19616 -3.21292 1.12362 77 103 169
1.24139 -3.25302 1.11388 173 198 232
1.50978 -1.76757 -1.39727 24 24 36
1.49569 -1.76601 -1.41526 22 25 16
1.50073 -1.77805 -1.40572 27 28 29
1.50577 -1.79009 -1.39618 35 31 30
1.52564 -1.82754 -1.33616 20 28 56
1.53465 -1.83966 -1.33237 36 47 64
1.53918 -1.94500 -1.19069 84 102 124
1.54792 -1.95712 -1.18651 90 103 129
1.56179 -1.95865 -1.16881 99 109 134
1.56676 -1.97004 -1.19604 98 111 133
1.58070 -1.97159 -1.17825 102 111 136
1.57175 -1.98196 -1.18661 107 115 139
1.64464 -2.02318 -1.23590 105 115 131
1.64869 -2.00042 -1.23700 107 118 137
1.63954 -2.01101 -1.24553 105 121 133
1.66934 -2.03729 -1.25240 99 108 129
1.68139 -2.05026 -1.25189 78 83 108
1.71689 -2.06580 -1.28227 60 56 71
1.71275 -2.08903 -1.28115 43 45 45
1.76333 -2.39184 -0.89151 71 78 89
1.75830 -2.37984 -0.90102 65 66 76
1.75933 -2.41429 -0.89042 97 97 89
1.77241 -2.40475 -0.88670 91 92 94
1.79568 -2.45359 -0.85219 85 89 91
1.79167 -2.47610 -0.85111 61 62 60
1.79913 -2.46524 -0.84086 72 75 74
1.80195 -2.47673 -0.82885 63 75 86
1.78323 -2.48283 -0.79268 106 111 125
1.77622 -2.50232 -0.75491 105 101 82
1.77750 -2.51322 -0.74145 84 81 77
1.76870 -2.52143 -0.71693 70 76 85
1.76478 -2.54346 -0.71586 70 76 76
1.75045 -2.52701 -0.68219 81 92 103
1.73238 -2.53248 -0.64788 102 112 114
1.74595 -2.53398 -0.63057 116 119 118
1.72751 -2.54140 -0.62814 116 124 125
1.74103 -2.54290 -0.61089 116 117 114
1.73235 -2.55295 -0.61899 126 129 127
1.84271 -2.65701 -0.63499 131 135 128
1.82883 -2.65547 -0.65270 128 136 132
1.86547 -2.67432 -0.64412 105 103 103
1.86881 -2.68574 -0.63295 83 85 92
1.87808 -2.69900 -0.62793 123 142 132
1.87410 -2.72134 -0.62685 140 151 144
1.88898 -2.72318 -0.60994 130 132 137
1.88500 -2.74552 -0.60886 140 143 147
1.89872 -2.73666 -0.60530 132 138 134
1.89473 -2.75903 -0.60421 142 149 140
1.99642 -2.92458 -0.48453 165 171 161
1.98231 -2.92301 -0.50253 162 170 162
1.98736 -2.93506 -0.49298 165 174 166
1.99634 -2.93469 -0.47016 160 166 152
1.99386 -2.98397 -0.39712 174 172 156
1.97990 -2.98242 -0.41493 157 167 163
1.98490 -2.99435 -0.40549 163 167 160
2.00785 -2.99947 -0.39590 152 147 144
2.02185 -3.00102 -0.37804 145 154 152
2.01419 -3.01196 -0.38764 145 148 148
2.02820 -3.01352 -0.36977 156 163 161
2.01021 -3.03434 -0.38656 164 175 161
2.02148 -3.02485 -0.38023 157 164 163
2.03550 -3.02640 -0.36235 158 162 163
2.02649 -3.03682 -0.37075 156 162 160
2.05950 -3.15879 -0.24758 140 150 148
2.06346 -3.13655 -0.24866 146 149 151
2.05452 -3.14690 -0.25700 146 148 146
2.04558 -3.15725 -0.26534 143 147 146
2.05554 -3.18103 -0.24651 163 168 166
2.05235 -3.16530 -0.22789 158 165 163
2.04840 -3.18746 -0.22682 166 171 163
1.15018 -2.99376 0.85910 143 153 165
1.14415 -3.00074 0.85347 142 147 163
1.14751 -3.00877 0.85983 145 158 165
1.15966 -3.18328 1.11204 156 155 183
1.18169 -3.21422 1.12317 87 97 157
1.22457 -3.25296 1.11457 139 171 208
1.23876 -3.26781 1.11460 189 200 228
1.50823 -1.83774 -1.33245 15 20 43
1.49924 -1.84815 -1.34084 21 25 31
1.50425 -1.86011 -1.33137 22 21 34
1.52260 -1.85002 -1.33646 26 26 50
1.52924 -1.86208 -1.32927 50 53 54
1.54329 -1.86364 -1.31133 67 76 95
1.51018 -1.87307 -1.28539 63 72 96
1.52411 -1.87462 -1.26761 77 90 114
1.49907 -1.88422 -1.25310 72 85 113
1.51291 -1.88576 -1.23544 83 89 110
1.49551 -1.89562 -1.23170 79 88 112
1.50931 -1.89715 -1.21409 74 87 111
1.50044 -1.90741 -1.22236 79 91 113
1.53093 -1.94385 -1.21614 83 95 111
1.52596 -1.93199 -1.22553 88 102 125
1.56253 -1.98080 -1.21088 84 100 128
1.58286 -1.99405 -1.22236 94 103 130
1.59691 -1.99561 -1.20443 107 120 141
1.59901 -2.00706 -1.22798 93 102 134
1.61844 -2.02047 -1.23790 93 106 133
1.63974 -2.03419 -1.25016 94 106 125
1.66102 -2.04804 -1.26221 77 87 104
1.68581 -2.06241 -1.27874 54 55 84
1.68169 -2.08550 -1.27762 40 45 56
1.70312 -2.07611 -1.28510 44 42 55
1.69899 -2.09930 -1.28398 45 48 50
1.73620 -2.38741 -0.89406 83 84 80
1.76836 -2.42723 -0.88557 86 94 88
1.75933 -2.43769 -0.89400 82 88 76
1.77340 -2.43925 -0.87605 91 102 95
1.77656 -2.45083 -0.86438 95 96 92
1.77256 -2.47330 -0.86330 50 46 50
1.78520 -2.46371 -0.85899 70 68 75
1.79286 -2.48717 -0.83721 66 78 89
1.77140 -2.49248 -0.79780 116 121 132
1.77571 -2.50422 -0.78762 143 155 157
1.76651 -2.51242 -0.76233 109 105 101
1.76089 -2.53196 -0.72635 80 84 83
1.71392 -2.55008 -0.63089 101 114 122
1.72312 -2.56285 -0.62652 122 131 133
1.72796 -2.57440 -0.61737 129 134 128
1.83470 -2.66760 -0.64426 133 136 135
1.85397 -2.68391 -0.64984 111 110 111
1.85851 -2.69569 -0.63993 89 88 90
1.86822 -2.70911 -0.63538 127 137 121
1.86424 -2.73144 -0.63431 144 153 145
1.98504 -2.94430 -0.47647 163 169 162
1.97097 -2.94274 -0.49442 161 172 166
1.97600 -2.95477 -0.48490 164 175 169
1.98103 -2.96679 -0.47538 164 173 168
1.99877 -3.00984 -0.40420 159 160 152
1.98477 -3.00829 -0.42207 157 157 156
2.00577 -3.02260 -0.39655 159 163 154
2.00178 -3.04499 -0.39547 165 172 162
1.99056 -3.05577 -0.32705 155 159 154
1.99451 -3.03364 -0.32812 146 153 153
1.98561 -3.04394 -0.33642 149 150 140
1.99946 -3.04548 -0.31875 151 159 156
1.99552 -3.06761 -0.31767 161 167 155
2.04019 -3.16453 -0.24704 148 157 153
2.02632 -3.16299 -0.26474 146 149 147
2.03624 -3.18669 -0.24597 166 170 170
1.13254 -3.16526 1.10339 114 143 171
1.13509 -3.15095 1.10270 62 72 121
1.12933 -3.15761 1.09733 87 104 134
1.17956 -3.22332 1.11558 96 91 139
1.17953 -3.22898 1.12363 91 99 146
1.20018 -3.24792 1.11972 120 149 175
1.50221 -1.87178 -1.31175 29 28 33
1.48826 -1.87023 -1.32957 23 25 25
1.49325 -1.88216 -1.32012 18 20 20
1.52036 -1.89605 -1.30452 39 43 72
1.49984 -1.91816 -1.24233 73 88 100
1.51369 -1.91969 -1.22467 87 97 118
1.50908 -1.93026 -1.23901 79 94 108
1.51129 -1.94192 -1.22577 76 85 102
1.53652 -1.95523 -1.24473 57 60 65
1.53254 -1.97753 -1.24365 32 35 36
1.53657 -1.97827 -1.21210 36 47 64
1.53262 -2.00049 -1.21102 36 40 53
1.55227 -1.99107 -1.21748 47 58 86
1.54830 -2.01338 -1.21640 35 37 49
1.57716 -2.00479 -1.23534 49 55 80
1.58766 -2.01733 -1.23330 51 54 78
1.61516 -2.03159 -1.25432 59 66 88
1.63259 -2.04500 -1.26143 66 76 88
1.62852 -2.06781 -1.26033 48 52 53
1.65687 -2.05925 -1.27763 55 61 71
1.65277 -2.08222 -1.27652 43 49 52
1.67749 -2.07326 -1.28869 40 46 67
1.67337 -2.09636 -1.28757 44 50 55
1.54582 -2.26447 -0.81954 42 50 64
1.53252 -2.26300 -0.83651 60 66 59
1.54203 -2.28573 -0.81851 51 49 65
1.55952 -2.27757 -0.82151 54 63 76
1.56713 -2.28953 -0.81594 67 75 84
1.57190 -2.30095 -0.80689 76 79 85
1.65911 -2.36134 -0.85202 76 66 78
1.66302 -2.33945 -0.85307 78 82 80
1.65422 -2.34964 -0.86129 67 71 83
1.65521 -2.38323 -0.85096 93 100 96
1.73333 -2.41001 -0.89428 98 100 94
1.74686 -2.42394 -0.89481 90 87 83
1.76309 -2.44941 -0.88301 83 95 87
1.76827 -2.46146 -0.87367 68 67 73
1.78453 -2.48705 -0.86173 71 72 71
1.75655 -2.49070 -0.81455 89 104 104
1.74656 -2.49875 -0.78814 140 150 127
1.75252 -2.51085 -0.77989 139 146 146
1.74857 -2.53301 -0.77882 108 100 97
1.75711 -2.52261 -0.77009 110 99 103
1.75612 -2.53285 -0.75404 118 117 101
1.74624 -2.54064 -0.72817 112 115 97
1.71704 -2.54297 -0.68102 98 98 86
1.70770 -2.56081 -0.64167 87 93 104
1.69902 -2.57086 -0.64976 104 106 102
1.70385 -2.58240 -0.64062 96 103 110
1.71136 -2.58215 -0.61686 100 111 118
1.72484 -2.58365 -0.59966 129 132 130
1.70752 -2.60370 -0.61582 99 104 103
1.80872 -2.65203 -0.66376 117 124 117
1.81267 -2.62989 -0.66483 120 128 126
1.79487 -2.65049 -0.68143 105 105 96
1.81762 -2.64173 -0.65546 122 131 125
1.79982 -2.66233 -0.67206 105 105 97
1.81841 -2.66532 -0.65942 123 131 126
1.83451 -2.68065 -0.66182 124 124 121
1.85241 -2.69662 -0.66600 106 100 101
1.85465 -2.70770 -0.65364 98 100 99
1.86069 -2.71997 -0.64527 135 145 136
1.85671 -2.74231 -0.64419 139 145 133
1.98993 -3.02031 -0.41274 169 171 165
1.98595 -3.04268 -0.41166 174 184 181
1.99832 -3.06328 -0.36430 160 166 144
1.99334 -3.05137 -0.37374 159 164 151
1.98438 -3.06174 -0.38210 162 167 155
1.98936 -3.07365 -0.37266 162 168 156
1.98313 -3.06669 -0.33667 163 169 154
1.97918 -3.08883 -0.33560 171 181 167
1.11387 -3.01250 0.89102 136 110 118
1.10462 -3.01148 0.87922 144 137 151
1.12169 -3.16871 1.10111 133 149 169
1.16344 -3.22345 1.11619 84 93 144
1.17387 -3.23582 1.11810 100 115 152
1.17369 -3.24135 1.12622 93 115 150
1.49196 -1.89377 -1.30161 17 20 29
1.47803 -1.89222 -1.31938 21 29 25
1.48301 -1.90412 -1.30996 22 25 30
1.48799 -1.91602 -1.30054 27 31 36
1.49014 -1.90529 -1.28242 25 26 42
1.48618 -1.92749 -1.28134 35 35 46
1.52575 -1.95391 -1.26705 47 52 60
1.52177 -1.97624 -1.26597 40 43 42
1.53110 -1.96588 -1.25808 39 41 35
1.52712 -1.98821 -1.25700 41 43 43
1.57571 -2.02752 -1.23777 38 41 42
1.56163 -2.02596 -1.25573 46 47 52
1.56667 -2.03799 -1.24621 47 49 46
1.57170 -2.05002 -1.23668 47 50 48
1.60024 -2.04156 -1.25492 45 49 51
1.59620 -2.06422 -1.25382 45 50 52
1.61769 -2.05500 -1.26219 48 53 55
1.61363 -2.07776 -1.26109 47 51 52
1.53908 -2.27471 -0.82975 47 51 65
1.55577 -2.29891 -0.82054 58 60 66
1.54719 -2.30883 -0.82854 56 50 53
1.55197 -2.32024 -0.81951 44 44 65
1.56906 -2.31206 -0.82192 63 68 79
1.58245 -2.31354 -0.80484 82 80 88
1.58267 -2.32534 -0.82359 69 69 83
1.58747 -2.33682 -0.81450 63 63 73
1.62827 -2.35611 -0.84881 64 70 84
1.71341 -2.40711 -0.90509 95 102 103
1.71857 -2.41908 -0.89584 91 98 94
1.73038 -2.43262 -0.89443 85 90 88
1.72640 -2.45498 -0.89334 58 52 52
1.74584 -2.45786 -0.88184 62 66 67
1.75318 -2.47042 -0.87506 45 46 67
1.76929 -2.48520 -0.87839 65 71 74
1.74064 -2.48865 -0.83006 104 108 100
1.73515 -2.49784 -0.80863 107 113 110
1.73602 -2.50863 -0.79457 152 166 136
1.74188 -2.52070 -0.78623 119 121 126
1.74462 -2.55287 -0.74452 128 133 127
1.72578 -2.55799 -0.70866 124 122 113
1.70814 -2.56328 -0.67439 114 110 102
1.82081 -2.67918 -0.67983 106 109 105
1.80688 -2.67763 -0.69760 106 114 97
1.81186 -2.68953 -0.68817 105 110 106
1.83293 -2.69333 -0.67800 101 100 102
1.84318 -2.70694 -0.67412 96 90 94
1.84553 -2.71804 -0.66187 109 114 106
1.84155 -2.74037 -0.66079 133 142 137
1.85699 -2.73209 -0.65919 138 150 135
1.85300 -2.75447 -0.65811 139 147 134
1.94965 -3.00805 -0.40604 163 169 167
1.94570 -3.03023 -0.40496 169 180 174
1.95658 -3.02072 -0.39847 172 180 175
1.98578 -3.08192 -0.35545 166 174 167
1.97188 -3.08037 -0.37320 163 166 160
1.98182 -3.10414 -0.35438 173 184 173
1.09131 -3.15416 1.10286 118 134 166
1.10530 -3.16860 1.10224 124 137 167
1.13828 -3.20645 1.10626 112 103 150
1.13572 -3.22081 1.10696 71 81 146
1.16128 -3.23817 1.11665 80 92 145
1.51890 -2.27191 -0.83814 77 81 72
1.52269 -2.25069 -0.83917 68 74 57
1.50563 -2.27043 -0.85509 81 84 77
1.51038 -2.28178 -0.84610 80 85 75
1.51512 -2.29312 -0.83712 79 83 75
1.52638 -2.28379 -0.83256 73 76 72
1.53584 -2.29610 -0.82941 65 61 62
1.57156 -2.33480 -0.82861 50 48 58
1.58745 -2.34868 -0.83304 62 60 59
1.58361 -2.37022 -0.83200 76 73 64
1.61929 -2.36618 -0.85669 80 87 83
1.64113 -2.38163 -0.86797 87 94 85
1.66605 -2.39791 -0.88276 89 96 87
1.67806 -2.41135 -0.88189 81 85 88
1.67412 -2.43345 -0.88082 57 50 66
1.68880 -2.42454 -0.87944 75 76 83
1.70191 -2.43834 -0.87972 63 67 71
1.73546 -2.46795 -0.88863 58 59 63
1.72560 -2.47618 -0.86177 75 92 97
1.72163 -2.49846 -0.86069 112 115 108
1.71969 -2.48531 -0.83964 109 113 97
1.72302 -2.49676 -0.82835 118 118 102
1.71604 -2.51597 -0.79016 155 166 160
1.73397 -2.54176 -0.78065 97 93 97
1.73622 -2.55284 -0.76824 118 122 119
1.73229 -2.57493 -0.76717 128 138 139
1.73238 -2.57255 -0.73412 125 127 123
1.72354 -2.58278 -0.74237 125 132 129
1.72846 -2.59454 -0.73306 124 130 118
1.70802 -2.58607 -0.67751 113 111 103
1.82392 -2.70370 -0.68632 107 114 113
1.83637 -2.71805 -0.68482 114 121 114
1.83819 -2.72896 -0.67197 126 134 121
1.83421 -2.75130 -0.67089 137 144 144
1.44216 -2.22743 -0.81892 59 61 68
1.44587 -2.20662 -0.81993 51 56 61
1.43750 -2.21630 -0.82774 56 60 66
1.42913 -2.22599 -0.83554 55 59 57
1.45053 -2.21775 -0.81111 50 54 60
1.45518 -2.22888 -0.80230 61 62 65
1.45941 -2.24091 -0.82618 69 70 76
1.47250 -2.24236 -0.80948 71 73 69
1.45568 -2.26182 -0.82517 81 87 89
1.47541 -2.25424 -0.83170 79 80 80
1.52389 -2.30530 -0.83314 75 74 68
1.51059 -2.30382 -0.85011 63 65 66
1.53230 -2.31743 -0.82869 65 65 62
1.54748 -2.33104 -0.83256 55 56 71
1.55956 -2.34405 -0.83250 61 61 53
1.57862 -2.35866 -0.84090 70 64 47
1.61229 -2.38721 -0.85184 73 72 73
1.62999 -2.40183 -0.85817 69 68 64
1.68896 -2.44769 -0.88326 57 51 61
1.71164 -2.46396 -0.89489 67 74 82
1.70767 -2.48628 -0.89382 120 125 123
1.68251 -2.46728 -0.84513 106 113 110
1.69130 -2.48006 -0.84032 118 124 112
1.70341 -2.50426 -0.82422 127 127 114
1.69612 -2.51280 -0.80067 157 171 149
1.69709 -2.52350 -0.78678 138 144 152
1.72468 -2.54148 -0.80354 76 71 111
1.72546 -2.55216 -0.78938 102 114 124
1.72569 -2.56265 -0.77464 127 135 132
1.72175 -2.58473 -0.77357 126 128 132
1.78830 -2.68492 -0.69548 122 126 110
1.78334 -2.67306 -0.70487 124 128 114
1.77442 -2.68338 -0.71319 113 123 118
1.79697 -2.69797 -0.69009 115 118 108
1.80358 -2.71038 -0.68245 118 119 113
1.79962 -2.73260 -0.68138 148 150 142
1.81192 -2.72337 -0.67665 126 131 126
1.80795 -2.74562 -0.67557 139 142 145
1.81298 -2.73397 -0.66305 134 145 140
1.80902 -2.75618 -0.66198 143 148 146
1.42989 -2.23639 -0.82170 60 66 66
1.41689 -2.23495 -0.83830 54 58 47
1.44906 -2.25027 -0.83154 71 79 82
1.47492 -2.27590 -0.83483 83 84 80
1.47117 -2.29694 -0.83381 72 67 63
1.49326 -2.28991 -0.84318 73 75 65
1.51534 -2.31518 -0.84111 70 63 71
1.52750 -2.32813 -0.84136 82 81 74
1.52371 -2.34944 -0.84033 96 103 94
1.54432 -2.34216 -0.84732 90 99 93
1.55908 -2.35582 -0.85059 93 101 85
1.57299 -2.36937 -0.85272 91 96 81
1.56915 -2.39093 -0.85168 90 87 71
1.58217 -2.38190 -0.84893 84 85 68
1.57832 -2.40350 -0.84789 81 82 78
1.59539 -2.39541 -0.85003 66 65 61
1.60558 -2.40826 -0.84735 54 48 57
1.63768 -2.42645 -0.87112 61 62 82
1.63954 -2.43743 -0.85817 74 82 97
1.63564 -2.45933 -0.85711 108 111 111
1.63552 -2.44691 -0.83821 96 101 107
1.63164 -2.46874 -0.83715 112 118 115
1.64379 -2.45944 -0.83300 113 120 115
1.68005 -2.48971 -0.84580 110 113 108
1.68072 -2.50038 -0.83144 115 116 118
1.67143 -2.50835 -0.80545 153 161 157
1.67634 -2.52007 -0.79617 158 172 165
1.69472 -2.53550 -0.80253 107 117 120
1.70373 -2.54842 -0.79792 89 86 100
1.70775 -2.55995 -0.78753 117 122 128
1.70382 -2.58200 -0.78646 120 118 118
1.71218 -2.57160 -0.77762 130 132 129
1.70826 -2.59364 -0.77656 124 128 123
1.71559 -2.62405 -0.70716 129 133 129
1.70679 -2.63423 -0.71537 135 142 138
1.71169 -2.64593 -0.70610 138 147 131
1.70317 -2.63041 -0.67862 127 132 117
1.71678 -2.63192 -0.66126 118 118 114
1.70022 -2.63960 -0.66076 121 126 113
1.71379 -2.64110 -0.64344 119 125 117
1.70508 -2.65119 -0.65157 116 123 116
1.77244 -2.69300 -0.69621 112 125 117
1.75859 -2.69146 -0.71388 134 133 117
1.78209 -2.71658 -0.67719 139 145 129
1.08764 -3.07411 0.92194 136 116 116
1.11789 -3.23557 1.10800 57 69 143
1.41750 -2.24529 -0.82427 56 66 57
1.40452 -2.24385 -0.84084 52 57 46
1.41381 -2.26604 -0.82326 55 67 71
1.43528 -2.25895 -0.83244 64 77 78
1.43157 -2.27980 -0.83143 62 67 72
1.44923 -2.27195 -0.83553 70 78 85
1.46110 -2.28460 -0.83586 73 74 76
1.49357 -2.31192 -0.84733 69 71 73
1.48980 -2.33310 -0.84631 98 102 103
1.51057 -2.32588 -0.85383 85 91 96
1.51816 -2.33788 -0.84839 99 106 96
1.51437 -2.35918 -0.84735 84 87 85
1.58408 -2.41527 -0.83987 86 87 88
1.59643 -2.43904 -0.82483 120 124 120
1.63778 -2.48074 -0.82941 112 114 108
1.62411 -2.47922 -0.84685 119 115 105
1.65254 -2.49504 -0.83191 106 106 113
1.63683 -2.50121 -0.79822 144 151 146
1.65198 -2.51564 -0.80113 169 188 174
1.66193 -2.52872 -0.79783 135 136 131
1.65804 -2.55059 -0.79677 80 74 91
1.68327 -2.54502 -0.80776 90 92 102
1.68698 -2.55644 -0.79703 100 107 105
1.69083 -2.56789 -0.78648 122 129 130
1.68691 -2.58988 -0.78542 131 134 128
1.71793 -2.60685 -0.77263 132 133 123
1.72681 -2.59657 -0.76435 124 127 124
1.70906 -2.61712 -0.78092 139 147 140
1.71470 -2.61618 -0.75400 123 126 121
1.71078 -2.63820 -0.75294 135 138 131
1.78190 -2.73997 -0.68019 140 132 136
1.77299 -2.75028 -0.68850 123 126 128
1.06423 -3.18860 1.10026 169 188 198
1.06277 -3.19310 1.10907 147 159 181
1.06797 -3.20197 1.11375 114 129 166
1.40176 -2.25350 -0.82239 48 58 53
1.38881 -2.25206 -0.83891 52 53 44
1.44713 -2.29322 -0.83662 69 71 72
1.46481 -2.30717 -0.84439 86 89 88
1.46106 -2.32822 -0.84337 101 108 104
1.49108 -2.32307 -0.86296 97 102 94
1.55882 -2.42123 -0.82759 121 117 105
1.58774 -2.44910 -0.83294 126 125 105
1.59741 -2.46191 -0.82964 121 121 97
1.62580 -2.49005 -0.83376 102 98 107
1.62191 -2.51186 -0.83270 166 188 179
1.61699 -2.49802 -0.80814 121 134 140
1.62996 -2.51184 -0.80861 164 190 173
1.63120 -2.52247 -0.79509 151 154 151
1.65307 -2.53888 -0.80596 115 114 117
1.66934 -2.56414 -0.79500 113 116 107
1.66543 -2.58606 -0.79394 125 135 139
1.67207 -2.57523 -0.78319 131 140 140
1.66817 -2.59713 -0.78213 128 133 131
1.70197 -2.62524 -0.75783 139 144 134
1.68821 -2.62371 -0.77538 137 139 138
1.69313 -2.63547 -0.76607 138 139 137
1.69805 -2.64722 -0.75676 135 135 136
1.74113 -2.70910 -0.69786 139 148 134
1.72734 -2.70757 -0.71545 135 139 134
1.73720 -2.73112 -0.69680 154 158 144
1.76006 -2.75593 -0.65972 128 142 130
1.75121 -2.76618 -0.66797 135 142 133
1.75614 -2.77795 -0.65865 138 145 139
1.90243 -3.39731 0.04855 163 161 142
1.88936 -3.39586 0.03187 164 167 159
1.04856 -3.19395 1.10913 188 214 228
1.05851 -3.20597 1.11084 172 195 214
1.05601 -3.22000 1.11151 200 229 244
1.07751 -3.22407 1.10702 158 185 207
1.06992 -3.22442 1.11958 179 208 228
1.06742 -3.23848 1.12026 216 238 248
1.38920 -2.26227 -0.82459 48 54 50
1.40122 -2.27483 -0.82551 60 70 76
1.41782 -2.28839 -0.83228 76 84 85
1.41411 -2.30921 -0.83127 94 99 93
1.43316 -2.30179 -0.83729 88 97 88
1.42943 -2.32269 -0.83628 95 102 93
1.49895 -2.35723 -0.86171 84 89 90
1.49515 -2.37851 -0.86068 73 70 88
1.48710 -2.39522 -0.78709 118 122 127
1.50133 -2.40883 -0.79002 135 138 157
1.48173 -2.41400 -0.75100 165 175 166
1.50910 -2.43098 -0.77007 179 189 163
1.51788 -2.44331 -0.76611 170 172 130
1.57362 -2.46802 -0.81937 136 135 110
1.58413 -2.48106 -0.81716 131 123 117
1.57969 -2.49009 -0.79681 141 141 148
1.60513 -2.51750 -0.79753 149 154 153
1.61220 -2.52970 -0.79102 136 135 127
1.60834 -2.55135 -0.78997 89 87 107
1.63498 -2.54640 -0.80312 98 101 111
1.64620 -2.55989 -0.80138 95 98 101
1.64707 -2.57040 -0.78741 121 127 125
1.64318 -2.59221 -0.78635 126 136 140
1.72527 -2.73710 -0.66891 147 150 136
1.71157 -2.73558 -0.68639 151 157 149
1.71647 -2.74729 -0.67712 152 162 152
1.73768 -2.75142 -0.66787 139 143 132
1.88775 -3.40359 0.04576 170 171 148
1.87471 -3.40215 0.02912 161 162 159
1.88404 -3.42444 0.04677 165 150 126
1.89206 -3.41454 0.05487 166 151 126
1.90510 -3.41599 0.07151 163 145 126
1.89672 -3.42568 0.06370 164 147 127
1.88834 -3.43538 0.05588 162 149 126
1.04844 -3.20952 1.10833 196 227 245
1.03967 -3.20855 1.09715 188 222 248
1.04281 -3.21604 1.10308 188 222 249
1.04594 -3.22353 1.10901 191 222 249
1.35436 -2.23632 -0.84163 69 70 62
1.35802 -2.21577 -0.84262 77 77 77
1.34976 -2.22533 -0.85033 76 74 78
1.34609 -2.24588 -0.84933 56 55 54
1.35902 -2.24731 -0.83301 58 58 49
1.37978 -2.27166 -0.83087 61 63 56
1.39064 -2.28400 -0.83031 84 92 82
1.38695 -2.30469 -0.82931 91 95 94
1.40477 -2.29708 -0.83397 91 97 91
1.40107 -2.31786 -0.83296 93 96 92
1.46912 -2.39259 -0.79782 137 142 161
1.47286 -2.37159 -0.79884 69 64 61
1.46442 -2.38136 -0.80671 95 103 114
1.43273 -2.39361 -0.73737 181 196 200
1.48364 -2.41633 -0.78644 221 234 223
1.49302 -2.42878 -0.78334 230 230 223
1.48927 -2.44985 -0.78233 230 237 237
1.52448 -2.46722 -0.77780 185 190 172
1.53924 -2.48128 -0.78104 176 186 181
1.55578 -2.49590 -0.78633 176 193 183
1.57395 -2.51108 -0.79347 142 138 153
1.59062 -2.52592 -0.79864 128 128 125
1.60417 -2.53997 -0.79995 119 122 121
1.62420 -2.56617 -0.79388 114 117 112
1.62032 -2.58791 -0.79283 134 136 137
1.62831 -2.57757 -0.78378 131 136 132
1.62444 -2.59931 -0.78273 140 140 136
1.86252 -3.40398 0.05156 169 165 149
1.85883 -3.42471 0.05256 163 147 127
1.30328 -3.16990 0.61334 87 65 96
1.30623 -3.15336 0.61254 164 165 164
1.29958 -3.16105 0.60634 163 164 160
1.29293 -3.16875 0.60014 159 160 159
1.30993 -3.16220 0.61955 94 75 104
1.27845 -3.16202 0.64198 38 32 63
1.28868 -3.16316 0.65503 43 49 83
1.28211 -3.17076 0.64890 40 47 77
1.27554 -3.17837 0.64277 40 45 77
1.34840 -2.25640 -0.83757 56 63 51
1.35711 -2.26822 -0.83435 57 58 56
1.35344 -2.28879 -0.83336 54 60 64
1.36527 -2.27996 -0.83036 60 63 64
1.37800 -2.29271 -0.83237 82 92 83
1.37431 -2.31337 -0.83137 87 95 88
1.43593 -2.34593 -0.84852 96 103 95
1.43123 -2.33471 -0.85741 92 97 86
1.45149 -2.37995 -0.82375 135 123 152
1.45327 -2.39047 -0.81114 167 138 152
1.46066 -2.40235 -0.80568 173 105 147
1.45998 -2.41222 -0.78999 173 143 181
1.48588 -2.43893 -0.79292 229 232 237
1.50222 -2.46334 -0.78361 229 232 232
1.50865 -2.47510 -0.77676 212 213 214
1.53327 -2.49190 -0.79222 172 174 194
1.55073 -2.50685 -0.79869 126 132 144
1.55828 -2.51909 -0.79298 122 119 129
1.57583 -2.53421 -0.79934 120 126 115
1.58927 -2.54824 -0.80061 97 87 97
1.59528 -2.56014 -0.79286 103 103 104
1.60794 -2.57404 -0.79305 124 133 129
1.60407 -2.59573 -0.79200 130 140 144
1.85787 -3.39861 0.01559 166 166 163
1.86158 -3.37779 0.01459 173 175 158
1.85321 -3.38748 0.00678 169 168 161
1.86624 -3.38892 0.02340 164 163 159
1.85066 -3.40316 0.03411 164 162 146
1.82896 -3.39957 0.06429 165 153 135
1.82530 -3.42012 0.06529 164 149 129
1.28530 -3.17093 0.61583 82 60 92
1.27500 -3.16979 0.60268 154 155 154
1.28471 -3.17721 0.62606 36 34 59
1.28179 -3.19364 0.62685 41 46 75
1.33572 -2.27504 -0.82448 69 75 74
1.35831 -2.29984 -0.82501 74 83 74
1.38240 -2.32520 -0.82718 91 98 92
1.40012 -2.33927 -0.83556 104 107 94
1.39311 -2.34766 -0.81154 130 135 128
1.40991 -2.36162 -0.81859 174 182 177
1.42140 -2.37440 -0.81861 194 194 171
1.45673 -2.39309 -0.84923 159 100 133
1.47968 -2.40892 -0.86364 166 32 112
1.47219 -2.41719 -0.83902 188 61 100
1.46579 -2.42563 -0.81592 161 85 124
1.47788 -2.44887 -0.80143 229 240 246
1.48398 -2.46052 -0.79422 233 239 239
1.49804 -2.47435 -0.79692 224 229 234
1.50834 -2.48721 -0.79485 203 209 215
1.52249 -2.50120 -0.79748 135 132 175
1.53770 -2.51556 -0.80130 110 109 115
1.54978 -2.52910 -0.80117 117 120 117
1.57405 -2.55637 -0.80080 98 93 94
1.57021 -2.57793 -0.79975 140 148 146
1.58089 -2.56850 -0.79410 122 129 123
1.59194 -2.58192 -0.79244 130 137 137
1.58809 -2.60355 -0.79139 123 126 130
1.60773 -2.62704 -0.75160 144 150 139
1.61158 -2.60544 -0.75264 138 143 134
1.60290 -2.61549 -0.76075 146 149 140
1.61641 -2.61699 -0.74350 131 134 131
1.59905 -2.63709 -0.75970 141 152 152
1.62125 -2.62854 -0.73435 135 143 126
1.60855 -2.63730 -0.73775 137 137 119
1.61338 -2.64883 -0.72861 126 125 117
1.60471 -2.65886 -0.73670 134 135 119
1.86643 -3.39182 -0.04460 154 158 151
1.87018 -3.37079 -0.04562 160 164 160
1.86173 -3.38058 -0.05350 159 159 153
1.87489 -3.38204 -0.03671 165 175 161
1.85798 -3.40161 -0.05249 153 158 150
1.87960 -3.39328 -0.02780 177 184 168
1.85843 -3.39607 -0.02508 160 167 163
1.85029 -3.40018 -0.00556 169 180 176
1.84658 -3.42103 -0.00455 175 179 170
1.84172 -3.40396 0.01421 176 182 176
1.83802 -3.42472 0.01522 175 174 160
1.83748 -3.41010 0.03031 172 170 151
1.28045 -3.17964 0.60829 73 58 88
1.27014 -3.17849 0.59514 151 152 147
1.27406 -3.18244 0.62301 39 36 61
1.27113 -3.19885 0.62380 42 44 73
1.30867 -2.25072 -0.85117 80 77 82
1.31230 -2.23031 -0.85215 76 78 69
1.30410 -2.23980 -0.85981 80 78 74
1.29589 -2.24930 -0.86747 80 77 67
1.30503 -2.27113 -0.85018 92 90 87
1.31029 -2.26102 -0.83851 87 90 93
1.32363 -2.28373 -0.82693 71 74 74
1.33990 -2.29720 -0.83399 45 47 60
1.34287 -2.30782 -0.82314 59 63 64
1.35781 -2.32112 -0.82822 91 99 88
1.36129 -2.33187 -0.81801 113 125 121
1.36426 -2.34250 -0.80713 146 157 147
1.39617 -2.36001 -0.83424 195 203 192
1.39247 -2.38080 -0.83324 229 235 236
1.40502 -2.37214 -0.83092 226 234 228
1.41418 -2.38439 -0.82794 217 217 203
1.42826 -2.39790 -0.83128 176 137 136
1.44775 -2.41287 -0.84149 189 70 91
1.45507 -2.42481 -0.83590 200 84 107
1.46216 -2.43670 -0.83000 172 93 82
1.47710 -2.45071 -0.83404 176 165 183
1.47512 -2.46023 -0.81657 221 239 241
1.48143 -2.47196 -0.80961 226 227 228
1.49491 -2.48570 -0.81162 209 216 216
1.52187 -2.50330 -0.83034 172 176 182
1.52441 -2.51410 -0.81848 99 102 120
1.52060 -2.53548 -0.81745 73 83 80
1.53193 -2.52633 -0.81281 72 78 75
1.54079 -2.53896 -0.80876 76 76 86
1.55082 -2.55198 -0.80608 94 100 83
1.54699 -2.57346 -0.80504 136 137 133
1.55699 -2.56387 -0.79865 124 132 127
1.55316 -2.58537 -0.79761 133 135 138
1.84916 -3.40535 -0.03222 158 172 165
1.84075 -3.41509 -0.04008 160 169 143
1.84306 -3.41052 -0.01434 166 179 172
1.27455 -3.18774 0.60155 63 63 80
1.27162 -3.20422 0.60235 45 38 75
1.27856 -3.19674 0.60828 45 38 67
1.27562 -3.21322 0.60908 44 42 71
1.29859 -2.25983 -0.85625 89 82 73
1.30337 -2.28071 -0.83306 88 90 85
1.31051 -2.29216 -0.82794 68 69 68
1.33240 -2.30692 -0.84270 37 36 54
1.33540 -2.31753 -0.83186 42 48 55
1.34985 -2.33078 -0.83637 76 91 92
1.35409 -2.34170 -0.82716 112 131 145
1.37783 -2.35729 -0.84379 164 178 191
1.39472 -2.37136 -0.85117 214 223 221
1.39101 -2.39222 -0.85016 231 235 237
1.42198 -2.40820 -0.84192 200 184 187
1.44617 -2.42446 -0.85832 146 95 142
1.43758 -2.43225 -0.83219 159 124 164
1.45993 -2.44819 -0.84594 194 194 185
1.46926 -2.46075 -0.84286 214 229 214
1.47238 -2.47164 -0.83182 211 222 227
1.48087 -2.48401 -0.82760 199 210 215
1.50505 -2.50085 -0.84311 173 173 172
1.50124 -2.52222 -0.84208 123 131 132
1.51850 -2.51475 -0.84493 125 128 128
1.52318 -2.52619 -0.83570 108 107 114
1.53391 -2.54946 -0.81894 89 99 91
1.53869 -2.56092 -0.80983 132 138 118
1.53487 -2.58237 -0.80880 145 146 140
1.57469 -2.62212 -0.77886 144 149 145
1.57952 -2.63364 -0.76974 150 152 150
1.57085 -2.64367 -0.77782 149 152 150
1.83841 -3.39660 -0.06381 176 178 145
1.82527 -3.39514 -0.08057 181 190 166
1.83467 -3.41759 -0.06280 192 198 175
1.83150 -3.41844 -0.01950 165 172 153
1.82313 -3.42814 -0.02732 174 179 168
1.82779 -3.43928 -0.01849 187 193 180
1.27801 -3.19486 0.57757 148 147 143
1.28097 -3.17828 0.57677 167 176 173
1.27430 -3.18599 0.57055 166 175 178
1.26764 -3.19371 0.56433 169 176 176
1.26604 -3.19427 0.59684 59 57 66
1.26311 -3.21074 0.59764 42 40 81
1.28002 -2.24726 -0.87944 76 76 83
1.28365 -2.22687 -0.88043 87 86 86
1.27546 -2.23636 -0.88807 88 86 88
1.28822 -2.23777 -0.87180 83 83 77
1.28662 -2.25858 -0.87364 71 74 74
1.29117 -2.26948 -0.86498 89 87 79
1.29477 -2.28018 -0.85501 105 103 96
1.29131 -2.28933 -0.83539 110 113 101
1.30158 -2.30147 -0.83457 81 87 79
1.32488 -2.31663 -0.85139 35 41 42
1.32122 -2.33717 -0.85039 23 35 24
1.33011 -2.32776 -0.84355 23 33 30
1.33470 -2.33874 -0.83485 17 32 43
1.34258 -2.35051 -0.83055 38 56 84
1.35362 -2.36307 -0.83042 132 148 169
1.38500 -2.38073 -0.85721 216 232 235
1.38129 -2.40158 -0.85620 230 238 240
1.41207 -2.41756 -0.84784 229 234 233
1.43219 -2.43284 -0.85909 219 223 219
1.44660 -2.44670 -0.86274 225 231 223
1.45781 -2.45977 -0.86213 215 221 221
1.47523 -2.47461 -0.86944 197 208 209
1.47003 -2.48322 -0.84766 173 179 180
1.50860 -2.50416 -0.88173 146 142 176
1.51621 -2.51646 -0.87617 122 128 144
1.53070 -2.56107 -0.83373 93 101 97
1.53159 -2.57137 -0.81977 139 146 142
1.55806 -2.62955 -0.77729 136 144 148
1.54942 -2.63955 -0.78535 141 134 125
1.55423 -2.65104 -0.77625 145 143 137
1.81425 -3.39757 -0.05818 192 199 174
1.80118 -3.39612 -0.07486 170 181 178
1.81053 -3.41845 -0.05718 185 194 184
1.28348 -3.20991 0.56177 145 146 140
1.27305 -3.20875 0.54846 171 176 176
1.27678 -3.21766 0.55552 139 137 129
1.25631 -3.20004 0.59311 56 54 62
1.25338 -3.21648 0.59391 36 44 83
1.20027 -2.04112 -1.08991 36 35 42
1.20393 -2.02056 -1.09090 33 32 44
1.19567 -2.03013 -1.09861 32 31 39
1.18740 -2.03969 -1.10633 36 32 36
1.19200 -2.05069 -1.09762 33 30 35
1.21313 -2.04255 -1.07349 46 46 52
1.19149 -2.05044 -1.06077 42 42 50
1.20428 -2.05186 -1.04445 48 51 50
1.19606 -2.06137 -1.05212 43 49 49
1.18785 -2.07088 -1.05978 37 42 40
1.17498 -2.07904 -0.98924 47 50 50
1.17857 -2.05887 -0.99022 48 53 50
1.17046 -2.06825 -0.99779 44 49 49
1.18309 -2.06965 -0.98168 49 54 53
1.18760 -2.08044 -0.97313 53 54 56
1.17949 -2.08983 -0.98070 53 54 54
1.19959 -2.17327 -0.88918 60 61 60
1.20316 -2.15324 -0.89015 72 63 61
1.19511 -2.16256 -0.89767 66 62 60
1.21213 -2.17466 -0.87318 79 80 70
1.21212 -2.18545 -0.89229 62 68 70
1.22470 -2.18685 -0.87624 82 81 75
1.22495 -2.19775 -0.89572 70 79 76
1.23757 -2.19916 -0.87961 81 78 76
1.22946 -2.20854 -0.88718 78 81 78
1.25928 -2.24422 -0.88448 87 86 82
1.26290 -2.22390 -0.88546 83 82 84
1.25474 -2.23336 -0.89308 85 84 84
1.27585 -2.26753 -0.87770 53 57 69
1.27898 -2.27812 -0.86709 93 102 102
1.28331 -2.28895 -0.85814 144 150 142
1.28787 -2.29984 -0.84952 155 152 138
1.29164 -2.31055 -0.83982 99 92 86
1.31602 -2.32605 -0.85827 29 33 25
1.32622 -2.34824 -0.84225 25 30 29
1.33521 -2.36030 -0.83947 40 37 72
1.34459 -2.37249 -0.83717 129 129 169
1.38039 -2.39138 -0.87005 215 233 238
1.39547 -2.41520 -0.85996 229 235 238
1.40726 -2.42827 -0.86046 223 229 233
1.42832 -2.44388 -0.87302 205 216 224
1.44516 -2.45847 -0.87989 187 199 206
1.44593 -2.46872 -0.86574 166 170 178
1.49680 -2.49298 -0.91640 141 139 161
1.50741 -2.52644 -0.88407 126 139 146
1.51074 -2.53751 -0.87305 117 127 128
1.52787 -2.55271 -0.87950 80 69 91
1.53209 -2.56409 -0.86957 80 72 80
1.51999 -2.57044 -0.83921 120 125 126
1.51616 -2.59192 -0.83817 143 149 151
1.52275 -2.58129 -0.82756 152 157 148
1.51892 -2.60275 -0.82652 152 159 152
1.52463 -2.59185 -0.81484 150 153 151
1.53804 -2.59334 -0.79772 148 151 138
1.52081 -2.61329 -0.81380 147 155 157
1.26085 -3.21452 0.57812 51 49 61
1.25051 -3.21338 0.56493 135 130 119
1.25791 -3.23105 0.57892 33 45 81
1.18578 -2.06028 -1.07229 37 37 41
1.17297 -2.05885 -1.08863 34 31 35
1.17755 -2.06980 -1.07997 32 34 32
1.16184 -2.09781 -0.97388 45 43 46
1.17441 -2.09920 -0.95783 59 60 58
1.15130 -2.10626 -0.94278 53 52 58
1.16379 -2.10765 -0.92685 63 61 63
1.14781 -2.11569 -0.92244 59 63 70
1.16026 -2.11707 -0.90656 66 62 60
1.15226 -2.12632 -0.91402 60 69 64
1.17035 -2.15904 -0.89570 69 67 65
1.17390 -2.13912 -0.89667 64 64 60
1.16589 -2.14839 -0.90414 69 70 70
1.15787 -2.15766 -0.91162 71 74 76
1.17836 -2.14977 -0.88823 69 66 63
1.17975 -2.17058 -0.89449 57 51 54
1.18405 -2.18123 -0.88580 44 33 51
1.18049 -2.20120 -0.88483 30 28 44
1.19030 -2.19224 -0.87992 43 33 59
1.20862 -2.20557 -0.89144 51 52 69
1.22190 -2.21804 -0.89554 61 67 75
1.23453 -2.21944 -0.87942 82 79 82
1.23185 -2.22991 -0.89476 71 76 83
1.24701 -2.25282 -0.88627 100 101 95
1.25544 -2.26449 -0.88317 66 64 69
1.26085 -2.27554 -0.87579 36 43 51
1.27078 -2.28759 -0.87471 80 93 93
1.27487 -2.29837 -0.86543 131 133 144
1.27994 -2.30938 -0.85752 130 124 133
1.28467 -2.32031 -0.84913 84 79 76
1.30890 -2.33587 -0.86752 35 31 29
1.31459 -2.34711 -0.86032 29 25 28
1.31919 -2.35810 -0.85162 39 23 37
1.32631 -2.36971 -0.84634 81 63 101
1.37333 -2.39145 -0.89482 173 170 204
1.37561 -2.40203 -0.88274 219 232 234
1.38130 -2.41347 -0.87523 217 224 231
1.39255 -2.42639 -0.87512 199 213 224
1.42652 -2.44549 -0.90500 183 192 203
1.45362 -2.46294 -0.92549 158 163 178
1.47300 -2.47843 -0.93557 130 136 160
1.48916 -2.49312 -0.94127 121 133 157
1.49776 -2.51593 -0.92157 124 144 156
1.49861 -2.52631 -0.90728 122 132 143
1.51832 -2.54227 -0.91724 95 92 106
1.51796 -2.55230 -0.90140 75 58 90
1.51949 -2.56287 -0.88801 65 62 106
1.52113 -2.57345 -0.87480 124 133 141
1.52124 -2.58352 -0.85972 143 156 140
1.51740 -2.60508 -0.85867 137 145 135
1.18998 -2.04013 -1.14693 48 47 44
1.19367 -2.01943 -1.14793 51 50 54
1.18535 -2.02906 -1.15569 53 51 53
1.17703 -2.03869 -1.16346 56 53 55
1.18166 -2.04976 -1.15469 53 50 52
1.18477 -2.04996 -1.12282 43 36 41
1.17068 -2.07915 -1.05369 29 34 26
1.15794 -2.07774 -1.06995 33 32 29
1.16250 -2.08862 -1.06133 25 25 18
1.16706 -2.09951 -1.05271 18 21 19
1.17084 -2.08940 -1.03833 23 27 27
1.16722 -2.10973 -1.03735 18 19 20
1.15189 -2.11690 -0.96328 34 27 51
1.14232 -2.12534 -0.93367 43 42 58
1.14259 -2.13530 -0.91896 52 59 59
1.15502 -2.13667 -0.90309 65 70 63
1.14729 -2.14596 -0.91093 62 68 67
1.15959 -2.16783 -0.89913 60 56 70
1.16883 -2.17934 -0.89773 41 32 51
1.16528 -2.19929 -0.89677 24 25 30
1.17645 -2.19060 -0.89391 31 26 40
1.17289 -2.21057 -0.89294 24 28 35
1.19488 -2.21382 -0.89076 34 32 51
1.18682 -2.22315 -0.89828 29 31 43
1.19130 -2.23387 -0.88979 36 32 49
1.20675 -2.22602 -0.89294 43 37 60
1.21639 -2.23783 -0.89181 50 51 70
1.23240 -2.26088 -0.88469 103 113 115
1.24382 -2.27319 -0.88590 73 79 69
1.24020 -2.29347 -0.88492 21 30 25
1.25803 -2.28617 -0.89096 22 35 37
1.26116 -2.29674 -0.88034 33 47 74
1.26513 -2.30749 -0.87089 74 80 107
1.27021 -2.31850 -0.86301 114 121 123
1.27580 -2.32963 -0.85582 130 134 121
1.28297 -2.34115 -0.85081 92 80 77
1.29588 -2.35410 -0.85365 78 67 63
1.32819 -2.37197 -0.88294 102 100 115
1.37420 -2.39355 -0.93055 165 165 181
1.36117 -2.40022 -0.89758 207 224 226
1.36882 -2.41217 -0.89275 198 213 218
1.41651 -2.44490 -0.92631 153 154 181
1.43325 -2.45954 -0.93327 127 136 163
1.45159 -2.47473 -0.94222 125 134 157
1.44777 -2.49618 -0.94119 105 119 128
1.47809 -2.50250 -0.94625 123 145 152
1.48512 -2.51469 -0.93998 114 128 134
1.49492 -2.52770 -0.93729 89 79 96
1.49814 -2.53880 -0.92601 69 44 77
1.50732 -2.55168 -0.92244 60 55 94
1.51180 -2.57324 -0.89740 117 125 114
1.50794 -2.59488 -0.89635 139 151 140
1.51573 -2.58453 -0.88709 140 155 153
1.51028 -2.59283 -0.86489 137 143 140
1.16887 -2.06893 -1.10275 42 41 34
1.13452 -2.13464 -0.94144 25 17 41
1.12206 -2.13326 -0.95734 21 21 24
1.12652 -2.14391 -0.94891 18 17 25
1.13320 -2.14430 -0.92431 30 29 54
1.13623 -2.15467 -0.91377 42 44 63
1.14389 -2.16586 -0.91017 60 62 66
1.14034 -2.18574 -0.90921 54 57 62
1.14852 -2.17652 -0.90203 54 51 66
1.16263 -2.18897 -0.90791 35 29 44
1.15908 -2.20893 -0.90695 20 22 17
1.21038 -2.24765 -0.90239 31 31 50
1.19775 -2.24625 -0.91851 36 37 48
1.20226 -2.25704 -0.90996 37 39 47
1.20678 -2.26783 -0.90142 33 38 48
1.22338 -2.26025 -0.90607 40 47 62
1.22791 -2.27108 -0.89749 58 66 76
1.24165 -2.28395 -0.90204 45 52 51
1.25456 -2.30658 -0.89021 30 40 47
1.25836 -2.31729 -0.88051 75 77 89
1.28576 -2.33363 -0.90390 140 146 148
1.28892 -2.34427 -0.89318 199 214 202
1.29876 -2.35655 -0.89177 206 217 199
1.30834 -2.36881 -0.88992 204 214 193
1.32202 -2.38215 -0.89366 207 223 210
1.33791 -2.39614 -0.90031 200 215 216
1.36545 -2.41328 -0.92271 178 181 199
1.39120 -2.43013 -0.94240 148 147 177
1.39989 -2.44252 -0.93878 123 132 153
1.42347 -2.46914 -0.93968 128 144 156
1.46406 -2.51099 -0.94729 78 71 96
1.47247 -2.52358 -0.94288 61 48 84
1.48566 -2.53761 -0.94469 80 61 92
1.51053 -2.56542 -0.94604 143 152 131
1.50665 -2.58719 -0.94499 145 142 152
1.51161 -2.57588 -0.93192 150 154 130
1.50773 -2.59763 -0.93086 134 142 152
1.49333 -2.60018 -0.86242 137 141 137
1.48470 -2.61018 -0.87047 156 166 152
1.48951 -2.62166 -0.86138 153 167 158
1.54754 -2.98662 -0.36644 151 164 173
1.55119 -2.96617 -0.36743 158 170 155
1.54297 -2.97569 -0.37510 152 161 164
1.53475 -2.98520 -0.38277 150 162 162
1.56034 -2.98804 -0.35011 175 185 175
1.15578 -2.07779 -1.10282 50 49 46
1.14298 -2.07637 -1.11915 56 57 60
1.15747 -2.08832 -1.08964 39 34 39
1.15026 -2.09750 -1.06266 29 27 29
1.15481 -2.10836 -1.05406 22 26 23
1.12728 -2.15391 -0.93489 16 20 35
1.11929 -2.16315 -0.94234 24 25 30
1.12374 -2.17378 -0.93393 25 27 24
1.12751 -2.16378 -0.92010 23 25 44
1.13588 -2.17511 -0.91760 36 37 54
1.15593 -2.19851 -0.91736 44 39 32
1.22467 -2.28160 -0.91215 38 41 50
1.21196 -2.28019 -0.92836 33 35 32
1.23345 -2.29341 -0.90963 43 38 39
1.24111 -2.30500 -0.90547 36 28 23
1.24697 -2.31620 -0.89869 39 33 38
1.24787 -2.32622 -0.88489 90 82 109
1.29315 -2.34700 -0.93368 170 171 193
1.27757 -2.35307 -0.89657 209 223 224
1.28748 -2.36537 -0.89529 209 221 224
1.30004 -2.37841 -0.89766 198 209 214
1.35224 -2.40179 -0.95479 174 177 192
1.37065 -2.41666 -0.96476 141 140 173
1.37999 -2.42920 -0.96212 118 131 154
1.38335 -2.44016 -0.95125 120 138 152
1.37958 -2.46135 -0.95023 97 97 113
1.39230 -2.45265 -0.94801 125 144 146
1.40212 -2.46542 -0.94588 119 140 136
1.39833 -2.48668 -0.94486 59 56 75
1.43344 -2.49443 -0.95710 77 63 90
1.42961 -2.51588 -0.95607 110 121 102
1.45387 -2.52057 -0.95333 70 68 94
1.46100 -2.53278 -0.94728 117 117 107
1.45716 -2.55434 -0.94624 139 144 142
1.45406 -2.54073 -0.92265 131 136 130
1.45023 -2.56219 -0.92161 150 159 165
1.47457 -2.55704 -0.93416 136 148 134
1.47072 -2.57863 -0.93311 153 162 162
1.54611 -2.99930 -0.38136 154 166 167
1.53328 -2.99787 -0.39773 148 151 156
1.53787 -3.00884 -0.38905 148 155 159
1.55390 -3.01176 -0.37607 163 174 170
1.55024 -3.03228 -0.37508 158 167 168
1.14076 -3.25955 0.74213 98 103 112
1.14541 -2.08700 -1.10711 56 56 62
1.13720 -2.09651 -1.11477 63 66 75
1.14922 -2.09782 -1.09725 50 44 53
1.14624 -2.10759 -1.07678 41 36 39
1.14839 -2.11809 -1.06440 31 32 28
1.16111 -2.11951 -1.04816 21 24 21
1.15294 -2.12897 -1.05579 28 29 27
1.14476 -2.13843 -1.06341 32 32 36
1.12709 -2.18420 -0.92384 23 23 31
1.13753 -2.19598 -0.92444 60 67 52
1.14584 -2.20740 -0.92177 66 70 38
1.16080 -2.22018 -0.92896 32 34 17
1.16529 -2.23090 -0.92047 17 24 20
1.17701 -2.24314 -0.92265 27 29 38
1.18509 -2.23378 -0.91511 26 30 41
1.18151 -2.25389 -0.91414 37 37 50
1.17342 -2.26325 -0.92168 40 44 51
1.21944 -2.29171 -0.92402 33 34 35
1.22706 -2.30329 -0.91985 56 64 65
1.24641 -2.31766 -0.93249 91 99 100
1.25309 -2.32911 -0.92682 129 138 132
1.27181 -2.34352 -0.93825 176 195 177
1.26827 -2.35252 -0.91796 195 214 210
1.28020 -2.36536 -0.91961 184 196 201
1.30776 -2.38226 -0.94312 163 166 177
1.33420 -2.39907 -0.96478 137 139 156
1.34622 -2.41223 -0.96607 123 131 149
1.36117 -2.42624 -0.97135 124 137 154
1.37147 -2.43907 -0.97007 124 145 150
1.40404 -2.47829 -0.96811 75 60 92
1.39546 -2.48823 -0.97612 76 89 95
1.40024 -2.49964 -0.96707 118 126 116
1.43632 -2.52792 -0.94953 140 155 138
1.42769 -2.53790 -0.95758 146 154 151
1.43772 -2.53836 -0.93592 140 148 137
1.43390 -2.55979 -0.93488 147 146 145
1.54811 -3.02248 -0.38640 151 158 161
1.53525 -3.02105 -0.40281 153 161 160
1.13289 -3.25972 0.72825 84 93 100
1.12314 -3.25864 0.71581 65 78 86
1.13011 -3.27531 0.72900 70 87 105
1.13235 -2.10600 -1.09122 62 64 64
1.11961 -2.10458 -1.10747 70 72 76
1.13658 -2.11683 -1.08209 54 53 53
1.13836 -2.12726 -1.06912 40 40 42
1.12699 -2.14549 -1.02013 33 32 38
1.13508 -2.13612 -1.01258 29 28 29
1.12014 -2.15426 -0.99404 38 37 44
1.11494 -2.16323 -0.97066 40 40 44
1.11482 -2.17305 -0.95518 36 36 36
1.11520 -2.18293 -0.94054 31 31 29
1.11165 -2.20280 -0.93957 30 30 43
1.12344 -2.19429 -0.93789 24 22 33
1.13576 -2.20649 -0.94135 57 64 72
1.15474 -2.22010 -0.95472 97 108 95
1.14487 -2.22789 -0.92468 70 73 53
1.16289 -2.24142 -0.93644 34 33 30
1.16989 -2.25271 -0.93164 33 35 45
1.20801 -2.29059 -0.94213 31 32 33
1.21163 -2.27025 -0.94311 37 40 44
1.20346 -2.27972 -0.95074 39 42 44
1.21473 -2.30197 -0.93669 22 27 36
1.25384 -2.33095 -0.96280 113 124 130
1.26020 -2.34240 -0.95658 161 179 179
1.26599 -2.35373 -0.94954 176 189 198
1.28437 -2.36824 -0.96041 155 157 176
1.29028 -2.37967 -0.95341 130 134 155
1.30565 -2.39358 -0.95977 123 130 150
1.32451 -2.40850 -0.97090 125 136 151
1.32077 -2.42949 -0.96988 88 78 99
1.33664 -2.42173 -0.97242 124 139 153
1.33289 -2.44278 -0.97140 55 46 64
1.35012 -2.43538 -0.97572 110 125 142
1.37252 -2.47162 -0.96019 47 53 81
1.39150 -2.50704 -0.93970 144 151 131
1.38296 -2.51692 -0.94766 146 156 147
1.38772 -2.52827 -0.93867 143 150 150
1.40186 -2.52008 -0.93827 147 161 139
1.39807 -2.54137 -0.93724 146 154 157
1.41989 -2.54548 -0.93163 146 148 148
1.41609 -2.56684 -0.93060 145 138 125
1.42054 -2.61437 -0.82581 148 151 147
1.42430 -2.59329 -0.82683 156 164 151
1.41582 -2.60310 -0.83474 158 169 154
1.41207 -2.62418 -0.83372 140 142 151
1.42434 -2.62533 -0.81570 140 144 143
1.42059 -2.64641 -0.81468 159 168 156
1.55800 -3.04956 -0.39990 162 171 175
1.57092 -3.05099 -0.38341 168 178 169
1.56262 -3.06060 -0.39116 175 187 179
1.66538 -3.40386 -0.04492 179 189 191
1.65270 -3.40245 -0.06109 175 180 180
1.65724 -3.41328 -0.05252 182 187 182
1.66177 -3.42411 -0.04394 183 186 180
1.11986 -2.11479 -1.09200 70 73 72
1.10715 -2.11338 -1.10822 77 78 79
1.11169 -2.12424 -1.09962 77 81 79
1.12418 -2.12561 -1.08304 65 67 62
1.13018 -2.13671 -1.07675 51 49 56
1.13131 -2.14699 -1.06277 38 35 47
1.12209 -2.15542 -1.03268 40 40 49
1.11432 -2.18374 -0.97422 48 52 50
1.11572 -2.19382 -0.96105 35 36 45
1.11217 -2.21377 -0.96009 32 38 46
1.13080 -2.21640 -0.95352 34 40 54
1.14603 -2.22933 -0.96132 76 91 93
1.15288 -2.24057 -0.95634 87 96 91
1.15739 -2.25133 -0.94783 61 55 50
1.17683 -2.27519 -0.94631 64 55 41
1.20612 -2.31134 -0.94369 35 29 47
1.22243 -2.32506 -0.95224 54 64 88
1.23042 -2.33683 -0.94855 70 91 115
1.24919 -2.35132 -0.96039 82 104 127
1.28193 -2.38934 -0.96120 127 139 149
1.27823 -2.41011 -0.96020 86 79 82
1.29376 -2.40236 -0.96262 123 139 149
1.29005 -2.42319 -0.96161 59 47 67
1.30460 -2.41517 -0.96254 110 122 137
1.33887 -2.45440 -0.96425 59 69 82
1.38050 -2.48628 -0.99095 113 114 101
1.36647 -2.49215 -0.95603 126 126 117
1.36045 -2.50026 -0.93231 138 138 126
1.35669 -2.52134 -0.93129 142 157 143
1.40190 -2.63031 -0.80549 150 159 149
1.39817 -2.65127 -0.80447 156 171 160
1.40722 -2.79944 -0.55130 149 157 160
1.41084 -2.77912 -0.55228 166 174 166
1.41538 -2.78998 -0.54367 166 172 165
1.39905 -2.80889 -0.55892 152 150 144
1.41993 -2.80085 -0.53507 164 172 165
1.41176 -2.81030 -0.54269 153 164 161
1.50926 -3.00459 -0.41855 174 174 170
1.50103 -3.01412 -0.42623 180 182 182
1.25912 -3.29735 0.49779 42 30 53
1.26212 -3.28051 0.49697 107 97 96
1.25535 -3.28835 0.49066 100 83 96
1.26966 -3.29852 0.51124 38 47 73
1.26289 -3.30636 0.50492 39 46 72
1.25612 -3.31419 0.49860 41 44 64
1.13970 -3.29934 0.72023 82 80 95
1.13691 -3.31501 0.72099 98 102 111
1.15642 -3.31678 0.71674 91 86 97
1.16628 -3.31788 0.72933 79 82 87
1.15980 -3.32510 0.72353 90 90 102
1.16966 -3.32620 0.73612 78 83 95
1.15699 -3.34086 0.72429 85 92 105
1.10795 -2.13371 -1.07782 74 80 72
1.09529 -2.13231 -1.09398 82 85 84
1.09981 -2.14313 -1.08541 80 82 74
1.10887 -2.14391 -1.06353 64 64 65
1.10620 -2.15344 -1.04362 66 62 62
1.09102 -2.17050 -0.98873 81 87 71
1.10806 -2.19338 -0.98445 54 63 56
1.11513 -2.20458 -0.98000 37 48 53
1.12661 -2.22651 -0.96690 26 29 42
1.13454 -2.23796 -0.96366 57 57 69
1.16360 -2.25400 -0.99240 121 123 109
1.18742 -2.26910 -1.01290 152 161 135
1.19607 -2.28095 -1.01035 160 167 138
1.20703 -2.29338 -1.01121 159 163 123
1.19799 -2.30118 -0.98220 114 123 87
1.20348 -2.31232 -0.97490 68 82 56
1.23056 -2.32870 -0.99945 81 94 82
1.22688 -2.34934 -0.99845 128 140 144
1.24613 -2.35236 -0.99123 127 133 129
1.24745 -2.36258 -0.97765 120 122 123
1.25678 -2.37485 -0.97571 114 121 129
1.25309 -2.39555 -0.97471 71 65 73
1.26803 -2.38766 -0.97649 112 129 140
1.31804 -2.45077 -0.97029 101 102 96
1.33015 -2.47401 -0.95629 145 153 137
1.34456 -2.48812 -0.96090 132 139 131
1.34728 -2.49880 -0.94918 135 149 137
1.51311 -3.02869 -0.42579 173 174 173
1.50485 -3.03824 -0.43349 168 177 175
