ply
format ascii 1.0
element face 0
property list uchar int vertex_indices
element vertex 1278
property float x
property float y
property float z
property uchar diffuse_red
property uchar diffuse_green
property uchar diffuse_blue
end_header
-0.41398 -0.28014 -0.56087 95 88 145
-0.41131 -0.29021 -0.55925 104 108 165
-0.33510 -0.25796 -0.74812 243 244 243
-0.31391 -0.25915 -0.77468 241 238 237
-0.30401 -0.26045 -0.78462 228 222 215
-0.29409 -0.26184 -0.79431 187 171 176
-0.28753 -0.26572 -0.79084 180 168 187
-0.28030 -0.26914 -0.78991 215 204 218
-0.27253 -0.27221 -0.79092 239 233 227
-0.26685 -0.27671 -0.78415 248 244 235
-0.25952 -0.28011 -0.78342 250 249 247
-0.25279 -0.28391 -0.78050 246 251 250
-0.24550 -0.28736 -0.77955 234 235 235
-0.23738 -0.29032 -0.78139 207 207 204
-0.23160 -0.29474 -0.77505 201 194 220
-0.22621 -0.29937 -0.76746 179 149 183
-0.21691 -0.30169 -0.77314 126 94 100
-0.20968 -0.30526 -0.77171 96 65 85
-0.20146 -0.30828 -0.77350 112 73 86
-0.19275 -0.31108 -0.77676 150 108 76
-0.18347 -0.31361 -0.78172 167 115 65
-0.17264 -0.32285 -0.76664 158 112 67
-0.15020 -0.33350 -0.76360 254 253 244
-0.14713 -0.34509 -0.76174 254 254 254
0.10253 -0.50572 -0.55574 250 243 231
0.09257 -0.50925 -0.56102 251 250 248
0.10753 -0.50987 -0.54916 189 181 162
0.11507 -0.51355 -0.54780 191 181 140
0.12338 -0.51711 -0.54796 234 232 206
0.12637 -0.52841 -0.54614 251 250 252
0.13462 -0.52019 -0.55394 250 252 250
0.13763 -0.53154 -0.55212 251 249 251
0.31798 -0.65404 -0.37356 252 252 250
0.31507 -0.64304 -0.37533 252 251 251
0.31167 -0.65026 -0.37702 252 251 251
0.30827 -0.65749 -0.37871 252 251 251
0.32430 -0.65782 -0.37010 246 238 228
0.33580 -0.66147 -0.37455 211 162 150
0.35425 -0.66500 -0.38942 206 136 100
0.36260 -0.66880 -0.38884 242 252 254
0.36556 -0.67997 -0.38704 253 252 252
0.42866 -0.71839 -0.31930 245 222 173
0.44222 -0.72234 -0.32571 218 169 128
0.44858 -0.72615 -0.32222 196 131 146
0.46067 -0.73012 -0.32645 189 133 164
0.47113 -0.74129 -0.30442 229 225 231
0.48090 -0.73783 -0.29924 251 252 253
0.47748 -0.74510 -0.30094 247 247 246
0.47406 -0.75236 -0.30264 254 254 251
0.64901 -0.86023 -0.16569 254 254 254
0.64613 -0.84935 -0.16744 254 254 254
0.64276 -0.85649 -0.16911 254 254 254
0.65238 -0.85309 -0.16401 254 254 254
0.65862 -0.85683 -0.16059 254 254 254
0.65387 -0.86382 -0.16077 254 254 254
0.66347 -0.86042 -0.15568 254 254 254
0.65969 -0.86751 -0.15690 249 253 254
0.66929 -0.86411 -0.15181 254 254 254
0.66445 -0.87108 -0.15191 241 251 253
0.68694 -0.87974 -0.15555 216 233 209
0.67155 -0.88088 -0.12960 208 203 206
0.75249 -0.91185 -0.14333 80 63 86
0.75542 -0.92289 -0.14156 90 76 60
-0.76418 -0.08101 -0.74558 86 81 85
-0.76684 -0.07097 -0.74720 88 85 90
-0.76994 -0.07756 -0.74874 85 86 93
-0.76108 -0.07442 -0.74404 84 85 86
-0.76728 -0.08760 -0.74713 102 96 101
-0.75795 -0.08225 -0.75053 89 80 88
-0.75528 -0.09232 -0.74891 151 149 157
-0.75175 -0.08379 -0.75443 105 96 103
-0.74907 -0.09390 -0.75281 178 176 177
-0.74552 -0.08539 -0.75818 130 127 128
-0.73850 -0.08390 -0.77348 157 153 153
-0.73579 -0.09412 -0.77184 208 202 212
-0.73072 -0.07987 -0.79840 180 175 173
-0.72798 -0.09022 -0.79674 227 217 222
-0.72442 -0.08203 -0.80038 194 191 185
-0.66378 -0.11479 -0.77906 121 119 119
-0.67299 -0.11806 -0.78394 221 219 207
-0.66102 -0.12522 -0.77738 130 126 123
-0.65020 -0.11800 -0.78819 92 93 102
-0.64742 -0.12850 -0.78650 132 130 131
-0.64289 -0.11856 -0.79700 94 98 101
-0.64009 -0.12912 -0.79530 149 145 141
-0.60296 -0.13322 -0.80619 54 50 30
-0.59353 -0.12988 -0.80119 12 7 12
-0.59683 -0.13690 -0.80283 26 14 5
-0.60013 -0.14391 -0.80447 82 71 41
-0.56049 -0.15969 -0.77944 16 10 21
-0.56332 -0.14902 -0.78116 11 9 22
-0.56661 -0.15602 -0.78280 15 10 20
-0.55719 -0.15268 -0.77780 11 9 17
-0.55766 -0.17037 -0.77773 39 35 48
-0.54616 -0.16379 -0.78667 34 25 41
-0.53274 -0.16955 -0.78694 54 47 52
-0.52989 -0.18033 -0.78521 62 58 68
-0.52509 -0.17113 -0.79283 57 55 56
-0.52223 -0.18195 -0.79109 62 61 74
-0.49771 -0.22758 -0.64320 32 43 98
-0.50042 -0.21735 -0.64485 38 40 100
-0.50358 -0.22407 -0.64642 41 49 103
-0.49455 -0.22087 -0.64163 35 42 98
-0.48868 -0.22438 -0.63841 27 41 94
-0.49184 -0.23110 -0.63999 26 40 100
-0.47586 -0.25320 -0.58909 32 52 140
-0.47215 -0.25881 -0.57566 36 58 150
-0.46691 -0.26275 -0.57011 29 46 150
-0.46378 -0.26880 -0.55436 38 54 154
-0.45798 -0.27210 -0.55176 31 35 151
-0.44610 -0.27846 -0.54777 36 31 119
-0.43187 -0.28274 -0.55424 73 67 134
-0.41666 -0.28638 -0.56428 90 83 138
-0.41978 -0.29300 -0.56583 90 83 139
-0.37553 -0.26873 -0.68385 199 210 227
-0.36208 -0.26645 -0.71120 239 239 228
-0.34811 -0.26401 -0.73986 248 246 232
-0.33935 -0.26589 -0.74639 244 234 242
-0.32678 -0.26492 -0.76805 234 224 228
-0.31486 -0.26463 -0.78649 218 210 213
-0.30476 -0.26586 -0.79715 209 196 194
-0.29771 -0.26938 -0.79564 202 198 201
-0.29119 -0.27329 -0.79206 228 216 226
-0.28203 -0.27538 -0.79844 241 245 245
-0.27624 -0.27982 -0.79198 237 246 244
-0.27056 -0.28432 -0.78521 226 231 229
-0.26040 -0.28587 -0.79486 218 202 236
-0.25099 -0.28800 -0.80148 195 172 201
-0.24849 -0.29453 -0.78321 167 120 152
-0.24376 -0.29958 -0.77317 143 84 112
-0.23550 -0.30247 -0.77556 134 66 80
-0.22874 -0.30628 -0.77262 133 65 73
-0.22077 -0.30940 -0.77382 129 79 75
-0.20942 -0.31065 -0.78625 156 115 103
-0.20292 -0.31468 -0.78223 200 158 109
-0.18945 -0.32249 -0.77571 244 213 184
-0.18282 -0.32646 -0.77208 245 223 178
-0.16494 -0.33207 -0.77939 252 248 233
-0.16186 -0.34369 -0.77752 254 254 254
0.09731 -0.51345 -0.55385 234 209 218
0.10370 -0.51733 -0.55017 220 189 184
0.11179 -0.52092 -0.54995 234 227 210
0.11478 -0.53220 -0.54814 252 251 253
0.12175 -0.52421 -0.55346 249 251 245
0.12475 -0.53554 -0.55164 251 249 251
0.30797 -0.66144 -0.36497 252 251 250
0.29831 -0.66486 -0.37010 252 251 251
0.33116 -0.66875 -0.37437 197 157 171
0.33749 -0.67254 -0.37090 218 156 155
0.35552 -0.67618 -0.38508 248 254 254
0.35848 -0.68733 -0.38329 253 252 252
0.43467 -0.72219 -0.34636 254 254 249
0.42482 -0.72568 -0.35159 254 254 254
0.43122 -0.72952 -0.34808 254 254 254
0.43763 -0.73336 -0.34457 254 254 254
0.43886 -0.72962 -0.32751 251 227 211
0.44205 -0.73334 -0.31970 252 228 217
0.45019 -0.73720 -0.31864 254 240 224
0.45312 -0.74828 -0.31686 254 254 254
0.45478 -0.74094 -0.31278 254 247 228
0.45771 -0.75201 -0.31100 254 254 254
0.60713 -0.84483 -0.18675 254 254 254
0.60425 -0.83395 -0.18850 254 254 254
0.60089 -0.84109 -0.19017 254 254 254
0.61049 -0.83769 -0.18508 254 254 254
0.61673 -0.84142 -0.18165 254 254 254
0.61457 -0.84869 -0.18466 254 254 254
0.62418 -0.84528 -0.17956 254 254 254
0.62034 -0.85238 -0.18071 253 254 254
0.62995 -0.84898 -0.17561 254 254 254
0.62897 -0.85638 -0.17991 246 253 254
0.63859 -0.85297 -0.17480 254 254 254
0.63585 -0.86020 -0.17716 237 250 252
0.64320 -0.86407 -0.17492 225 245 240
0.65625 -0.86859 -0.17882 211 224 216
0.65960 -0.87202 -0.17221 206 190 215
0.66084 -0.87518 -0.16339 191 157 192
0.67395 -0.87975 -0.16723 171 128 168
0.70576 -0.88966 -0.18052 103 77 90
0.70870 -0.90075 -0.17873 87 70 57
-0.77349 -0.08661 -0.74123 86 85 88
-0.77614 -0.07661 -0.74284 86 87 100
-0.77923 -0.08317 -0.74438 85 85 93
-0.76184 -0.09260 -0.73821 126 118 130
-0.75918 -0.10261 -0.73660 184 181 194
-0.74200 -0.09208 -0.76953 192 192 195
-0.74515 -0.09877 -0.77110 222 216 222
-0.73930 -0.10228 -0.76789 235 229 239
-0.72349 -0.09909 -0.77325 230 226 226
-0.72078 -0.10935 -0.77160 254 253 250
-0.71776 -0.10314 -0.76802 226 224 234
-0.71504 -0.11339 -0.76638 254 254 253
-0.66781 -0.12376 -0.77225 167 165 159
-0.65198 -0.12132 -0.80413 124 119 123
-0.65524 -0.12825 -0.80575 183 174 177
-0.64918 -0.13188 -0.80243 193 190 187
-0.63069 -0.12531 -0.82227 161 155 153
-0.62456 -0.12898 -0.81891 160 157 156
-0.62786 -0.13600 -0.82055 220 215 209
-0.62109 -0.13826 -0.79248 156 156 149
-0.61338 -0.13856 -0.80297 148 150 131
-0.60501 -0.13777 -0.81812 124 120 97
-0.60217 -0.14851 -0.81639 142 140 118
-0.57812 -0.16296 -0.77246 18 12 19
-0.58093 -0.15235 -0.77417 12 9 19
-0.58421 -0.15931 -0.77580 14 10 18
-0.57485 -0.15600 -0.77083 15 9 19
-0.57531 -0.17356 -0.77076 39 28 40
-0.56454 -0.16794 -0.77573 29 22 32
-0.56172 -0.17859 -0.77402 55 56 54
-0.55161 -0.17416 -0.77382 49 48 57
-0.54879 -0.18483 -0.77211 62 60 69
-0.54480 -0.17677 -0.77509 56 54 62
-0.54196 -0.18747 -0.77337 64 60 72
-0.53643 -0.17715 -0.78626 61 56 66
-0.53358 -0.18792 -0.78453 66 62 75
-0.50742 -0.23161 -0.64418 38 40 100
-0.51012 -0.22139 -0.64582 46 49 98
-0.51328 -0.22810 -0.64739 53 54 96
-0.50129 -0.23479 -0.64247 27 32 93
-0.49588 -0.23884 -0.63674 22 32 96
-0.48687 -0.23565 -0.63196 28 38 97
-0.49003 -0.24235 -0.63353 23 32 93
-0.48615 -0.24806 -0.61986 26 31 96
-0.48346 -0.25822 -0.61822 25 26 88
-0.48219 -0.25359 -0.60696 25 31 104
-0.47951 -0.26370 -0.60534 25 24 91
-0.47795 -0.25871 -0.59583 27 34 111
-0.47528 -0.26879 -0.59422 21 21 95
-0.47387 -0.26395 -0.58410 25 31 113
-0.47121 -0.27398 -0.58249 17 20 100
-0.47050 -0.26983 -0.56910 20 25 111
-0.46786 -0.27980 -0.56749 21 23 102
-0.46567 -0.27414 -0.56162 17 22 106
-0.46031 -0.27790 -0.55680 18 23 117
-0.45768 -0.28785 -0.55520 28 33 126
-0.45447 -0.28119 -0.55431 27 31 119
-0.44755 -0.28348 -0.55685 39 38 123
-0.44076 -0.28593 -0.55860 57 53 128
-0.43219 -0.28683 -0.56832 72 67 136
-0.42282 -0.28713 -0.58127 81 77 140
-0.42013 -0.29727 -0.57964 87 80 136
-0.40436 -0.28837 -0.60455 82 84 143
-0.36064 -0.26972 -0.73314 234 247 249
-0.35223 -0.27180 -0.73857 246 247 241
-0.33712 -0.26878 -0.77136 208 201 209
-0.32489 -0.26821 -0.79152 200 199 202
-0.31624 -0.27049 -0.79665 191 200 200
-0.31060 -0.27501 -0.78967 205 221 215
-0.30332 -0.27834 -0.78918 206 215 229
-0.29551 -0.28132 -0.79069 210 209 245
-0.27711 -0.28554 -0.80373 177 122 155
-0.27050 -0.28945 -0.80027 152 92 111
-0.26430 -0.29363 -0.79527 138 71 93
-0.25893 -0.29832 -0.78731 135 82 80
-0.24586 -0.30621 -0.77996 164 108 105
-0.23780 -0.30924 -0.78163 202 152 110
-0.23188 -0.31356 -0.77576 227 191 164
-0.22657 -0.31821 -0.76784 238 223 194
-0.21910 -0.32163 -0.76734 243 235 209
-0.21285 -0.32573 -0.76271 248 243 210
-0.20982 -0.33716 -0.76087 254 254 253
-0.19500 -0.33111 -0.77096 254 250 246
-0.19195 -0.34263 -0.76911 254 254 254
-0.18438 -0.33301 -0.78033 254 252 246
-0.18132 -0.34459 -0.77847 254 254 254
-0.17731 -0.33677 -0.77805 254 253 249
-0.17424 -0.34836 -0.77619 254 254 254
0.07881 -0.51349 -0.55824 253 252 251
0.07584 -0.50225 -0.56005 251 250 251
0.07236 -0.50963 -0.56178 251 250 251
0.06889 -0.51701 -0.56350 251 250 252
0.08228 -0.50611 -0.55651 251 250 252
0.09353 -0.52090 -0.55496 204 169 185
0.11069 -0.52793 -0.55659 245 240 236
0.11369 -0.53924 -0.55477 251 250 251
0.30335 -0.66865 -0.36473 252 251 249
0.29370 -0.67207 -0.36985 252 251 251
0.30682 -0.67245 -0.35696 239 230 231
0.33043 -0.67596 -0.38019 182 142 193
0.31676 -0.67998 -0.34616 225 187 208
0.34731 -0.68353 -0.37957 252 254 254
0.35025 -0.69464 -0.37778 253 252 252
0.44169 -0.74071 -0.32559 254 254 254
0.43190 -0.74418 -0.33078 254 254 254
0.43827 -0.74799 -0.32729 254 254 254
0.44463 -0.75181 -0.32380 254 254 254
0.45008 -0.74460 -0.32484 254 254 254
0.45302 -0.75571 -0.32305 254 254 254
0.57496 -0.83351 -0.20833 254 254 254
0.57207 -0.82261 -0.21008 254 254 254
0.56870 -0.82976 -0.21176 254 254 254
0.57832 -0.82635 -0.20666 254 254 254
0.58458 -0.83010 -0.20323 254 254 254
0.58540 -0.84079 -0.19911 251 254 254
0.59501 -0.83739 -0.19401 254 254 254
0.59041 -0.84440 -0.19428 243 252 253
0.60426 -0.85202 -0.18898 219 240 233
0.61818 -0.85660 -0.19414 208 215 214
0.62729 -0.86067 -0.19385 203 184 216
0.65108 -0.86950 -0.19926 158 113 149
0.65212 -0.87267 -0.19001 128 94 116
0.65503 -0.88367 -0.18824 88 71 59
0.66127 -0.87679 -0.18963 86 76 88
0.66420 -0.88781 -0.18786 88 72 58
0.66889 -0.88073 -0.18755 72 58 93
0.67181 -0.89177 -0.18578 88 74 59
0.68183 -0.88835 -0.18091 81 55 91
0.68475 -0.89939 -0.17913 93 76 70
0.69412 -0.89290 -0.18375 87 60 83
0.69706 -0.90398 -0.18197 93 78 67
-0.78238 -0.09012 -0.74448 94 86 91
-0.78503 -0.08013 -0.74608 85 88 98
-0.78812 -0.08669 -0.74762 85 85 91
-0.79120 -0.09325 -0.74916 95 87 97
-0.77689 -0.09487 -0.73643 112 108 109
-0.77094 -0.09709 -0.73784 140 143 146
-0.76404 -0.09481 -0.75613 168 167 175
-0.75158 -0.09783 -0.76461 204 198 209
-0.74889 -0.10798 -0.76298 250 246 247
-0.73296 -0.10389 -0.77194 249 243 248
-0.73612 -0.11060 -0.77352 254 254 254
-0.73025 -0.11412 -0.77030 254 254 254
-0.72644 -0.10501 -0.77796 254 252 248
-0.72372 -0.11528 -0.77631 254 254 254
-0.67482 -0.12115 -0.80056 246 245 241
-0.66457 -0.11367 -0.84188 218 216 210
-0.66173 -0.12437 -0.84016 236 233 232
-0.66477 -0.13340 -0.77360 186 180 176
-0.64276 -0.13468 -0.80253 209 206 200
-0.63719 -0.13945 -0.79452 221 216 209
-0.62467 -0.14585 -0.79144 207 204 200
-0.62187 -0.15643 -0.78974 230 231 229
-0.61965 -0.15161 -0.77921 189 190 183
-0.61686 -0.16215 -0.77751 209 210 208
-0.61495 -0.15790 -0.76464 172 170 160
-0.59361 -0.16272 -0.78038 36 25 27
-0.59642 -0.15212 -0.78208 34 20 6
-0.59970 -0.15908 -0.78371 90 83 60
-0.59080 -0.17332 -0.77868 39 27 27
-0.58682 -0.16511 -0.78242 21 11 17
-0.58401 -0.17574 -0.78071 46 36 52
-0.58176 -0.17054 -0.77139 30 18 33
-0.57895 -0.18113 -0.76969 56 48 57
-0.51200 -0.24004 -0.63763 31 23 79
-0.50930 -0.25021 -0.63600 19 15 62
-0.50644 -0.24386 -0.63288 20 18 72
-0.50374 -0.25403 -0.63124 17 14 72
-0.50062 -0.24737 -0.62961 17 20 83
-0.49792 -0.25754 -0.62798 17 15 75
-0.49461 -0.25067 -0.62736 19 22 84
-0.49192 -0.26084 -0.62572 19 17 77
-0.48911 -0.25453 -0.62239 21 22 84
-0.46309 -0.28415 -0.55974 25 29 116
-0.47187 -0.28726 -0.56440 24 24 108
-0.46616 -0.29068 -0.56127 26 30 115
-0.46045 -0.29410 -0.55814 29 33 122
-0.44169 -0.29054 -0.57015 58 58 129
-0.43270 -0.29113 -0.58174 71 69 134
-0.42371 -0.29185 -0.59289 78 75 138
-0.38749 -0.28713 -0.66403 124 124 171
-0.34298 -0.27796 -0.76308 164 119 150
-0.33049 -0.27721 -0.78461 141 99 133
-0.32238 -0.27986 -0.78776 147 100 120
-0.31173 -0.28074 -0.80086 152 105 116
-0.30454 -0.28418 -0.79990 133 77 99
-0.29627 -0.28688 -0.80313 124 91 113
-0.28750 -0.28931 -0.80805 132 94 131
-0.27960 -0.29237 -0.80948 158 106 109
-0.27309 -0.29636 -0.80560 183 135 94
-0.26687 -0.30054 -0.80061 209 158 121
-0.25890 -0.30362 -0.80208 226 199 162
-0.25372 -0.30843 -0.79335 231 217 184
-0.23457 -0.32060 -0.78044 253 248 239
-0.23154 -0.33206 -0.77859 254 254 254
-0.22245 -0.32903 -0.76974 254 254 249
-0.21941 -0.34048 -0.76790 254 254 254
-0.21608 -0.33307 -0.76547 254 254 249
-0.21305 -0.34451 -0.76363 254 254 254
0.07237 -0.52140 -0.55364 253 252 239
0.08319 -0.52449 -0.55939 216 188 188
0.08816 -0.52861 -0.55273 202 161 165
0.09549 -0.53232 -0.55102 229 220 215
0.09847 -0.54357 -0.54921 251 250 251
0.10588 -0.53557 -0.55559 248 251 248
0.10887 -0.54686 -0.55378 251 249 251
0.29663 -0.67587 -0.36118 252 250 249
0.28701 -0.67928 -0.36629 252 251 251
0.29616 -0.67969 -0.34731 232 222 227
0.32126 -0.68327 -0.37301 148 125 192
0.31131 -0.68713 -0.34464 218 202 217
0.33504 -0.69084 -0.36782 254 253 254
0.33796 -0.70186 -0.36605 252 252 252
0.55302 -0.82945 -0.22052 249 253 254
0.56265 -0.82604 -0.21542 254 254 254
0.55939 -0.83320 -0.21722 239 251 253
0.56635 -0.83702 -0.21462 229 248 238
0.57168 -0.84067 -0.21011 215 234 208
0.57268 -0.84387 -0.20059 207 203 217
0.57501 -0.84719 -0.19269 200 167 209
0.62467 -0.86183 -0.21750 108 81 100
0.62760 -0.87289 -0.21572 88 72 50
0.63451 -0.86603 -0.21795 80 65 77
0.63745 -0.87711 -0.21617 87 74 51
0.64090 -0.86984 -0.21449 71 59 82
0.64384 -0.88093 -0.21271 89 75 63
0.65457 -0.87451 -0.21911 75 54 84
0.65752 -0.88565 -0.21731 90 76 62
0.66715 -0.88214 -0.21188 86 63 71
0.67010 -0.89328 -0.21009 93 80 63
0.77291 -0.93226 -0.19945 88 81 64
0.76641 -0.92837 -0.20302 91 82 60
0.78292 -0.92871 -0.19414 94 79 57
0.78089 -0.93637 -0.19738 88 80 66
0.79091 -0.93282 -0.19207 94 80 53
0.78390 -0.94772 -0.19556 55 43 32
-0.78553 -0.09701 -0.74479 125 117 124
-0.78031 -0.10331 -0.73083 154 154 162
-0.77418 -0.10447 -0.73627 169 176 185
-0.76763 -0.10377 -0.74879 192 182 199
-0.76496 -0.11382 -0.74718 249 240 244
-0.76135 -0.10480 -0.75486 214 201 216
-0.75450 -0.10350 -0.76999 233 228 236
-0.75180 -0.11367 -0.76835 254 254 254
-0.67784 -0.12743 -0.80465 253 253 252
-0.68711 -0.13072 -0.80957 254 254 254
-0.68108 -0.13433 -0.80627 254 254 254
-0.67506 -0.13794 -0.80296 254 254 253
-0.67168 -0.13069 -0.80277 247 246 245
-0.65961 -0.13789 -0.79624 234 230 227
-0.65682 -0.14841 -0.79455 254 254 252
-0.65345 -0.14122 -0.79411 239 238 234
-0.65067 -0.15174 -0.79242 254 254 254
-0.64762 -0.14529 -0.78890 245 245 244
-0.64483 -0.15580 -0.78721 254 254 254
-0.64177 -0.14931 -0.78390 251 249 246
-0.63899 -0.15981 -0.78221 254 254 254
-0.63494 -0.15118 -0.78791 252 251 246
-0.63215 -0.16172 -0.78622 254 254 253
-0.62939 -0.15584 -0.78022 246 245 241
-0.61329 -0.17051 -0.75382 181 183 179
-0.61651 -0.17737 -0.75542 220 221 220
-0.60352 -0.16706 -0.78092 141 141 135
-0.60072 -0.17764 -0.77922 138 134 130
-0.59715 -0.17016 -0.77994 86 79 76
-0.59434 -0.18075 -0.77824 76 71 65
-0.51647 -0.24832 -0.63154 32 19 73
-0.45002 -0.29319 -0.57742 38 40 122
-0.45890 -0.29633 -0.58214 30 34 114
-0.45313 -0.29979 -0.57897 33 38 114
-0.43378 -0.29598 -0.59271 62 64 128
-0.42355 -0.29569 -0.60948 72 70 130
-0.38880 -0.29251 -0.67415 112 114 138
-0.37650 -0.29127 -0.69747 130 117 155
-0.35504 -0.28317 -0.75880 122 82 111
-0.34445 -0.28377 -0.77302 122 61 74
-0.33804 -0.28761 -0.76951 127 64 92
-0.32625 -0.28755 -0.78789 169 112 116
-0.32322 -0.29386 -0.77053 206 157 126
-0.31265 -0.29483 -0.78344 215 170 151
-0.30570 -0.29839 -0.78174 216 196 165
-0.29756 -0.30117 -0.78460 224 212 189
-0.28772 -0.30288 -0.79379 233 221 192
-0.28092 -0.30663 -0.79120 241 232 193
-0.27345 -0.30996 -0.79108 248 239 213
-0.27042 -0.32138 -0.78924 254 254 253
-0.26500 -0.31272 -0.79447 253 248 236
-0.26197 -0.32417 -0.79263 254 254 254
-0.25534 -0.31481 -0.80209 254 253 244
-0.25229 -0.32631 -0.80024 254 254 254
-0.25243 -0.32093 -0.78523 254 254 248
-0.24940 -0.33237 -0.78339 254 254 254
0.06164 -0.52505 -0.55705 251 249 252
0.05867 -0.51386 -0.55885 251 250 251
0.05521 -0.52121 -0.56058 251 249 251
0.05175 -0.52856 -0.56230 251 249 251
0.05818 -0.53240 -0.55878 251 249 251
0.06876 -0.52878 -0.55504 252 240 213
0.08347 -0.53618 -0.55188 232 216 188
0.08644 -0.54741 -0.55008 251 250 251
0.09165 -0.53976 -0.55200 248 251 245
0.09463 -0.55101 -0.55019 251 249 251
0.29041 -0.68305 -0.35837 252 249 247
0.28081 -0.68645 -0.36346 252 251 251
0.29449 -0.68680 -0.35159 228 211 218
0.30695 -0.69426 -0.34476 211 209 231
0.50869 -0.81062 -0.24971 254 254 254
0.51833 -0.80720 -0.24460 254 254 254
0.51355 -0.81425 -0.24453 253 254 254
0.52318 -0.81084 -0.23942 254 254 254
0.52403 -0.82156 -0.23517 236 250 250
0.52938 -0.82522 -0.23064 224 245 232
0.53487 -0.82889 -0.22631 206 224 203
0.53865 -0.83239 -0.21992 202 194 215
0.55931 -0.83757 -0.23371 191 157 200
0.57386 -0.84219 -0.24003 165 121 161
0.59211 -0.85036 -0.23961 93 71 96
0.59504 -0.86144 -0.23783 87 71 58
0.59900 -0.85423 -0.23675 76 56 89
0.60194 -0.86531 -0.23497 87 73 58
0.60577 -0.85808 -0.23373 74 54 95
0.60870 -0.86917 -0.23195 88 75 63
0.63149 -0.87029 -0.23080 87 69 63
0.63444 -0.88142 -0.22901 92 81 57
0.75782 -0.93212 -0.20979 80 77 45
0.76132 -0.92467 -0.20804 92 81 58
0.87594 -0.98265 -0.21553 25 19 24
0.87902 -0.99430 -0.21365 21 19 11
-0.79529 -0.10631 -0.72613 127 116 130
-0.79791 -0.09643 -0.72772 88 87 97
-0.80096 -0.10292 -0.72924 97 88 101
-0.80402 -0.10941 -0.73076 126 117 124
-0.78927 -0.10759 -0.73105 161 159 172
-0.78346 -0.11032 -0.73052 176 181 194
-0.77706 -0.10996 -0.74183 191 193 207
-0.77441 -0.11996 -0.74022 250 248 250
-0.77092 -0.11131 -0.74670 226 214 229
-0.75794 -0.11157 -0.76614 254 254 251
-0.76108 -0.11823 -0.76770 254 254 254
-0.75526 -0.12172 -0.76451 254 254 254
-0.66841 -0.13997 -0.80618 254 254 252
-0.67771 -0.14327 -0.81112 254 254 254
-0.67166 -0.14689 -0.80780 254 254 254
-0.66562 -0.15051 -0.80449 254 254 254
-0.66243 -0.14376 -0.80218 254 254 250
-0.65964 -0.15429 -0.80048 254 254 254
-0.62719 -0.16756 -0.77333 251 251 250
-0.63645 -0.17084 -0.77824 254 254 254
-0.63043 -0.17444 -0.77494 254 254 254
-0.62049 -0.16982 -0.77586 241 242 240
-0.61146 -0.18271 -0.74445 180 179 185
-0.52021 -0.24511 -0.66700 74 72 82
-0.52929 -0.24833 -0.67181 84 85 93
-0.51873 -0.25393 -0.63815 36 27 79
-0.51263 -0.25711 -0.63649 20 15 66
-0.50680 -0.26060 -0.63329 18 15 67
-0.50994 -0.26728 -0.63486 17 18 66
-0.44345 -0.29978 -0.59419 41 43 117
-0.45241 -0.30295 -0.59894 31 36 107
-0.42488 -0.30086 -0.61949 67 65 122
-0.37923 -0.29787 -0.70165 125 108 115
-0.36243 -0.29347 -0.74358 124 86 82
-0.34978 -0.29251 -0.76680 153 102 94
-0.34396 -0.29675 -0.76096 204 163 154
-0.33453 -0.29838 -0.76997 233 216 196
-0.31866 -0.30398 -0.77509 253 244 233
-0.31569 -0.31522 -0.77328 254 254 254
-0.31285 -0.30827 -0.76904 254 251 239
-0.30988 -0.31949 -0.76723 254 254 254
-0.30481 -0.31107 -0.77175 254 253 243
-0.30183 -0.32233 -0.76994 254 254 254
-0.29128 -0.31039 -0.79536 254 253 245
-0.28827 -0.32178 -0.79353 254 254 254
-0.28346 -0.31349 -0.79668 254 254 245
-0.28043 -0.32491 -0.79484 254 254 254
0.06492 -0.53620 -0.55593 253 251 240
0.05503 -0.53970 -0.56118 251 249 251
0.06146 -0.54355 -0.55766 251 249 251
0.06788 -0.54740 -0.55413 251 249 251
0.07270 -0.53983 -0.55531 254 252 214
0.07567 -0.55104 -0.55351 251 249 251
0.07962 -0.54361 -0.55280 253 252 239
0.08259 -0.55483 -0.55100 251 249 251
0.28370 -0.69020 -0.35477 252 248 243
0.27413 -0.69359 -0.35985 252 251 251
0.28890 -0.69392 -0.34975 224 207 192
0.30820 -0.70142 -0.35353 206 231 235
0.31108 -0.71232 -0.35177 253 253 253
0.31835 -0.70520 -0.35607 253 253 254
0.32124 -0.71614 -0.35431 252 252 252
0.46279 -0.79490 -0.26560 254 254 254
0.45990 -0.78401 -0.26735 254 254 254
0.45654 -0.79116 -0.26902 254 254 254
0.46615 -0.78775 -0.26392 254 254 254
0.47239 -0.79149 -0.26050 254 254 254
0.47502 -0.80236 -0.25842 251 254 254
0.48462 -0.79895 -0.25332 254 254 254
0.48314 -0.80625 -0.25739 242 252 254
0.48875 -0.80994 -0.25315 231 248 249
0.49641 -0.81381 -0.25151 217 239 231
0.50342 -0.82079 -0.23781 199 176 214
0.51976 -0.82863 -0.23574 156 108 150
0.54438 -0.83419 -0.25470 119 87 104
0.54730 -0.84522 -0.25293 87 73 56
0.55044 -0.83795 -0.25091 71 75 76
0.55336 -0.84898 -0.24914 87 73 50
0.56450 -0.84568 -0.24565 71 57 81
0.67723 -0.90200 -0.22338 93 81 59
0.67079 -0.89815 -0.22690 91 81 61
0.68712 -0.89850 -0.21813 93 81 60
0.68020 -0.91322 -0.22157 70 58 40
0.73405 -0.92480 -0.23193 76 68 39
0.73103 -0.91341 -0.23377 96 80 63
0.72752 -0.92089 -0.23552 82 74 54
0.73757 -0.91732 -0.23018 93 81 57
0.75484 -0.93376 -0.23287 51 45 33
0.75787 -0.94520 -0.23104 27 22 16
0.76890 -0.94176 -0.22665 35 32 30
0.77193 -0.95321 -0.22481 27 20 26
-0.79817 -0.11165 -0.73205 159 159 167
-0.80691 -0.11475 -0.73669 151 152 161
-0.79555 -0.12155 -0.73046 206 209 220
-0.79222 -0.11338 -0.73535 182 185 199
-0.78635 -0.11582 -0.73599 202 207 215
-0.77995 -0.11543 -0.74762 230 230 235
-0.77729 -0.12544 -0.74601 254 254 254
-0.62465 -0.17851 -0.76962 253 253 252
-0.63390 -0.18179 -0.77453 254 254 254
-0.62788 -0.18539 -0.77123 254 254 254
-0.61786 -0.18063 -0.77285 246 246 243
-0.61508 -0.19115 -0.77116 242 243 242
-0.61227 -0.18507 -0.76588 217 216 219
-0.61014 -0.19569 -0.73126 172 169 170
-0.60293 -0.19701 -0.73804 118 115 105
-0.59375 -0.19376 -0.73317 63 53 64
-0.59696 -0.20059 -0.73477 76 62 70
-0.52302 -0.25141 -0.67079 86 86 96
-0.53210 -0.25463 -0.67561 82 83 93
-0.52620 -0.25817 -0.67237 89 89 98
-0.52012 -0.25852 -0.64996 53 51 84
-0.41558 -0.30576 -0.64769 76 74 121
-0.40565 -0.30619 -0.66200 88 81 126
-0.38358 -0.30573 -0.69887 129 116 136
-0.36500 -0.30006 -0.74881 186 161 152
-0.35711 -0.30269 -0.75200 222 209 187
-0.34508 -0.30237 -0.77236 248 239 226
-0.33653 -0.30469 -0.77769 254 253 246
-0.33356 -0.31590 -0.77588 254 254 254
-0.33004 -0.30850 -0.77440 254 254 248
-0.32707 -0.31971 -0.77260 254 254 254
0.28163 -0.70101 -0.34525 229 211 188
0.29373 -0.70478 -0.35106 139 117 129
0.30332 -0.70855 -0.35286 216 247 247
0.30620 -0.71944 -0.35111 253 252 252
0.41477 -0.77913 -0.27805 254 254 254
0.41190 -0.76830 -0.27979 254 254 254
0.40856 -0.77541 -0.28145 254 254 254
0.41812 -0.77202 -0.27638 254 254 254
0.42433 -0.77574 -0.27298 254 254 254
0.42409 -0.78306 -0.27883 254 254 254
0.43366 -0.77967 -0.27375 254 254 254
0.44103 -0.79085 -0.27798 248 253 254
0.45063 -0.78744 -0.27289 254 254 254
0.44862 -0.79469 -0.27635 238 251 253
0.45541 -0.79848 -0.27362 226 246 247
0.45943 -0.80204 -0.26727 213 232 231
0.46511 -0.80573 -0.26312 203 198 220
0.49339 -0.81461 -0.27650 171 123 165
0.49631 -0.82561 -0.27473 87 67 77
0.49971 -0.81839 -0.27304 144 106 135
0.50262 -0.82939 -0.27127 89 69 71
0.54059 -0.83824 -0.26719 85 57 79
0.54352 -0.84932 -0.26541 91 79 63
0.56564 -0.85343 -0.25281 89 76 52
0.55587 -0.85689 -0.25799 97 81 61
0.56222 -0.86070 -0.25451 95 82 61
0.56858 -0.86450 -0.25103 92 83 68
0.57313 -0.85736 -0.25067 89 78 57
0.57606 -0.86844 -0.24889 90 82 63
0.64099 -0.89002 -0.24204 89 81 54
0.63456 -0.88617 -0.24557 93 81 58
0.65088 -0.88652 -0.23679 92 81 57
0.65995 -0.89854 -0.24182 87 81 49
0.66988 -0.89502 -0.23655 92 81 59
0.67137 -0.90307 -0.24380 83 79 54
0.67417 -0.90645 -0.23619 79 75 46
0.68611 -0.91108 -0.23866 76 67 36
0.72361 -0.92234 -0.25818 59 51 45
0.73374 -0.91875 -0.25281 84 79 56
0.73046 -0.92633 -0.25486 49 41 44
0.74052 -0.93078 -0.25498 39 32 30
0.74357 -0.94228 -0.25313 27 20 11
-0.80112 -0.11742 -0.73641 177 183 194
-0.80987 -0.12052 -0.74105 167 171 187
-0.79850 -0.12733 -0.73481 236 235 241
-0.78911 -0.12047 -0.74486 236 237 241
-0.78646 -0.13045 -0.74326 254 254 254
-0.78313 -0.12248 -0.74727 251 252 251
-0.78048 -0.13249 -0.74566 254 254 254
-0.62404 -0.19314 -0.74937 253 253 252
-0.63322 -0.19639 -0.75424 254 254 254
-0.62725 -0.19996 -0.75097 254 254 254
-0.61093 -0.19815 -0.75249 204 204 209
-0.60870 -0.20833 -0.71917 150 146 146
-0.60597 -0.21863 -0.71751 119 110 121
-0.59880 -0.20509 -0.74702 89 79 88
-0.58958 -0.20182 -0.74213 71 66 74
-0.51751 -0.25842 -0.68557 79 74 86
-0.52666 -0.26167 -0.69042 88 87 95
-0.51582 -0.26690 -0.65756 33 23 74
-0.43404 -0.30820 -0.64056 46 47 113
-0.44320 -0.31145 -0.64542 38 41 110
-0.43725 -0.31501 -0.64216 44 46 114
-0.42505 -0.30923 -0.65143 60 61 115
-0.41602 -0.31035 -0.66205 72 75 115
-0.40663 -0.31129 -0.67389 84 81 120
-0.36828 -0.30720 -0.75106 189 178 182
-0.35994 -0.30952 -0.75619 231 215 226
-0.35016 -0.31086 -0.76719 246 238 232
-0.34207 -0.31350 -0.77077 253 254 253
-0.33911 -0.32466 -0.76898 254 254 254
0.27181 -0.70438 -0.34985 252 246 241
0.26228 -0.70776 -0.35491 253 251 251
0.27911 -0.70811 -0.34820 231 199 179
0.28869 -0.71188 -0.35009 175 127 110
0.29763 -0.71565 -0.35091 229 250 253
0.30050 -0.72651 -0.34916 253 252 252
0.38266 -0.76777 -0.29995 254 254 254
0.37979 -0.75693 -0.30170 254 254 254
0.37644 -0.76405 -0.30336 254 254 254
0.38601 -0.76065 -0.29829 254 254 254
0.39223 -0.76438 -0.29488 254 254 254
0.38631 -0.77134 -0.29294 254 254 254
0.39586 -0.76795 -0.28787 254 254 254
0.38900 -0.77483 -0.28464 251 253 254
0.39853 -0.77145 -0.27959 254 254 254
0.40214 -0.78230 -0.27889 233 249 245
0.41952 -0.79009 -0.27885 208 220 209
0.42740 -0.79394 -0.27767 203 182 218
0.43441 -0.79774 -0.27531 190 142 201
0.46084 -0.80312 -0.29871 164 117 160
0.45412 -0.80581 -0.27804 129 94 126
0.45702 -0.81673 -0.27628 86 71 66
0.47403 -0.81074 -0.29247 93 73 97
0.47695 -0.82177 -0.29069 84 73 58
0.48073 -0.81457 -0.28949 65 59 85
0.48365 -0.82560 -0.28771 85 75 66
0.48799 -0.81844 -0.28722 64 52 95
0.49091 -0.82948 -0.28544 88 76 71
0.62633 -0.88989 -0.25274 79 78 43
0.62980 -0.88253 -0.25101 91 81 61
0.62287 -0.89726 -0.25446 39 37 39
0.63443 -0.89397 -0.25111 76 73 43
0.63741 -0.90520 -0.24930 39 28 36
0.64324 -0.89815 -0.25026 72 64 43
0.68774 -0.91327 -0.26770 43 39 33
0.69077 -0.92470 -0.26586 28 26 23
0.70853 -0.92223 -0.26897 37 32 18
0.71157 -0.93371 -0.26712 31 24 19
0.71875 -0.92670 -0.26933 41 32 28
0.72180 -0.93822 -0.26748 31 24 23
0.74217 -0.93912 -0.26234 29 23 17
0.74523 -0.95066 -0.26048 31 22 16
-0.79202 -0.12601 -0.75038 252 251 253
-0.79511 -0.13258 -0.75191 254 254 254
-0.78938 -0.13601 -0.74877 254 254 254
-0.67972 -0.16469 -0.79390 244 246 250
-0.68572 -0.16110 -0.79719 233 238 245
-0.67649 -0.15782 -0.79229 253 254 254
-0.67049 -0.16142 -0.78900 254 254 254
-0.67372 -0.16828 -0.79061 252 253 254
-0.62169 -0.20428 -0.74428 251 251 251
-0.63085 -0.20753 -0.74914 254 254 254
-0.62490 -0.21110 -0.74587 254 253 253
-0.61894 -0.21466 -0.74261 242 241 243
-0.61591 -0.20816 -0.73958 231 230 235
-0.61152 -0.21446 -0.72368 177 174 185
-0.51827 -0.26237 -0.70172 92 87 89
-0.52749 -0.26564 -0.70661 88 86 98
-0.51314 -0.26695 -0.69336 50 49 80
-0.45596 -0.28674 -0.71516 31 34 101
-0.45878 -0.27609 -0.71687 28 32 95
-0.46207 -0.28308 -0.71851 33 34 103
-0.45267 -0.27975 -0.71352 27 31 95
-0.44656 -0.28341 -0.71017 21 27 92
-0.45314 -0.29739 -0.71345 29 44 111
-0.45577 -0.29586 -0.68194 20 32 96
-0.44650 -0.29258 -0.67702 28 32 98
-0.45331 -0.30270 -0.66088 28 34 100
-0.45055 -0.31311 -0.65920 42 45 114
-0.42472 -0.31316 -0.66967 56 60 115
-0.43401 -0.31646 -0.67460 42 48 113
-0.41620 -0.31478 -0.67781 68 73 114
-0.40841 -0.31706 -0.68231 79 77 119
-0.39909 -0.31823 -0.69344 89 82 129
-0.39157 -0.32086 -0.69621 99 97 136
-0.36655 -0.31907 -0.74416 190 175 204
-0.35775 -0.32109 -0.75129 219 211 214
-0.34887 -0.32313 -0.75846 246 248 251
0.26683 -0.71144 -0.34888 245 238 234
0.27464 -0.71518 -0.34806 212 175 168
0.28001 -0.71887 -0.34337 206 151 121
0.29015 -0.72268 -0.34615 242 253 254
0.29302 -0.73350 -0.34441 253 251 251
0.35365 -0.75654 -0.32664 254 253 254
0.35076 -0.74565 -0.32839 253 253 253
0.34740 -0.75280 -0.33007 253 253 254
0.35701 -0.74939 -0.32497 253 253 253
0.36326 -0.75313 -0.32154 253 253 253
0.36198 -0.76040 -0.32625 253 254 254
0.37161 -0.75698 -0.32114 254 253 254
0.37016 -0.76425 -0.32559 248 253 254
0.37980 -0.76084 -0.32047 254 254 254
0.37433 -0.76788 -0.31914 239 250 253
0.39254 -0.77575 -0.32033 214 232 214
0.39323 -0.77914 -0.30902 205 204 211
0.40582 -0.78664 -0.30226 175 131 173
0.41213 -0.79039 -0.29890 147 107 139
0.43059 -0.79509 -0.31215 109 85 93
0.43350 -0.80610 -0.31038 87 72 54
0.44005 -0.79912 -0.31297 80 75 78
0.44298 -0.81016 -0.31119 87 72 59
0.44691 -0.80296 -0.31021 70 59 95
0.44984 -0.81400 -0.30843 88 72 63
0.45404 -0.80682 -0.30779 75 50 102
0.45697 -0.81787 -0.30602 89 75 67
0.46010 -0.81059 -0.30394 83 56 93
0.46302 -0.82164 -0.30217 91 79 70
0.46715 -0.81445 -0.30142 87 66 82
0.47008 -0.82551 -0.29964 92 81 64
0.55410 -0.86129 -0.27298 92 83 73
0.54771 -0.85747 -0.27648 94 81 63
0.56686 -0.86895 -0.26595 87 80 54
0.56981 -0.88008 -0.26416 49 42 42
0.57137 -0.87254 -0.26019 83 78 65
0.57432 -0.88366 -0.25840 42 35 42
0.57987 -0.87663 -0.25921 79 74 51
0.58282 -0.88776 -0.25742 35 30 33
0.59840 -0.88200 -0.27010 76 67 44
0.60138 -0.89323 -0.26829 37 29 29
0.60395 -0.88574 -0.26551 70 59 44
0.60693 -0.89697 -0.26371 35 28 28
0.65704 -0.90493 -0.28277 34 34 38
0.66006 -0.91635 -0.28093 28 20 25
0.66816 -0.91250 -0.27333 39 29 35
0.66463 -0.91999 -0.27508 30 21 23
0.67118 -0.92391 -0.27149 29 22 19
0.67871 -0.91699 -0.27426 35 26 30
0.68174 -0.92843 -0.27242 24 23 18
0.68369 -0.92069 -0.26888 28 26 21
0.68672 -0.93212 -0.26704 26 26 17
-0.80100 -0.13012 -0.75117 248 249 252
-0.80672 -0.12669 -0.75431 225 226 235
-0.80408 -0.13667 -0.75270 253 253 254
-0.79835 -0.14010 -0.74956 254 254 254
-0.72287 -0.16275 -0.76109 237 238 244
-0.72558 -0.15254 -0.76273 253 254 254
-0.73188 -0.16595 -0.76587 227 226 238
-0.71972 -0.15605 -0.75952 252 254 254
-0.72602 -0.16945 -0.76266 202 203 223
-0.71701 -0.16626 -0.75788 222 223 240
-0.71096 -0.16921 -0.75709 212 214 238
-0.70781 -0.16249 -0.75551 242 245 251
-0.70470 -0.17158 -0.75876 215 220 235
-0.69566 -0.16838 -0.75397 227 233 244
-0.69882 -0.17510 -0.75554 215 220 236
-0.69142 -0.17455 -0.77009 219 222 236
-0.68373 -0.17357 -0.78666 230 232 243
-0.68097 -0.18399 -0.78498 246 247 248
-0.67761 -0.17678 -0.78503 249 249 251
-0.66840 -0.17352 -0.78015 254 254 254
-0.67162 -0.18036 -0.78175 254 254 254
-0.67484 -0.18720 -0.78335 254 254 254
-0.61535 -0.22235 -0.72002 191 191 204
-0.61853 -0.22910 -0.72160 183 185 207
-0.60911 -0.22532 -0.71946 144 133 147
-0.60021 -0.22395 -0.73954 101 97 105
-0.52039 -0.26795 -0.70995 95 92 97
-0.52964 -0.27122 -0.71485 91 87 99
-0.52363 -0.27482 -0.71156 99 91 103
-0.51515 -0.27242 -0.70211 75 74 81
-0.51019 -0.27716 -0.69280 36 21 76
-0.47649 -0.28165 -0.73279 17 33 101
-0.46908 -0.28406 -0.73630 22 40 116
-0.46206 -0.28691 -0.73749 34 43 120
-0.41752 -0.32017 -0.68852 62 68 113
-0.41022 -0.32289 -0.69068 74 74 116
-0.39444 -0.32757 -0.69983 92 89 129
-0.38264 -0.32715 -0.72124 121 120 146
-0.36606 -0.33174 -0.73205 184 161 168
-0.34774 -0.33544 -0.74912 253 253 253
-0.33799 -0.33198 -0.74395 254 254 254
-0.34140 -0.33924 -0.74565 254 254 254
-0.34481 -0.34649 -0.74735 254 254 254
0.25680 -0.71481 -0.35311 253 250 250
0.25395 -0.70403 -0.35484 252 250 251
0.25062 -0.71110 -0.35649 252 250 251
0.24729 -0.71818 -0.35815 253 250 251
0.26279 -0.71850 -0.34941 235 226 233
0.27109 -0.72226 -0.34939 178 145 196
0.27851 -0.72600 -0.34792 223 185 198
0.28454 -0.72971 -0.34426 252 253 254
0.30908 -0.74455 -0.33028 253 253 254
0.30621 -0.73375 -0.33201 252 252 252
0.30288 -0.74084 -0.33367 253 253 254
0.31241 -0.73746 -0.32862 252 252 252
0.31861 -0.74117 -0.32522 253 252 252
0.31654 -0.74832 -0.32879 252 254 254
0.32608 -0.74493 -0.32372 253 252 252
0.32297 -0.75204 -0.32574 244 252 254
0.33252 -0.74866 -0.32067 253 253 253
0.33191 -0.75590 -0.32641 233 250 252
0.34252 -0.75987 -0.32950 222 246 240
0.34911 -0.76362 -0.32658 212 222 217
0.35639 -0.76742 -0.32468 206 186 220
0.36919 -0.77158 -0.33075 191 149 197
0.36690 -0.77478 -0.31497 166 124 159
0.38052 -0.77902 -0.32210 136 101 120
0.38341 -0.78995 -0.32034 87 70 52
0.39141 -0.78310 -0.32522 96 79 84
0.39432 -0.79408 -0.32345 86 72 51
0.40313 -0.79058 -0.31708 69 55 89
0.40603 -0.80154 -0.31532 86 76 63
0.53635 -0.85769 -0.29128 85 81 51
0.53339 -0.84651 -0.29307 94 84 61
0.52994 -0.85385 -0.29479 87 83 54
0.52649 -0.86118 -0.29651 61 53 47
0.53980 -0.85035 -0.28956 94 83 62
0.54621 -0.85419 -0.28604 94 82 67
0.54483 -0.86177 -0.29033 83 79 51
0.55532 -0.86918 -0.28041 74 67 38
0.58456 -0.87586 -0.30474 62 53 36
-0.73909 -0.16728 -0.74847 235 236 243
-0.74490 -0.16380 -0.75165 237 241 246
-0.74802 -0.17045 -0.75321 230 233 242
-0.73597 -0.16064 -0.74691 246 247 250
-0.74222 -0.17392 -0.75002 229 231 240
-0.72215 -0.17921 -0.73243 181 182 213
-0.71948 -0.18930 -0.73081 169 170 198
-0.71636 -0.18268 -0.72926 179 180 216
-0.70888 -0.18123 -0.74759 201 205 225
-0.70145 -0.18033 -0.76368 220 225 237
-0.69507 -0.18256 -0.76623 223 225 238
-0.69234 -0.19286 -0.76458 238 239 244
-0.68859 -0.18464 -0.76945 228 230 241
-0.61338 -0.23391 -0.71228 149 141 154
-0.62243 -0.23712 -0.71708 164 166 200
-0.61655 -0.24064 -0.71386 146 138 149
-0.60650 -0.23581 -0.71688 124 124 128
-0.58988 -0.23546 -0.74671 62 58 71
-0.58064 -0.23218 -0.74180 64 62 72
-0.58387 -0.23906 -0.74341 62 61 68
-0.58710 -0.24593 -0.74502 60 61 69
-0.51833 -0.27922 -0.70404 89 83 84
-0.52755 -0.28249 -0.70894 98 92 104
-0.51159 -0.28200 -0.70508 48 38 75
-0.50337 -0.28323 -0.71450 28 19 76
-0.50058 -0.29377 -0.71281 20 20 78
-0.48795 -0.28707 -0.72646 19 25 90
-0.47743 -0.28632 -0.74735 21 40 112
-0.46883 -0.28764 -0.75708 25 51 132
-0.46241 -0.29114 -0.75488 32 56 139
-0.45568 -0.29436 -0.75424 38 60 138
-0.41829 -0.32518 -0.70191 58 66 110
-0.41201 -0.32873 -0.69925 70 70 112
-0.40478 -0.33158 -0.70088 82 76 117
-0.39701 -0.33406 -0.70482 88 84 125
-0.37787 -0.33668 -0.72777 149 135 166
-0.36909 -0.33869 -0.73520 206 175 191
-0.36172 -0.34172 -0.73640 246 238 239
-0.35881 -0.35269 -0.73464 254 254 254
-0.35499 -0.34521 -0.73476 254 253 254
-0.35209 -0.35619 -0.73299 254 254 254
0.25309 -0.72187 -0.35414 253 249 247
0.25947 -0.72558 -0.35107 231 213 224
0.26751 -0.72934 -0.35064 162 131 200
0.27326 -0.73303 -0.34655 223 231 243
0.28034 -0.73677 -0.34457 252 254 254
0.28714 -0.74050 -0.34211 241 251 253
0.29667 -0.73712 -0.33705 253 252 252
0.29184 -0.74415 -0.33639 229 248 252
0.29778 -0.74784 -0.33263 216 241 239
0.31482 -0.75209 -0.34581 208 213 215
0.32106 -0.75583 -0.34238 204 176 221
0.32751 -0.75958 -0.33927 182 142 185
0.34723 -0.76410 -0.35601 152 121 150
0.36730 -0.76871 -0.37298 121 98 119
0.37025 -0.77984 -0.37119 87 72 53
0.35346 -0.77125 -0.33963 89 76 90
0.35636 -0.78220 -0.33787 85 73 63
0.35969 -0.77501 -0.33612 76 63 103
0.36259 -0.78596 -0.33435 87 74 67
0.36833 -0.77894 -0.33611 80 57 101
0.37124 -0.78991 -0.33435 89 77 65
0.37506 -0.78274 -0.33328 85 63 85
0.37796 -0.79371 -0.33151 91 79 67
0.38161 -0.78652 -0.33019 88 67 69
0.38451 -0.79750 -0.32843 93 82 67
0.47086 -0.83319 -0.30689 92 82 57
0.46450 -0.82938 -0.31038 93 82 61
0.48064 -0.82973 -0.30170 92 82 61
0.47755 -0.83704 -0.30383 93 82 54
0.48734 -0.83357 -0.29864 91 83 66
0.48391 -0.84085 -0.30034 85 81 55
0.48049 -0.84813 -0.30205 61 54 43
0.55354 -0.86753 -0.31891 54 43 47
0.56461 -0.87199 -0.32104 46 35 42
0.56762 -0.88336 -0.31922 29 22 32
0.56547 -0.87519 -0.31044 40 32 34
0.56847 -0.88651 -0.30862 31 26 27
0.57165 -0.87904 -0.30648 36 34 24
0.57465 -0.89036 -0.30466 32 27 24
0.58204 -0.88343 -0.30768 39 34 20
0.58505 -0.89479 -0.30586 30 29 32
-0.73716 -0.17999 -0.73561 210 212 228
-0.74027 -0.18660 -0.73716 216 218 230
-0.73108 -0.18244 -0.73685 174 179 203
-0.72841 -0.19253 -0.73523 183 179 192
-0.72503 -0.18509 -0.73726 160 163 188
-0.71279 -0.19015 -0.73922 193 193 217
-0.71010 -0.20030 -0.73759 239 241 246
-0.70532 -0.18903 -0.75657 224 227 237
-0.70261 -0.19927 -0.75493 248 249 250
-0.69903 -0.19143 -0.75835 236 238 245
-0.69632 -0.20169 -0.75670 244 243 247
-0.63028 -0.23708 -0.70352 230 231 242
-0.63298 -0.22690 -0.70516 254 254 253
-0.63612 -0.23358 -0.70672 252 252 253
-0.62758 -0.24726 -0.70188 144 143 189
-0.61028 -0.24355 -0.71365 139 141 140
-0.60118 -0.24201 -0.73546 90 90 95
-0.49041 -0.29321 -0.73272 19 24 90
-0.48098 -0.29360 -0.74771 22 40 114
-0.47179 -0.29437 -0.76081 27 55 144
-0.46416 -0.29675 -0.76500 33 63 153
-0.46129 -0.30760 -0.76326 39 73 165
-0.45678 -0.29941 -0.76769 41 71 158
-0.44979 -0.30248 -0.76812 45 72 156
-0.44311 -0.30585 -0.76690 40 56 131
-0.43659 -0.30938 -0.76474 31 48 119
-0.42696 -0.30597 -0.75963 39 48 119
-0.42373 -0.32534 -0.72604 43 46 105
-0.42087 -0.33612 -0.72431 51 51 102
-0.41454 -0.33516 -0.70447 67 66 108
-0.41170 -0.34587 -0.70275 77 75 118
-0.40802 -0.33856 -0.70283 78 74 111
-0.39995 -0.34084 -0.70818 88 83 118
-0.39209 -0.34334 -0.71234 100 96 140
-0.38201 -0.34437 -0.72601 125 123 179
-0.36791 -0.35077 -0.72609 249 252 251
-0.36502 -0.36168 -0.72434 254 254 254
0.23413 -0.71790 -0.37079 252 252 253
0.23127 -0.70710 -0.37253 251 250 251
0.22793 -0.71419 -0.37419 252 251 252
0.23746 -0.71081 -0.36913 251 250 251
0.24366 -0.71452 -0.36573 252 250 251
0.23703 -0.72153 -0.36195 253 252 253
0.24289 -0.72522 -0.35806 248 253 253
0.24946 -0.72893 -0.35531 237 247 246
0.25622 -0.73265 -0.35285 205 208 209
0.26377 -0.73640 -0.35165 147 127 171
0.26980 -0.74010 -0.34801 186 199 232
0.27699 -0.74385 -0.34620 204 171 215
0.29274 -0.74801 -0.35777 177 140 176
0.30011 -0.75181 -0.35610 143 114 146
0.31203 -0.75585 -0.36143 105 92 101
0.31493 -0.76680 -0.35967 83 69 54
0.31868 -0.75963 -0.35856 79 73 93
0.32158 -0.77058 -0.35680 82 73 67
0.32504 -0.76340 -0.35522 78 65 110
0.32794 -0.77435 -0.35346 86 75 65
0.33177 -0.76719 -0.35247 84 62 96
0.33467 -0.77814 -0.35071 89 78 73
0.33847 -0.77098 -0.34964 88 67 90
0.34137 -0.78194 -0.34788 92 80 69
0.34802 -0.77496 -0.35106 89 70 72
0.44436 -0.82547 -0.32577 91 83 66
0.45416 -0.82200 -0.32057 94 83 64
0.45668 -0.83306 -0.31822 83 80 47
0.46323 -0.83689 -0.31496 79 76 38
0.47039 -0.84079 -0.31252 75 68 37
0.55990 -0.87930 -0.32130 31 22 35
0.56291 -0.89067 -0.31947 29 23 27
-0.74677 -0.18578 -0.72875 234 237 244
-0.75561 -0.18892 -0.73344 244 246 249
-0.74987 -0.19236 -0.73029 241 244 248
-0.73414 -0.18888 -0.73919 192 190 205
-0.73726 -0.19551 -0.74074 230 228 233
-0.72250 -0.19565 -0.73360 195 191 207
-0.72562 -0.20227 -0.73515 240 238 240
-0.71983 -0.20574 -0.73197 250 247 249
-0.71545 -0.19543 -0.74699 216 213 230
-0.71276 -0.20560 -0.74536 254 254 253
-0.64123 -0.24388 -0.69073 249 249 251
-0.64391 -0.23378 -0.69236 254 254 254
-0.64703 -0.24041 -0.69391 254 254 254
-0.65015 -0.24704 -0.69546 254 254 254
-0.63450 -0.24569 -0.69570 215 216 235
-0.61893 -0.24607 -0.72193 139 130 144
-0.59558 -0.24804 -0.75579 61 53 70
-0.59280 -0.25854 -0.75411 59 57 74
-0.49393 -0.30044 -0.73301 19 22 84
-0.48534 -0.30166 -0.74353 23 39 109
-0.47493 -0.30128 -0.76356 28 56 150
-0.46687 -0.30327 -0.77016 31 65 158
-0.46399 -0.31413 -0.76841 36 71 163
-0.45302 -0.30952 -0.77050 43 75 158
-0.43626 -0.31342 -0.78514 28 43 107
-0.43335 -0.32443 -0.78337 27 33 82
-0.42508 -0.33086 -0.73727 41 40 98
-0.42221 -0.34169 -0.73553 51 52 112
-0.41625 -0.34099 -0.71360 65 64 107
-0.41957 -0.34804 -0.71525 65 71 129
-0.40032 -0.34579 -0.72329 89 91 135
-0.39084 -0.34723 -0.73456 97 107 165
-0.38490 -0.35118 -0.72978 116 124 185
-0.37659 -0.35355 -0.73537 158 158 211
-0.37161 -0.35815 -0.72633 232 241 248
0.19772 -0.70276 -0.39999 252 251 253
0.19485 -0.69192 -0.40173 251 250 251
0.19150 -0.69904 -0.40340 252 251 252
0.20107 -0.69565 -0.39832 251 250 251
0.20729 -0.69937 -0.39491 251 250 251
0.20349 -0.70648 -0.39581 253 252 253
0.21306 -0.70309 -0.39073 252 250 250
0.21139 -0.71023 -0.39528 251 252 252
0.22097 -0.70684 -0.39020 252 250 251
0.21627 -0.71394 -0.38958 243 252 252
0.22584 -0.71055 -0.38450 252 250 251
0.22461 -0.72128 -0.37586 219 240 247
0.23244 -0.72504 -0.37520 210 222 233
0.23430 -0.72862 -0.36461 207 192 220
0.24158 -0.73236 -0.36302 195 156 206
0.24934 -0.73612 -0.36219 164 130 164
0.25220 -0.74692 -0.36046 68 52 65
0.26507 -0.74023 -0.37423 111 93 115
0.26796 -0.75112 -0.37248 64 54 49
0.26870 -0.74385 -0.36659 61 52 78
0.27158 -0.75472 -0.36484 71 67 56
0.27344 -0.74751 -0.36079 67 77 111
0.27631 -0.75837 -0.35904 77 71 70
0.28105 -0.75131 -0.35957 81 68 113
0.28393 -0.76218 -0.35783 83 75 73
0.28818 -0.75509 -0.35756 87 69 101
0.29106 -0.76597 -0.35581 90 78 76
0.29912 -0.75909 -0.36149 91 67 88
0.30925 -0.76307 -0.36405 89 69 58
0.35492 -0.78625 -0.35522 93 83 63
0.34519 -0.78970 -0.36039 94 83 73
0.36124 -0.79003 -0.35176 94 84 66
0.44860 -0.83039 -0.35033 75 65 43
0.45192 -0.83392 -0.34252 69 56 45
0.45707 -0.83763 -0.33726 56 49 43
0.46433 -0.84157 -0.33488 44 43 38
0.46729 -0.85276 -0.33308 25 25 28
0.47117 -0.84546 -0.33192 36 37 31
0.47414 -0.85666 -0.33012 24 25 28
0.47985 -0.84957 -0.33141 36 35 32
0.48283 -0.86079 -0.32961 30 24 29
0.49014 -0.85387 -0.33298 43 32 34
0.49312 -0.86512 -0.33117 31 23 29
-0.73201 -0.20071 -0.72974 229 227 229
-0.74088 -0.20385 -0.73445 242 244 248
-0.73511 -0.20731 -0.73129 247 248 249
-0.64508 -0.25184 -0.68572 242 244 248
-0.63796 -0.25292 -0.69438 188 193 220
-0.62803 -0.24931 -0.72662 121 118 169
-0.62208 -0.25278 -0.72372 130 124 144
-0.61622 -0.25638 -0.72015 143 148 144
-0.61349 -0.26667 -0.71849 97 100 98
-0.53459 -0.29686 -0.70853 85 85 91
-0.54380 -0.30013 -0.71342 84 84 88
-0.52857 -0.30042 -0.70541 74 74 83
-0.52099 -0.30230 -0.71175 57 55 74
-0.51241 -0.30322 -0.72365 41 40 66
-0.50961 -0.31378 -0.72196 25 25 64
-0.49698 -0.30719 -0.73599 19 23 78
-0.48831 -0.30837 -0.74704 23 39 105
-0.47713 -0.30730 -0.77154 27 55 149
-0.46897 -0.30925 -0.77863 31 65 156
-0.46608 -0.32015 -0.77688 37 71 164
-0.45378 -0.31439 -0.78591 39 71 152
-0.44327 -0.31455 -0.80432 36 43 109
-0.43809 -0.31934 -0.79483 31 38 93
-0.42623 -0.33627 -0.74959 40 37 100
-0.41063 -0.34973 -0.72482 77 80 134
-0.40277 -0.35227 -0.72905 86 93 154
-0.39485 -0.35482 -0.73333 95 108 174
-0.38846 -0.35847 -0.73054 111 121 182
-0.37290 -0.36397 -0.73704 206 204 228
-0.36921 -0.36936 -0.72249 250 253 254
-0.35960 -0.36595 -0.71739 254 254 254
-0.36296 -0.37310 -0.71906 254 254 254
-0.36633 -0.38025 -0.72074 254 254 254
0.16057 -0.69126 -0.41379 252 251 253
0.15770 -0.68045 -0.41552 251 250 251
0.15436 -0.68754 -0.41719 252 251 253
0.16390 -0.68416 -0.41212 251 250 251
0.17011 -0.68788 -0.40872 252 250 251
0.16828 -0.69498 -0.41310 253 251 253
0.17783 -0.69159 -0.40803 252 250 251
0.18022 -0.70241 -0.40544 237 250 253
0.18644 -0.70613 -0.40205 226 247 249
0.19381 -0.70987 -0.40067 217 237 237
0.19371 -0.71347 -0.38629 212 214 228
0.23256 -0.71791 -0.43923 204 181 213
0.21865 -0.72120 -0.40104 183 152 185
0.22499 -0.72849 -0.38379 114 98 126
0.23952 -0.73251 -0.39430 89 84 106
0.24589 -0.73626 -0.39104 81 73 105
0.24879 -0.74718 -0.38929 77 68 66
0.25146 -0.73998 -0.38646 85 65 109
0.25435 -0.75090 -0.38470 75 67 57
0.25751 -0.74372 -0.38268 83 61 86
0.26040 -0.75463 -0.38092 68 57 55
0.30679 -0.77032 -0.36716 93 81 66
0.29711 -0.77375 -0.37229 94 83 75
0.30340 -0.77751 -0.36884 92 85 75
0.31475 -0.77420 -0.36630 93 83 63
0.32105 -0.77797 -0.36285 94 84 71
0.35344 -0.79364 -0.35979 91 84 75
0.36775 -0.80137 -0.35526 86 82 71
0.37750 -0.79791 -0.35008 94 83 70
0.37591 -0.80533 -0.35443 84 80 64
0.38568 -0.80186 -0.34925 92 83 71
0.38197 -0.80910 -0.35053 80 76 56
0.39174 -0.80564 -0.34535 91 84 69
0.38830 -0.81290 -0.34702 76 71 52
0.39807 -0.80944 -0.34184 90 84 62
0.39465 -0.81671 -0.34354 68 61 49
0.41675 -0.82207 -0.36245 60 53 46
0.42021 -0.81472 -0.36073 89 83 62
0.42664 -0.81857 -0.35720 86 82 63
0.42990 -0.82661 -0.36841 55 49 42
0.43984 -0.82308 -0.36314 84 80 52
0.45150 -0.83846 -0.36086 42 33 31
0.45449 -0.84973 -0.35905 30 22 21
0.45313 -0.84179 -0.35066 42 28 31
0.45611 -0.85303 -0.34886 26 23 23
0.45468 -0.84510 -0.34045 34 26 31
0.45765 -0.85629 -0.33865 27 26 20
0.46212 -0.84906 -0.33830 28 26 31
0.46509 -0.86027 -0.33650 29 27 20
-0.65464 -0.25627 -0.68409 251 252 253
-0.65731 -0.24623 -0.68571 254 254 254
-0.66041 -0.25282 -0.68725 254 254 254
-0.64846 -0.25895 -0.68481 223 227 239
-0.63984 -0.25736 -0.70709 144 146 192
-0.63714 -0.26754 -0.70546 91 88 120
-0.63264 -0.25853 -0.71571 99 95 138
-0.62535 -0.25968 -0.72456 127 127 142
-0.61949 -0.26329 -0.72093 141 146 143
-0.61677 -0.27358 -0.71927 83 81 91
-0.53847 -0.30445 -0.70598 79 81 85
-0.53206 -0.30756 -0.70538 65 68 80
-0.51472 -0.30917 -0.73095 37 35 59
-0.49983 -0.31374 -0.74018 19 23 76
-0.49324 -0.31695 -0.73953 22 35 102
-0.48057 -0.31450 -0.77271 27 54 146
-0.47180 -0.31592 -0.78325 32 65 156
-0.46891 -0.32683 -0.78149 37 69 163
-0.44583 -0.32110 -0.81049 38 47 112
-0.44105 -0.32621 -0.79888 35 40 97
-0.43812 -0.33727 -0.79710 37 47 112
-0.42031 -0.35322 -0.72917 63 73 143
-0.41275 -0.35596 -0.73216 73 77 140
-0.40638 -0.35957 -0.72948 81 83 152
-0.39910 -0.36258 -0.73091 88 92 161
-0.39254 -0.36609 -0.72898 100 103 169
-0.38665 -0.37004 -0.72406 94 102 172
-0.37836 -0.37247 -0.72965 166 153 197
-0.37346 -0.37705 -0.72038 239 249 254
-0.37057 -0.38793 -0.71863 254 254 254
0.11932 -0.67987 -0.41937 252 251 253
0.11647 -0.66913 -0.42110 251 249 251
0.11315 -0.67618 -0.42275 251 250 253
0.12263 -0.67282 -0.41772 251 249 251
0.12879 -0.67651 -0.41434 252 249 251
0.12637 -0.68355 -0.41767 251 252 253
0.13585 -0.68019 -0.41264 252 250 251
0.13561 -0.68723 -0.42003 243 251 253
0.14512 -0.68385 -0.41499 252 250 252
0.14397 -0.69093 -0.42067 231 247 253
0.15182 -0.69464 -0.42031 221 245 244
0.15794 -0.69836 -0.41675 215 226 224
0.16670 -0.70210 -0.41796 213 184 231
0.17371 -0.70584 -0.41598 197 162 206
0.17659 -0.71669 -0.41424 96 73 102
0.18847 -0.71334 -0.41323 135 121 142
0.19136 -0.72422 -0.41148 83 66 61
0.18189 -0.71679 -0.38727 107 100 118
0.20877 -0.72102 -0.42000 89 86 115
0.21636 -0.72482 -0.41882 85 76 117
0.21927 -0.73579 -0.41706 81 74 74
0.22316 -0.72861 -0.41623 88 71 106
0.22606 -0.73958 -0.41447 87 78 70
0.22548 -0.73224 -0.40601 89 69 87
0.22838 -0.74317 -0.40425 89 78 64
