ply
format ascii 1.0
element face 0
property list uchar int vertex_indices
element vertex 1316
property float x
property float y
property float z
property uchar diffuse_red
property uchar diffuse_green
property uchar diffuse_blue
end_header
1.70553 0.01888 -0.67100 169 126 163
1.69617 0.01959 -0.68513 140 126 157
1.69975 0.00882 -0.65718 184 145 182
1.77460 -0.00694 -0.67910 244 251 251
1.79000 -0.01390 -0.67960 244 252 254
2.00012 -0.05183 -0.74789 238 236 235
1.99639 -0.06990 -0.74641 201 178 177
2.01811 -0.05943 -0.74906 236 219 210
2.02318 -0.06867 -0.74175 230 196 178
2.03092 -0.07762 -0.73616 227 178 161
1.14547 -0.57567 0.25903 9 10 22
1.13852 -0.57514 0.24853 15 14 7
1.16051 -0.58286 0.25895 71 73 84
1.16191 -0.58926 0.26511 107 103 91
1.16365 -0.59568 0.27110 55 56 42
1.53696 -0.81319 0.31120 11 10 29
1.52903 -0.81259 0.29923 26 21 16
1.52987 -0.81915 0.32129 119 110 135
1.58825 -0.83447 0.30745 227 248 250
1.59632 -0.83509 0.31963 253 254 254
1.59081 -0.84192 0.31413 253 254 254
1.58531 -0.84875 0.30862 253 254 254
3.33027 -1.29097 -0.10601 79 58 63
3.33504 -1.26787 -0.10790 141 122 95
3.32613 -1.27892 -0.11681 127 89 80
3.31722 -1.28997 -0.12572 133 73 71
3.34523 -1.30510 -0.09858 49 36 49
3.53140 -1.41107 -0.08128 72 70 79
3.61033 -1.43928 -0.09192 121 129 135
3.66686 -1.46309 -0.09566 167 173 174
2.87305 -1.84981 0.73224 161 161 179
2.86956 -1.83965 0.72312 159 158 172
2.88057 -1.84049 0.73975 160 159 173
2.86903 -1.86929 0.73384 184 197 215
2.86523 -1.85596 0.74291 169 174 196
2.84560 -1.85784 0.75512 183 193 211
2.84718 -1.86724 0.76441 188 193 213
2.86267 -1.88165 0.77187 159 157 189
2.87037 -1.89329 0.78038 117 111 147
2.86637 -1.91268 0.78197 74 75 90
2.88289 -1.90671 0.78831 82 85 108
2.89383 -1.91959 0.79648 77 77 91
2.85989 -1.94214 0.83835 70 69 75
2.85247 -1.95135 0.83093 64 65 62
2.80860 -1.95717 0.88113 94 99 95
2.80470 -1.97609 0.88269 99 100 104
2.96401 -2.07901 0.93147 127 128 137
2.95296 -2.07817 0.91478 104 103 112
0.73349 0.37629 -0.56376 155 191 239
0.73104 0.36442 -0.56278 172 210 253
0.83222 0.26619 -0.49701 121 146 235
0.83004 0.27256 -0.50272 135 170 246
0.82533 0.26672 -0.50742 103 118 208
0.83912 0.26567 -0.48659 150 187 249
0.83441 0.25983 -0.49130 112 126 212
0.82970 0.25399 -0.49600 141 161 224
1.21276 0.13319 -0.55360 160 192 254
1.21567 0.14727 -0.55475 166 196 253
1.21024 0.14053 -0.56018 162 192 254
1.21820 0.13993 -0.54817 165 196 253
1.22072 0.13258 -0.54159 166 197 254
1.23515 0.12272 -0.55408 150 181 248
1.23996 0.11587 -0.54922 138 165 238
1.28704 0.11899 -0.57732 116 141 215
1.25064 0.10236 -0.54028 94 114 194
1.26627 0.09795 -0.54373 72 82 165
1.26332 0.08364 -0.54256 38 36 67
1.31693 0.06868 -0.53881 46 39 56
1.32582 0.05428 -0.52797 46 34 62
1.32021 0.04731 -0.53358 57 34 49
1.29935 0.04079 -0.49953 59 67 147
1.32475 0.03784 -0.50969 77 95 184
1.31621 0.02808 -0.49470 85 76 103
1.33363 0.02340 -0.49880 90 59 48
1.31114 0.01107 -0.47370 65 35 39
1.33367 0.00727 -0.48145 73 65 75
1.35278 0.00272 -0.48658 126 133 149
1.34976 -0.01189 -0.48538 149 119 116
1.37161 -0.00199 -0.49140 161 153 161
1.37992 -0.00262 -0.47885 234 227 226
1.37425 -0.00966 -0.48452 187 171 168
1.36858 -0.01669 -0.49019 142 110 112
1.70288 -0.00667 -0.66036 213 211 212
1.69946 -0.02321 -0.65900 229 215 203
1.73480 -0.01085 -0.67262 213 206 208
1.75476 -0.01702 -0.67646 215 202 203
1.76460 -0.02479 -0.67325 216 200 211
1.78830 -0.03061 -0.67943 211 195 204
1.86029 -0.03926 -0.70792 201 191 203
2.02291 -0.05677 -0.77449 198 182 191
2.02650 -0.07614 -0.75550 207 176 168
2.02274 -0.09436 -0.75400 241 221 189
2.02868 -0.08577 -0.74627 218 177 161
2.02492 -0.10398 -0.74478 246 228 192
1.59048 -0.18689 -0.40715 214 201 147
1.59369 -0.17132 -0.40843 83 52 13
1.58769 -0.17877 -0.41443 219 187 117
1.58168 -0.18622 -0.42044 252 236 200
1.59649 -0.17944 -0.40115 96 95 63
1.59928 -0.18756 -0.39386 129 131 113
1.59715 -0.19465 -0.40230 175 167 150
1.59995 -0.20278 -0.39500 85 66 68
1.60851 -0.21042 -0.39128 57 29 20
1.61454 -0.20294 -0.38525 55 41 33
1.61734 -0.21109 -0.37794 57 44 36
1.61131 -0.21857 -0.38397 54 42 36
1.14581 -0.58186 0.25194 8 10 22
1.13885 -0.58133 0.24142 14 13 6
1.15902 -0.59530 0.25948 110 102 83
1.16765 -0.60219 0.26237 58 57 34
1.19175 -0.61022 0.25836 26 18 25
1.18917 -0.62275 0.25939 17 15 17
1.53072 -0.81979 0.30610 12 10 46
1.52279 -0.81918 0.29413 25 20 11
1.54203 -0.82837 0.30940 147 124 186
1.56834 -0.83919 0.30724 236 250 252
1.56541 -0.85339 0.30841 254 254 254
3.33539 -1.31600 -0.10722 53 19 17
3.53082 -1.42438 -0.09312 76 75 86
3.60340 -1.45147 -0.10205 122 127 136
3.65639 -1.47467 -0.10488 164 169 171
3.66081 -1.48753 -0.09336 182 184 184
3.67474 -1.48859 -0.07234 186 186 189
3.66523 -1.50038 -0.08184 184 185 186
3.65572 -1.51216 -0.09134 183 184 182
2.86828 -1.85117 0.71471 164 161 186
2.87231 -1.83166 0.71311 160 158 171
2.86478 -1.84100 0.70558 159 158 178
2.85725 -1.85033 0.69806 165 169 194
2.85568 -1.85563 0.72613 173 181 205
2.84736 -1.87040 0.74641 177 181 200
2.83989 -1.87966 0.73894 129 123 151
2.84336 -1.88976 0.74800 96 91 112
2.85221 -1.88100 0.75528 142 137 169
2.86776 -1.89550 0.76273 102 99 131
2.88064 -1.90907 0.77059 80 77 95
2.87662 -1.92854 0.77219 93 92 86
2.89835 -1.93336 0.78746 82 81 97
2.89896 -1.94247 0.79695 89 89 95
2.90246 -1.95264 0.80607 87 90 88
2.89562 -1.95891 0.81642 78 78 77
2.88811 -1.96822 0.80892 73 64 79
2.84514 -1.95726 0.84115 69 75 71
2.84118 -1.97644 0.84273 91 94 96
2.96096 -2.09018 0.92352 126 126 133
2.94990 -2.08933 0.90682 104 104 109
2.95765 -2.09762 0.93328 143 144 149
2.96869 -2.09846 0.94995 154 149 150
2.96729 -2.11031 0.94189 158 154 155
2.97835 -2.11116 0.95859 137 126 131
2.96325 -2.12988 0.94350 135 121 128
0.74307 0.38411 -0.59043 168 197 248
0.73630 0.38463 -0.60064 172 208 253
0.73845 0.37838 -0.59505 173 207 253
0.74059 0.37214 -0.58945 172 209 253
0.74055 0.37579 -0.58011 172 208 253
0.73808 0.36385 -0.57913 171 210 252
0.90358 0.34070 -0.62887 163 203 254
0.90622 0.35349 -0.62992 171 205 252
0.90128 0.34737 -0.63485 165 204 254
0.90851 0.34682 -0.62394 171 203 252
0.91080 0.34015 -0.61796 170 202 253
1.16988 0.14077 -0.55457 156 186 254
1.17275 0.15466 -0.55571 161 189 254
1.16739 0.14802 -0.56107 157 186 254
1.17524 0.14742 -0.54922 161 190 254
1.17773 0.14017 -0.54272 161 191 254
1.17303 0.13369 -0.54861 154 186 253
1.21102 0.11940 -0.55336 121 148 224
1.23611 0.11749 -0.56464 102 123 204
1.24076 0.11057 -0.55964 78 90 172
1.26787 0.10889 -0.57224 60 61 132
1.32062 0.03118 -0.51638 120 132 172
1.31124 0.02129 -0.50072 129 111 118
1.31807 0.01455 -0.49708 128 94 83
1.31839 0.00657 -0.48863 121 82 68
1.31540 -0.00789 -0.48745 221 201 163
1.31898 -0.00134 -0.48041 121 84 73
1.31599 -0.01580 -0.47922 227 199 160
1.34097 -0.00538 -0.48773 144 109 107
1.33796 -0.01995 -0.48653 186 155 143
1.74732 -0.02521 -0.68228 232 216 203
1.73783 -0.02448 -0.69663 254 251 242
1.74084 -0.03325 -0.68877 254 251 242
1.74385 -0.04202 -0.68090 254 251 244
1.75840 -0.03281 -0.67997 233 214 210
1.75492 -0.04967 -0.67858 254 251 243
1.85359 -0.04757 -0.71462 227 213 206
2.01878 -0.07505 -0.77275 232 217 193
2.00848 -0.07426 -0.78831 249 242 227
2.01175 -0.08377 -0.77978 250 242 223
2.01502 -0.09328 -0.77125 251 243 223
1.59499 -0.20176 -0.41074 169 140 126
1.60364 -0.20939 -0.40710 125 101 100
1.59693 -0.21836 -0.39385 59 25 16
1.59371 -0.23396 -0.39257 45 33 28
1.60818 -0.22581 -0.39179 49 39 38
1.61702 -0.22648 -0.37844 50 43 35
1.61099 -0.23397 -0.38447 51 43 33
1.60495 -0.24145 -0.39051 48 42 39
1.14292 -0.58788 0.24632 9 9 21
1.13595 -0.58735 0.23579 15 14 9
1.15918 -0.60156 0.25245 113 105 80
1.16913 -0.60857 0.25474 60 58 35
1.52810 -0.82690 0.29964 8 4 53
1.52017 -0.82629 0.28766 24 20 15
1.57227 -0.84739 0.29829 244 250 253
1.56933 -0.86163 0.29946 254 254 254
1.91365 -0.96929 0.24846 88 80 110
1.92264 -0.96998 0.26205 130 110 129
1.91036 -0.98522 0.24977 40 32 41
1.88591 -0.97223 0.26637 48 42 64
1.89482 -0.97291 0.27982 95 69 106
1.89766 -0.98204 0.27071 53 50 69
1.90660 -0.98272 0.28420 94 90 107
1.90050 -0.99029 0.27811 71 72 82
3.54371 -1.45227 -0.09646 123 129 138
3.63515 -1.48390 -0.11092 161 166 171
3.64140 -1.49712 -0.09996 180 182 182
3.63632 -1.52171 -0.09794 183 183 181
2.85763 -1.85940 0.70764 181 186 212
2.84661 -1.85856 0.69101 184 195 212
2.84673 -1.86441 0.71884 185 193 209
2.84272 -1.88384 0.72044 112 109 138
2.84435 -1.87243 0.72876 162 164 187
2.84035 -1.89183 0.73036 90 89 103
2.86122 -1.90514 0.75511 82 74 90
2.85024 -1.90430 0.73853 82 76 88
2.85373 -1.91444 0.74762 88 80 92
2.85721 -1.92457 0.75671 107 103 100
2.86890 -1.91682 0.76365 86 75 75
2.86488 -1.93628 0.76524 111 110 103
2.89367 -1.94377 0.77957 97 102 97
2.88613 -1.95312 0.77204 103 103 99
2.88963 -1.96331 0.78117 91 90 86
2.89996 -1.95501 0.78836 95 97 93
2.90257 -1.96487 0.79761 82 82 81
2.86863 -1.96958 0.82073 76 72 79
2.86463 -1.98892 0.82232 89 91 94
2.84849 -1.97058 0.83251 85 88 86
2.84452 -1.98981 0.83409 92 93 100
2.93993 -2.09406 0.91722 124 126 134
2.92891 -2.09322 0.90057 101 103 103
2.93486 -2.10073 0.92711 142 144 152
2.95615 -2.11820 0.93466 158 156 156
0.88414 0.34398 -0.63617 156 199 253
0.89187 0.33949 -0.63547 146 189 251
0.88924 0.32673 -0.63442 98 111 203
0.89455 0.31793 -0.61359 108 116 203
0.90174 0.31738 -0.60272 131 169 247
0.89192 0.30520 -0.61254 153 183 239
1.16443 0.14990 -0.57695 151 183 253
1.16730 0.16382 -0.57809 157 188 254
1.16193 0.15716 -0.58346 153 185 254
1.16980 0.15656 -0.57158 157 187 254
1.15686 0.12432 -0.54521 122 149 228
1.19116 0.12502 -0.56441 101 130 208
1.21828 0.12374 -0.57761 78 99 180
1.21906 0.10792 -0.56092 47 49 112
1.21614 0.09377 -0.55976 45 38 54
1.27356 0.11276 -0.59545 39 38 88
1.27057 0.09829 -0.59426 48 40 50
1.32015 0.05777 -0.56103 97 53 46
1.29853 0.03712 -0.52706 129 100 81
1.32350 0.03400 -0.53712 152 124 115
1.32424 0.02603 -0.52889 174 147 115
1.32861 0.01876 -0.52338 181 141 108
1.31690 0.00845 -0.50594 185 148 121
1.64063 -0.18754 -0.46800 238 228 206
1.58976 -0.20076 -0.42635 211 185 163
1.59248 -0.20892 -0.41898 183 162 150
1.59238 -0.21733 -0.40984 157 137 117
1.59663 -0.22536 -0.40344 62 42 41
1.14103 -0.59397 0.24022 8 9 19
1.13405 -0.59344 0.22968 20 14 6
1.16185 -0.60168 0.23737 74 75 74
1.16759 -0.60843 0.24158 113 106 86
1.16955 -0.61491 0.24755 63 59 39
1.18705 -0.62259 0.24644 29 21 12
1.18446 -0.63515 0.24747 21 15 13
1.53211 -0.83500 0.29066 7 9 57
1.52414 -0.83439 0.27864 24 23 16
1.55402 -0.84525 0.28996 180 172 227
1.55109 -0.85944 0.29113 250 250 253
1.82375 -0.93937 0.24674 232 201 232
1.85632 -0.95255 0.24348 184 158 165
1.91354 -0.97015 0.23175 135 101 103
1.86166 -0.96886 0.25825 72 44 47
1.88668 -0.98872 0.26629 46 45 56
1.89679 -0.99829 0.27120 58 57 66
1.90573 -0.99897 0.28470 85 85 99
1.89963 -1.00654 0.27860 68 68 81
3.47855 -1.45158 -0.08897 132 126 130
3.46935 -1.46298 -0.09816 173 124 134
3.47362 -1.47541 -0.08701 178 149 158
3.60117 -1.49023 -0.11309 162 160 168
2.90023 -1.86865 0.67309 171 179 200
2.90432 -1.84887 0.67146 161 160 172
2.89668 -1.85833 0.66384 162 163 181
2.90786 -1.85918 0.68072 162 162 180
2.85116 -1.86910 0.69997 180 185 202
2.84713 -1.88861 0.70157 105 100 118
2.84259 -1.87492 0.71086 149 149 173
2.83858 -1.89436 0.71246 95 90 102
2.90393 -1.97761 0.78896 72 66 61
2.89286 -1.97677 0.77225 84 71 81
2.90020 -1.98505 0.79901 71 67 71
2.89616 -2.00461 0.80062 88 93 95
2.87237 -1.98316 0.81193 82 85 89
2.86836 -2.00256 0.81352 90 92 99
2.88882 -2.08552 0.91380 121 124 127
2.87791 -2.08469 0.89734 102 103 103
2.92676 -2.10980 0.91966 141 144 153
2.94841 -2.12747 0.92714 157 156 161
2.94437 -2.14702 0.92874 133 120 132
2.93038 -2.12870 0.93816 132 124 137
2.94137 -2.12954 0.95475 115 109 133
2.93387 -2.13884 0.94726 109 107 133
2.92637 -2.14815 0.93976 116 109 126
0.83921 0.35177 -0.63435 161 203 254
0.84180 0.36429 -0.63538 167 206 253
0.83697 0.35830 -0.64021 164 204 254
0.84405 0.35776 -0.62952 166 205 254
0.84629 0.35123 -0.62366 166 206 254
0.83663 0.33924 -0.63332 120 143 236
0.84449 0.34647 -0.63147 158 202 253
0.85559 0.34349 -0.63428 147 192 252
0.85299 0.33089 -0.63325 91 107 195
0.90440 0.31745 -0.63261 133 153 218
0.90175 0.30462 -0.63156 161 195 254
1.13607 0.16083 -0.58888 152 183 253
1.13893 0.17466 -0.59001 159 189 254
1.13359 0.16804 -0.59535 155 186 254
1.14141 0.16744 -0.58355 156 185 254
1.14389 0.16023 -0.57708 155 185 254
1.13855 0.15361 -0.58241 147 178 250
1.14022 0.12267 -0.54979 84 98 184
1.13737 0.10890 -0.54865 39 34 64
1.15148 0.11769 -0.55051 59 65 147
1.16372 0.11288 -0.55195 45 54 117
1.36943 0.06206 -0.60877 193 158 131
1.33555 0.03048 -0.55611 183 148 124
1.33251 0.01577 -0.55490 175 157 125
1.58480 -0.19973 -0.44219 219 195 187
1.59737 -0.20703 -0.44111 226 208 182
1.59758 -0.21545 -0.43210 206 203 206
1.58804 -0.22466 -0.41693 197 186 163
1.60413 -0.23176 -0.41799 107 88 84
1.61083 -0.23965 -0.41308 48 24 18
1.60758 -0.25538 -0.41179 49 42 47
1.14352 -0.60038 0.23205 10 9 19
1.13651 -0.59984 0.22147 22 17 9
1.16200 -0.60799 0.23025 74 72 76
1.15627 -0.61392 0.23979 114 108 91
1.18763 -0.62903 0.23911 28 21 10
1.18503 -0.64162 0.24014 21 17 11
1.53297 -0.84268 0.28282 8 11 58
1.52499 -0.84208 0.27077 24 23 19
1.80214 -0.92894 0.22990 254 254 254
1.80533 -0.91347 0.22863 254 254 254
1.79936 -0.92087 0.22266 254 254 254
1.79340 -0.92827 0.21669 254 254 254
1.80750 -0.93744 0.23620 235 228 234
1.82117 -0.94738 0.23953 173 155 163
1.89745 -0.96823 0.22064 112 88 112
1.83110 -0.96436 0.25253 49 29 44
1.81700 -0.96946 0.26573 36 19 20
1.85277 -0.98351 0.26150 41 30 42
1.86745 -0.99386 0.26473 53 39 54
1.88505 -1.00481 0.26702 60 36 43
1.89399 -1.01420 0.27234 53 30 52
1.90293 -1.01488 0.28584 88 94 102
1.90211 -1.02346 0.27796 66 54 75
1.91107 -1.02415 0.29149 93 91 95
1.90496 -1.03173 0.28538 85 76 86
1.89884 -1.03932 0.27926 127 105 103
2.96625 -1.87674 0.62392 159 161 174
2.97042 -1.85655 0.62226 164 163 167
2.96263 -1.86621 0.61447 160 161 164
2.95484 -1.87587 0.60668 160 162 175
2.97404 -1.86708 0.63171 160 159 170
2.97766 -1.87761 0.64115 158 160 174
2.94514 -1.87854 0.63735 162 166 185
2.90608 -1.87385 0.65351 174 186 202
2.88073 -1.87386 0.66732 182 193 209
2.87666 -1.89359 0.66894 120 114 141
2.86724 -1.87802 0.67916 171 174 190
2.86318 -1.89766 0.68077 97 92 111
2.85091 -1.88107 0.69135 138 132 149
2.84688 -1.90061 0.69295 98 93 107
2.91075 -1.99252 0.77958 79 64 73
2.89964 -1.99167 0.76280 77 66 68
2.89717 -1.99615 0.79091 83 82 82
2.89312 -2.01573 0.79252 91 92 94
2.86351 -2.08738 0.90808 120 121 127
2.85265 -2.08655 0.89169 99 102 106
2.85610 -2.09657 0.90067 117 119 128
2.90535 -2.11334 0.91346 138 139 152
2.93780 -2.13554 0.91988 153 153 157
0.83528 0.36108 -0.65630 158 197 254
0.83787 0.37364 -0.65733 166 204 253
0.84013 0.36709 -0.65145 166 205 254
0.83043 0.35507 -0.66114 122 145 236
0.83534 0.35363 -0.64824 148 193 254
0.83275 0.34108 -0.64721 89 104 202
0.83682 0.34677 -0.64160 133 176 250
0.85014 0.31488 -0.61429 128 152 219
0.84755 0.30232 -0.61326 161 195 254
1.09948 0.16920 -0.59329 152 185 253
1.10230 0.18288 -0.59441 159 189 254
1.09702 0.17633 -0.59969 155 186 254
1.10476 0.17574 -0.58801 157 189 254
1.10721 0.16861 -0.58161 157 187 254
1.10478 0.16285 -0.58931 149 183 251
1.11746 0.15849 -0.59155 143 176 246
1.13103 0.15429 -0.59446 129 161 235
1.09961 0.13035 -0.55117 87 108 190
1.12644 0.12955 -0.56506 68 74 154
1.12360 0.11579 -0.56393 41 25 66
1.11194 0.11805 -0.54460 43 51 114
1.14539 0.11871 -0.56373 30 38 85
1.16503 0.10786 -0.56274 65 53 70
1.16215 0.09392 -0.56160 102 98 84
1.19144 0.10635 -0.57563 67 49 66
1.41133 0.09018 -0.67907 167 143 123
1.45239 0.06429 -0.67355 233 205 172
1.42090 0.01565 -0.60339 239 250 233
1.41776 0.00045 -0.60215 185 161 185
1.57993 -0.19869 -0.45814 220 193 199
1.57956 -0.20715 -0.44875 236 204 198
1.58052 -0.22388 -0.43111 205 185 203
1.58680 -0.23176 -0.42601 204 201 204
1.60605 -0.23866 -0.42911 135 118 115
1.61031 -0.24677 -0.42264 54 29 26
1.14326 -0.60663 0.22513 10 10 20
1.13624 -0.60609 0.21453 20 17 10
1.15999 -0.62686 0.23789 68 62 48
1.18667 -0.63537 0.23246 29 23 12
1.18406 -0.64798 0.23350 24 20 13
1.53597 -0.85073 0.27413 8 13 58
1.52796 -0.85012 0.26204 26 22 15
1.55436 -0.86058 0.27471 185 198 229
1.55142 -0.87483 0.27588 250 252 254
1.77811 -0.93330 0.23056 239 250 236
1.76943 -0.93263 0.21744 245 253 243
1.79791 -0.94423 0.23154 154 140 166
1.79993 -0.95974 0.24727 44 26 46
1.80712 -0.96859 0.25293 26 19 33
1.80373 -0.97554 0.26234 37 19 21
1.84211 -0.99015 0.25709 47 23 28
1.86602 -1.00224 0.25706 81 59 58
1.87015 -1.01070 0.26397 105 79 62
1.88892 -1.02197 0.26588 112 82 66
1.88565 -1.03780 0.26718 133 110 97
1.90335 -1.03248 0.26936 122 101 88
2.94567 -1.88188 0.61825 167 173 190
2.93790 -1.89151 0.61049 181 193 207
2.91332 -1.87957 0.63354 181 189 206
2.89409 -1.88180 0.64654 181 189 198
2.90400 -1.89444 0.65482 154 157 172
2.91901 -2.00807 0.76995 83 77 76
2.90786 -2.00722 0.75311 75 80 78
2.91494 -2.02781 0.77157 92 93 99
2.89624 -2.00810 0.78252 88 91 91
2.89219 -2.02771 0.78413 93 92 99
2.89533 -2.12155 0.90623 138 138 152
2.88437 -2.12072 0.88968 113 117 126
2.92758 -2.14377 0.91260 149 149 154
2.91891 -2.14880 0.92284 132 117 129
2.92004 -2.16661 0.94155 141 141 155
2.93102 -2.16745 0.95814 133 115 127
2.91898 -2.17480 0.95103 119 94 135
2.92995 -2.17563 0.96759 132 130 141
2.91382 -2.18120 0.96081 147 148 160
2.92477 -2.18203 0.97735 173 185 189
2.90982 -2.20057 0.96241 171 174 180
0.87301 0.32713 -0.65443 161 190 241
0.86809 0.32103 -0.65934 157 191 254
0.87038 0.31438 -0.65338 158 191 254
0.88209 0.32311 -0.65510 165 194 248
0.87945 0.31032 -0.65405 158 190 254
1.06648 0.17045 -0.59162 152 182 252
1.06928 0.18398 -0.59273 158 188 254
1.06406 0.17751 -0.59795 154 186 254
1.07171 0.17692 -0.58640 157 187 254
1.08402 0.16762 -0.59830 143 176 249
1.09670 0.16334 -0.60071 130 166 240
1.08430 0.15214 -0.58162 115 148 219
1.12922 0.15651 -0.61137 97 122 196
1.14268 0.15220 -0.61417 70 82 162
1.13980 0.13826 -0.61303 28 25 63
1.10957 0.13557 -0.57765 44 56 116
1.12938 0.13292 -0.58579 34 39 93
1.12338 0.12354 -0.57224 36 27 82
1.12054 0.10977 -0.57111 84 74 85
1.14005 0.11209 -0.56906 48 40 66
1.14369 0.10516 -0.56355 89 81 79
1.14713 0.09816 -0.55785 126 121 94
1.39113 0.09690 -0.69228 139 122 139
1.39589 0.08939 -0.68676 196 191 191
1.39274 0.07414 -0.68550 120 105 146
1.42941 0.08793 -0.70382 206 211 192
1.42622 0.07249 -0.70255 140 134 165
1.43361 0.08017 -0.69772 216 199 183
1.42522 0.06984 -0.68181 224 201 181
1.42205 0.05446 -0.68055 212 215 228
1.59052 -0.17917 -0.50286 251 250 250
1.59378 -0.16334 -0.50416 254 254 253
1.58768 -0.17091 -0.51026 254 254 254
1.59662 -0.17159 -0.49675 254 254 253
1.59946 -0.17985 -0.48935 251 252 250
1.58725 -0.19500 -0.50156 221 204 199
1.59506 -0.18726 -0.49658 237 229 233
1.58585 -0.19664 -0.48124 221 196 206
1.58504 -0.20519 -0.47149 233 206 212
1.58626 -0.21354 -0.46308 251 242 233
1.58494 -0.22210 -0.45303 249 244 233
1.57263 -0.23151 -0.43594 222 204 204
1.56736 -0.24028 -0.42346 176 159 174
1.59954 -0.24623 -0.43490 125 114 119
1.61126 -0.25381 -0.43318 92 83 73
1.61531 -0.26197 -0.42655 60 41 35
1.62424 -0.26265 -0.41306 58 46 42
1.61814 -0.27022 -0.41916 59 48 42
1.61204 -0.27778 -0.42525 61 47 46
1.15646 -0.62025 0.21869 74 71 79
1.15388 -0.63276 0.21971 117 114 91
1.16095 -0.63330 0.23039 70 68 48
1.53757 -0.85861 0.26593 9 15 62
1.52955 -0.85800 0.25381 27 18 15
1.57417 -0.87140 0.25949 184 209 243
1.57120 -0.88579 0.26067 248 246 252
1.77256 -0.94072 0.22449 167 152 179
1.78297 -0.95007 0.22887 74 38 85
1.77978 -0.96549 0.23014 51 21 40
1.77251 -0.95577 0.24090 47 17 53
1.78879 -0.97374 0.25140 44 27 25
1.80744 -0.98471 0.25295 77 57 46
1.83308 -0.99706 0.25212 110 87 59
1.85979 -1.00974 0.25105 132 105 52
1.86535 -1.01848 0.25746 138 108 55
1.88276 -1.02953 0.25980 137 110 75
1.89149 -1.04665 0.27357 130 95 99
1.90045 -1.04734 0.28709 121 97 107
1.89268 -1.05458 0.28154 134 101 105
1.90163 -1.05527 0.29505 113 105 125
1.89552 -1.06284 0.28894 120 100 101
2.96143 -1.88135 0.58633 163 162 174
2.96562 -1.86106 0.58467 158 158 167
2.95780 -1.87077 0.57684 155 158 167
2.94997 -1.88048 0.56902 162 167 184
2.96926 -1.87165 0.59415 159 159 168
2.93982 -1.88298 0.60013 170 180 199
2.91997 -1.89428 0.62347 173 179 194
2.91835 -1.90283 0.63369 140 136 159
2.91422 -1.92284 0.63533 95 83 104
2.87996 -1.89799 0.64979 108 101 117
2.87060 -1.90359 0.66108 94 87 106
2.87414 -1.91388 0.67031 104 95 104
2.86653 -1.92332 0.66270 136 137 139
2.90747 -2.15644 0.91570 122 115 125
2.90345 -2.17589 0.91730 125 122 137
2.90869 -2.16561 0.92500 124 116 134
2.90679 -2.17343 0.93457 127 121 148
2.90625 -2.18182 0.94399 101 88 128
2.88810 -2.18254 0.95488 149 163 171
2.88412 -2.20182 0.95646 171 167 174
0.89327 0.39245 -0.75138 101 117 209
0.83423 0.33763 -0.65838 146 171 233
0.83163 0.32505 -0.65735 156 190 254
1.03771 0.18040 -0.60149 148 184 253
1.04048 0.19383 -0.60260 156 186 254
1.03530 0.18740 -0.60778 151 184 254
1.04289 0.18682 -0.59631 155 186 254
1.04530 0.17982 -0.59003 155 186 254
1.04840 0.17578 -0.60248 144 181 250
1.05155 0.16895 -0.59681 137 173 244
1.08072 0.16945 -0.61377 122 156 229
1.04951 0.15296 -0.57822 97 127 208
1.07486 0.15225 -0.59172 70 89 178
1.08272 0.14663 -0.59001 51 52 126
1.10585 0.14505 -0.60131 30 41 91
1.10014 0.13572 -0.58793 25 34 71
1.12513 0.12658 -0.59203 45 30 59
1.14259 0.10741 -0.58096 98 92 96
1.16176 0.10422 -0.58827 121 118 121
1.15887 0.09022 -0.58712 80 57 69
1.14599 0.09254 -0.56666 114 116 116
1.36675 0.10261 -0.70191 163 125 60
1.36403 0.11051 -0.70900 175 151 95
1.37259 0.10986 -0.69606 76 46 27
1.42651 0.06394 -0.69339 177 179 195
1.62276 0.02091 -0.75696 168 160 165
1.61641 0.01304 -0.76330 163 135 128
1.63206 0.02020 -0.74292 207 200 207
1.60899 0.00952 -0.73678 168 159 164
1.61823 0.00882 -0.72283 223 227 234
1.62447 0.00306 -0.73845 163 140 153
1.63375 0.00235 -0.72443 231 230 236
1.61249 -0.00792 -0.71974 180 153 156
1.62172 -0.00863 -0.70579 242 244 246
1.61542 -0.01644 -0.71209 202 181 180
1.47750 -0.09751 -0.54606 236 243 241
1.48620 -0.09818 -0.53292 253 252 250
1.48026 -0.10554 -0.53886 253 250 245
1.57954 -0.17014 -0.52431 253 254 253
1.58281 -0.15431 -0.52561 254 254 254
1.57670 -0.16189 -0.53172 254 254 254
1.58565 -0.16257 -0.51821 254 254 254
1.58623 -0.17802 -0.51949 248 246 244
1.59042 -0.18616 -0.51298 235 222 218
1.58121 -0.20405 -0.48828 235 219 224
1.57795 -0.21983 -0.48699 254 254 252
1.58612 -0.21210 -0.48227 250 244 241
1.58286 -0.22789 -0.48097 254 254 254
1.58360 -0.22079 -0.47138 254 254 251
1.57644 -0.22981 -0.45751 253 251 246
1.57257 -0.23852 -0.44584 243 231 216
1.55901 -0.24791 -0.42797 196 164 160
1.59579 -0.25360 -0.44247 126 109 134
1.60492 -0.26139 -0.43911 123 113 108
1.60578 -0.26976 -0.43047 74 49 23
1.60252 -0.28555 -0.42917 70 49 30
1.14326 -0.61925 0.21096 12 10 20
1.13621 -0.61871 0.20031 26 20 9
1.15324 -0.62637 0.21310 76 70 77
1.15066 -0.63888 0.21412 118 114 95
1.15773 -0.63942 0.22481 70 71 50
1.18547 -0.64819 0.21875 28 25 14
1.18285 -0.66084 0.21979 25 17 9
1.54094 -0.86681 0.25700 9 15 52
1.53289 -0.86619 0.24484 25 17 16
1.55408 -0.87595 0.25957 173 197 210
1.55113 -0.89025 0.26074 240 247 251
1.78407 -0.94352 0.20378 179 157 187
1.79143 -0.95240 0.20931 79 52 89
1.78823 -0.96791 0.21059 42 16 44
1.75628 -0.95378 0.23060 51 18 53
1.76960 -0.97117 0.24207 49 27 31
1.79486 -0.98333 0.24111 85 67 80
1.76294 -0.98490 0.26079 140 143 141
1.76942 -0.99358 0.26661 163 167 146
1.76626 -1.00889 0.26786 148 152 157
1.77358 -1.00184 0.27327 160 152 117
1.87286 -1.03636 0.25501 144 116 77
1.88293 -1.04605 0.25991 124 95 73
1.86857 -1.05083 0.27320 110 71 74
1.88254 -1.06133 0.27680 117 79 84
1.88868 -1.07027 0.28308 107 74 78
1.89763 -1.07095 0.29659 93 95 131
1.87682 -1.07543 0.29539 72 50 78
1.88573 -1.07611 0.30883 129 162 198
1.87965 -1.08365 0.30276 62 61 114
2.92050 -1.41725 0.08055 134 103 123
2.92484 -1.39623 0.07882 179 119 137
2.91673 -1.40629 0.07071 120 102 113
2.92861 -1.40719 0.08866 186 132 155
2.96391 -1.43787 0.07858 147 120 148
3.01000 -1.47978 0.09834 194 193 196
3.02210 -1.48071 0.11661 189 186 184
3.01384 -1.49095 0.10836 198 194 194
2.95219 -1.50538 0.15879 186 186 189
2.95653 -1.48435 0.15707 189 188 188
2.94842 -1.49441 0.14896 190 188 189
2.96030 -1.49532 0.16691 190 190 189
2.96408 -1.50629 0.17674 192 191 189
2.95596 -1.51635 0.16863 190 189 189
2.93457 -1.88429 0.58185 177 185 202
2.92316 -1.88342 0.56461 180 190 210
2.91983 -1.88825 0.59446 180 188 201
2.94160 -1.90528 0.60077 159 161 175
2.93759 -1.91304 0.61149 124 121 141
2.90301 -1.90962 0.62724 93 92 109
2.86785 -1.91483 0.65270 106 98 116
2.86023 -1.92428 0.64508 148 151 158
2.86378 -1.93458 0.65432 160 162 155
2.90191 -2.16658 0.90802 114 98 131
2.90819 -2.18657 0.92628 121 114 114
2.90963 -2.19582 0.93556 120 111 110
2.88530 -2.19379 0.94704 161 169 170
2.88131 -2.21310 0.94863 169 165 170
0.91124 0.42740 -0.81450 132 154 238
0.91397 0.44064 -0.81559 162 202 254
0.90886 0.43431 -0.82069 145 181 252
0.91635 0.43374 -0.80939 159 199 254
0.91872 0.42683 -0.80320 153 194 254
0.90850 0.41416 -0.81341 120 134 211
0.86077 0.35945 -0.71153 155 188 238
0.85812 0.34663 -0.71047 156 189 254
0.85542 0.34966 -0.69778 160 192 245
0.85278 0.33689 -0.69674 156 190 254
0.84126 0.33639 -0.67522 160 192 252
0.83864 0.32372 -0.67418 155 190 254
1.03789 0.19878 -0.63684 148 181 254
1.04068 0.21230 -0.63795 153 185 254
1.03546 0.20583 -0.64316 151 182 254
1.04310 0.20525 -0.63162 152 184 254
1.04553 0.19820 -0.62530 152 184 254
1.03599 0.19045 -0.62665 147 178 252
1.03551 0.18256 -0.61776 135 171 247
1.03368 0.17430 -0.60770 124 160 237
1.06862 0.17661 -0.63011 103 140 217
1.04462 0.16201 -0.60049 77 99 183
1.04547 0.15454 -0.59282 56 64 146
1.05593 0.14973 -0.59352 31 45 106
1.05846 0.14270 -0.58728 21 26 81
1.07710 0.14001 -0.59496 26 16 60
1.10241 0.13114 -0.59967 55 44 60
1.15691 0.12144 -0.62011 101 93 102
1.33665 0.09846 -0.69734 237 224 177
1.33085 0.09127 -0.70313 228 191 185
1.39209 0.09361 -0.72360 205 154 118
1.38892 0.07828 -0.72235 253 247 222
1.40153 0.08704 -0.72180 163 137 122
1.38680 0.07536 -0.70065 132 99 94
1.54343 0.07203 -0.78619 125 108 163
1.56982 0.06812 -0.79696 142 146 186
1.57357 0.05978 -0.78998 170 177 197
1.56761 0.04963 -0.77549 185 178 185
1.56426 0.03338 -0.77416 114 85 101
1.59762 0.04609 -0.78871 136 118 143
1.41050 -0.10477 -0.51735 165 158 135
1.48447 -0.11160 -0.55201 247 249 248
1.49321 -0.11226 -0.53882 253 252 250
1.48725 -0.11966 -0.54479 254 254 253
1.57932 -0.16856 -0.54378 252 254 251
1.58260 -0.15267 -0.54509 254 254 254
1.57647 -0.16027 -0.55121 254 254 254
1.57807 -0.17725 -0.53357 245 241 238
1.57927 -0.18569 -0.52504 234 210 217
1.58136 -0.19403 -0.51712 225 207 209
1.58994 -0.20177 -0.51355 237 231 221
1.58666 -0.21765 -0.51224 254 254 254
1.58349 -0.21087 -0.49993 251 248 248
1.58022 -0.22670 -0.49863 254 254 254
1.57208 -0.23719 -0.46467 254 253 249
1.56320 -0.23652 -0.47808 254 254 254
1.57086 -0.24569 -0.45470 247 238 218
1.56111 -0.25478 -0.43922 206 179 160
1.60467 -0.26011 -0.45819 143 120 126
1.63601 -0.26650 -0.46905 121 90 81
1.63888 -0.27486 -0.46156 107 100 71
1.63557 -0.29088 -0.46024 83 55 60
1.16134 -0.62703 0.19509 16 13 20
1.15422 -0.62649 0.18434 27 23 14
1.15473 -0.63287 0.20524 78 71 72
1.15213 -0.64542 0.20627 120 113 97
1.15923 -0.64596 0.21699 70 74 54
1.18909 -0.65501 0.20987 34 23 14
1.18646 -0.66772 0.21091 24 20 16
1.54139 -0.87459 0.24917 9 11 54
1.53332 -0.87397 0.23698 26 13 19
1.54838 -0.88276 0.25412 173 183 216
1.61689 -0.90842 0.24315 217 216 240
1.61124 -0.91543 0.23750 99 85 136
1.69166 -0.92847 0.22248 136 126 172
1.74929 -0.94590 0.20871 51 25 84
1.74612 -0.96123 0.20997 34 13 23
1.75005 -0.95355 0.21663 35 15 52
1.75572 -0.96956 0.23090 53 34 38
1.76009 -0.97785 0.23747 95 88 90
1.75328 -0.98405 0.24812 133 136 139
1.75877 -0.99254 0.25427 143 150 170
1.76416 -1.00103 0.26047 142 148 170
1.77502 -1.01806 0.27290 157 147 128
1.76910 -1.02540 0.26699 152 155 152
1.84953 -1.04046 0.25495 147 116 69
1.86851 -1.05194 0.25669 123 86 50
1.86166 -1.05819 0.26741 103 59 58
1.85563 -1.06456 0.27781 91 40 54
1.85538 -1.07211 0.28619 80 36 53
1.85752 -1.08015 0.29376 68 35 52
1.85470 -1.08711 0.30297 55 25 53
1.86355 -1.08779 0.31633 131 149 188
1.88914 -1.10219 0.29984 101 85 124
1.89808 -1.10287 0.31334 222 237 238
1.89198 -1.11044 0.30724 196 204 224
1.88587 -1.11801 0.30114 222 236 235
2.83546 -1.35905 0.04166 231 217 186
2.83174 -1.34824 0.03197 248 242 225
2.82375 -1.35816 0.02398 254 254 251
2.84345 -1.34914 0.04965 154 127 97
2.82746 -1.36896 0.03367 254 252 243
2.84717 -1.35994 0.05934 113 85 71
2.84539 -1.39118 0.07111 113 88 63
2.84850 -1.40184 0.08098 109 86 72
2.87736 -1.41877 0.08305 109 91 99
2.91152 -1.43714 0.08367 109 103 120
2.95504 -1.45798 0.08166 120 129 152
2.95704 -1.46859 0.09211 132 141 167
2.98513 -1.48581 0.09494 155 160 182
2.97645 -1.49373 0.10853 177 181 202
2.98847 -1.49465 0.12667 196 191 193
2.93195 -1.52219 0.16495 190 190 195
2.94379 -1.52309 0.18283 192 189 189
2.93571 -1.53311 0.17475 195 187 189
2.93031 -1.89522 0.57343 173 175 199
2.93537 -1.90627 0.58263 145 141 165
2.93119 -1.92649 0.58429 96 84 104
2.91592 -1.90844 0.59607 112 104 124
2.91660 -1.91785 0.60597 93 86 102
2.88793 -1.91646 0.62077 94 87 98
2.88126 -1.92306 0.63178 115 111 129
2.89580 -2.17649 0.90038 95 92 119
2.88480 -2.17565 0.88377 106 96 120
2.89708 -2.18568 0.90969 116 122 125
2.90319 -2.19697 0.91855 106 101 119
2.89917 -2.21643 0.92014 151 161 157
2.90017 -2.20427 0.92824 138 140 137
2.89616 -2.22370 0.92983 169 170 165
2.87163 -2.20029 0.94014 167 172 172
2.86765 -2.21957 0.94173 165 165 169
0.88190 0.41847 -0.80281 109 125 204
0.88460 0.43156 -0.80389 155 193 254
0.87955 0.42530 -0.80894 120 143 217
0.87450 0.41903 -0.81399 122 142 222
0.87920 0.40537 -0.80174 150 183 238
0.88603 0.38115 -0.76434 158 193 243
0.88100 0.37491 -0.76937 154 190 253
0.88334 0.36810 -0.76327 154 190 254
0.86933 0.36651 -0.73869 159 193 250
0.86666 0.35358 -0.73763 156 188 254
1.04195 0.21074 -0.66756 145 180 252
1.04476 0.22434 -0.66868 154 183 254
1.03952 0.21783 -0.67392 149 180 254
1.04720 0.21724 -0.66231 153 182 254
1.03858 0.19408 -0.64738 130 165 244
1.02932 0.18356 -0.63054 113 139 224
1.04393 0.18008 -0.63514 80 105 196
0.99982 0.15962 -0.58734 58 67 158
1.03688 0.16255 -0.61189 34 51 116
1.03906 0.15546 -0.60538 22 31 81
1.04268 0.14876 -0.60013 28 21 58
1.04318 0.14120 -0.59214 33 21 41
1.05324 0.13623 -0.59250 42 29 55
1.05045 0.12271 -0.59139 112 113 107
1.07856 0.13528 -0.60604 57 50 68
1.07574 0.12161 -0.60492 114 119 119
1.10453 0.12648 -0.61136 123 118 112
1.18389 0.09066 -0.61785 154 120 110
1.28016 0.10493 -0.68890 209 188 178
1.30833 0.10304 -0.70305 227 218 193
1.45688 0.07500 -0.75789 231 201 129
1.53892 0.06463 -0.79378 124 82 96
1.55691 0.05907 -0.79805 124 92 105
1.55557 0.04980 -0.78713 129 102 129
1.58550 0.04628 -0.80051 140 97 121
1.62673 0.02623 -0.80231 189 163 134
1.61844 0.00656 -0.77600 198 159 148
1.61503 -0.00995 -0.77464 193 171 171
1.57512 -0.00959 -0.73337 221 198 178
1.56348 -0.02038 -0.71486 241 226 170
1.43789 -0.09922 -0.55623 231 220 187
1.44104 -0.08396 -0.55748 240 225 188
1.43515 -0.09126 -0.56337 243 232 208
1.40831 -0.11149 -0.52576 183 152 115
1.48593 -0.11805 -0.56327 228 236 238
1.49429 -0.12545 -0.55999 251 254 254
1.50306 -0.12611 -0.54674 254 254 254
1.49707 -0.13355 -0.55273 254 254 254
1.49108 -0.14098 -0.55872 254 254 254
1.56494 -0.16844 -0.55361 251 253 251
1.56821 -0.15258 -0.55492 254 254 254
1.56210 -0.16017 -0.56103 254 254 254
1.57284 -0.17619 -0.54967 240 237 235
1.57791 -0.19282 -0.53439 234 206 211
1.57158 -0.24429 -0.47439 254 253 249
1.56268 -0.24361 -0.48783 254 254 254
1.57188 -0.25268 -0.46538 245 236 219
1.58505 -0.26017 -0.46477 211 188 170
1.60871 -0.26702 -0.47089 165 143 124
1.59283 -0.27650 -0.45137 87 71 68
1.62183 -0.28317 -0.46076 117 112 127
1.15916 -0.63328 0.18893 17 15 20
1.15203 -0.63273 0.17817 29 25 16
1.16154 -0.63987 0.19478 78 69 71
1.15893 -0.65248 0.19581 122 119 98
1.16606 -0.65303 0.20658 73 78 56
1.19082 -0.66171 0.20183 33 25 15
1.18819 -0.67445 0.20287 21 19 9
1.54100 -0.88226 0.24163 9 17 56
1.53291 -0.88164 0.22942 21 16 18
1.53548 -0.88911 0.23611 11 12 38
1.56261 -0.89291 0.24084 158 215 217
1.55963 -0.90732 0.24203 64 68 102
1.73781 -0.94475 0.19671 36 29 65
1.73464 -0.96006 0.19797 30 14 30
1.74146 -0.95290 0.20353 25 12 40
1.75178 -0.97726 0.22425 85 88 89
1.74168 -0.98284 0.23618 118 131 134
1.74619 -0.99113 0.24267 121 133 146
1.74954 -0.99922 0.24959 105 114 136
1.76243 -1.00917 0.25306 113 118 138
1.76866 -1.01786 0.25899 130 136 150
1.77950 -1.03496 0.27146 159 147 120
1.85823 -1.05864 0.25206 140 110 80
1.85086 -1.06474 0.26298 105 64 47
1.84018 -1.07009 0.27499 81 29 34
1.83695 -1.08575 0.27627 66 19 26
1.84217 -1.07808 0.28259 64 15 28
1.84588 -1.08644 0.28960 44 15 20
1.84604 -1.09403 0.29781 54 41 35
1.84281 -1.10967 0.29910 203 203 201
1.91220 -1.11622 0.28402 132 140 132
1.90890 -1.13220 0.28533 247 253 251
2.75879 -1.36263 0.06628 249 244 225
2.74729 -1.36175 0.04892 254 254 254
2.75459 -1.38297 0.06795 254 252 244
2.88817 -1.42339 0.05830 174 140 113
2.86932 -1.42875 0.07501 135 104 93
2.88379 -1.44229 0.08151 108 91 97
2.89125 -1.45413 0.09017 107 91 94
2.88684 -1.46296 0.10238 112 91 111
2.89378 -1.47467 0.11120 117 102 131
2.89622 -1.48523 0.12136 121 124 154
2.89293 -1.49428 0.13316 128 139 165
2.88640 -1.50244 0.14585 136 138 159
2.92387 -1.53221 0.15687 183 188 203
2.91724 -1.54032 0.16956 195 192 198
2.92905 -1.54122 0.18739 194 187 187
2.92099 -1.55122 0.17934 202 199 201
2.90998 -1.55803 0.19314 202 197 196
2.91801 -1.54807 0.20117 193 187 187
2.92175 -1.55893 0.21091 194 188 188
2.91371 -1.56889 0.20288 198 188 183
2.95509 -1.88868 0.52914 171 178 200
2.95931 -1.86825 0.52746 158 155 159
2.95143 -1.87803 0.51958 163 163 176
2.94355 -1.88780 0.51171 174 186 207
2.96297 -1.87891 0.53702 159 158 173
2.96664 -1.88956 0.54657 168 175 196
2.93397 -1.89048 0.54328 177 187 203
2.93218 -1.89912 0.55376 165 164 183
2.91003 -1.90037 0.56788 129 121 146
2.91051 -1.90974 0.57786 100 93 111
2.90611 -1.92646 0.59870 103 97 100
2.90966 -1.93691 0.60809 132 131 133
2.89234 -2.18756 0.89247 92 83 112
2.89029 -2.20391 0.91155 106 99 116
1.02646 0.22459 -0.68919 147 180 253
1.02927 0.23818 -0.69030 152 181 254
1.02403 0.23168 -0.69554 148 183 254
1.03171 0.23110 -0.68395 152 181 254
1.03414 0.22401 -0.67759 151 180 254
1.02366 0.21101 -0.68807 97 122 208
1.03776 0.22026 -0.69102 143 175 252
1.04634 0.21503 -0.69028 130 167 245
1.03554 0.20387 -0.67174 113 147 227
1.01195 0.18125 -0.63319 64 82 163
0.99825 0.16954 -0.61236 41 49 135
1.01695 0.16731 -0.62080 25 35 107
1.02399 0.16163 -0.61868 15 21 73
1.02724 0.15485 -0.61313 15 13 58
1.03205 0.14850 -0.60897 36 18 62
1.03578 0.14184 -0.60383 60 50 61
1.03299 0.12836 -0.60272 111 112 118
1.04648 0.13706 -0.60482 86 75 76
1.05471 0.13155 -0.60357 104 97 95
1.19767 0.11259 -0.66602 74 61 62
1.24569 0.10773 -0.68865 194 174 142
1.26355 0.10365 -0.69457 229 199 167
1.27553 0.09811 -0.69547 225 199 181
1.29131 0.09337 -0.69946 216 199 189
1.28825 0.07852 -0.69824 254 254 245
1.31036 0.08925 -0.70604 232 216 201
1.30727 0.07430 -0.70482 254 254 251
1.53734 0.06680 -0.81358 254 239 211
1.56854 0.06374 -0.82840 252 223 196
1.57666 0.05617 -0.82482 244 217 188
1.56523 0.04496 -0.80587 185 167 170
1.57166 0.03708 -0.80097 174 138 109
1.57742 0.02905 -0.79552 172 139 79
1.55169 -0.02897 -0.71688 230 231 217
1.54837 -0.04508 -0.71556 217 218 229
1.55657 -0.03707 -0.71084 249 251 235
1.55476 -0.04618 -0.69980 250 244 213
1.56929 -0.07053 -0.68155 246 250 235
1.56596 -0.08665 -0.68022 254 254 254
1.49133 -0.10708 -0.59605 226 202 155
1.46582 -0.11883 -0.56831 184 165 122
1.47949 -0.12552 -0.56892 199 207 192
1.50249 -0.13116 -0.57613 241 251 249
1.55494 -0.16786 -0.56642 251 250 250
1.55822 -0.15201 -0.56772 254 254 254
1.55210 -0.15960 -0.57383 254 254 254
1.55167 -0.18371 -0.56512 226 206 215
1.56040 -0.17586 -0.56082 237 230 233
1.55945 -0.18451 -0.55078 226 205 214
1.55975 -0.19301 -0.54163 235 213 217
1.57437 -0.20018 -0.54227 248 240 234
1.57108 -0.21608 -0.54097 254 254 254
1.58012 -0.20821 -0.53681 253 254 251
1.57683 -0.22413 -0.53550 254 254 254
1.58151 -0.25065 -0.49107 254 253 249
1.57256 -0.24997 -0.50458 254 254 254
1.58623 -0.25878 -0.48490 244 236 225
1.60145 -0.26622 -0.48560 213 192 183
1.62097 -0.27346 -0.48902 182 154 131
1.60316 -0.28307 -0.46811 69 41 45
1.59988 -0.29897 -0.46681 72 72 79
1.19182 -0.66837 0.19409 30 22 14
1.18918 -0.68115 0.19514 26 16 15
1.72780 -0.95135 0.19240 37 19 30
1.73306 -0.96726 0.20679 41 26 28
1.73368 -0.97484 0.21474 86 80 84
1.73053 -0.99012 0.21600 113 119 123
1.73056 -0.98171 0.22409 110 122 115
1.74342 -1.00648 0.24378 74 82 101
1.74333 -1.01389 0.25195 83 98 116
1.76631 -1.02592 0.25177 112 124 143
1.76682 -1.03348 0.25977 136 144 161
1.77061 -1.04170 0.26658 152 158 156
1.81637 -1.05871 0.25859 140 122 112
1.83681 -1.07058 0.25971 106 59 51
1.83268 -1.07727 0.26946 83 29 29
1.84286 -1.09459 0.28253 63 26 27
1.84038 -1.10160 0.29165 120 100 97
1.83715 -1.11724 0.29294 242 244 244
2.84326 -1.43421 0.07253 215 198 170
2.89598 -1.45740 0.06726 200 183 166
2.89083 -1.48599 0.10163 147 119 109
2.87705 -1.49230 0.11658 119 102 115
2.87868 -1.50261 0.12693 104 96 118
2.86208 -1.50803 0.14255 112 95 108
2.88584 -1.54390 0.16806 152 161 183
2.89285 -1.56545 0.18762 199 199 215
2.87649 -1.57062 0.20282 202 197 196
2.88817 -1.57151 0.22045 196 188 186
2.88020 -1.58140 0.21248 205 198 198
2.96822 -1.88716 0.49663 164 169 186
2.97247 -1.86659 0.49494 158 155 161
2.96454 -1.87643 0.48701 160 158 167
2.97616 -1.87732 0.50457 158 157 167
2.94951 -1.89928 0.52082 169 179 200
2.93936 -1.90496 0.53297 143 143 173
2.93515 -1.92533 0.53464 94 87 109
2.91934 -1.90700 0.54687 115 105 134
2.91125 -1.91329 0.55848 93 88 108
2.91634 -1.92436 0.56766 93 86 94
2.90035 -1.92765 0.58058 112 112 120
2.92789 -1.94703 0.58580 149 154 150
2.93345 -1.95830 0.59493 175 179 171
2.93288 -1.96728 0.60510 173 171 172
2.92871 -1.98749 0.60676 120 108 122
2.90657 -1.96649 0.61956 147 138 143
2.90243 -1.98655 0.62120 117 117 113
2.83821 -2.15936 0.87095 113 115 118
2.84219 -2.14008 0.86937 111 111 120
2.83475 -2.14930 0.86193 109 110 115
2.82731 -2.15853 0.85449 108 108 108
2.84565 -2.15014 0.87839 121 121 129
2.88197 -2.18700 0.87578 101 93 108
2.89442 -2.20109 0.88399 85 82 103
2.88503 -2.20559 0.89440 96 104 113
2.88101 -2.22506 0.89600 135 144 147
0.97353 0.22629 -0.67535 145 181 254
0.97628 0.23962 -0.67645 152 183 254
0.97114 0.23324 -0.68159 148 181 254
0.97867 0.23267 -0.67021 150 183 254
0.98106 0.22571 -0.66398 150 183 254
0.99086 0.22411 -0.68317 142 181 251
1.08292 0.22125 -0.73423 68 77 178
1.03187 0.19784 -0.67844 48 60 128
1.00558 0.18219 -0.64575 28 40 102
1.01217 0.17642 -0.64328 21 28 72
1.01659 0.16998 -0.63882 11 15 50
1.01313 0.16128 -0.62720 14 16 40
1.01035 0.14785 -0.62610 11 7 20
1.01734 0.15478 -0.62255 15 12 38
1.02119 0.14818 -0.61755 7 6 37
1.02693 0.14208 -0.61424 69 60 76
1.02415 0.12861 -0.61313 87 96 119
1.23581 0.11622 -0.70881 74 84 120
1.27194 0.11653 -0.73043 156 158 155
1.25515 0.10426 -0.70705 201 185 172
1.26566 0.09840 -0.70679 222 199 195
1.30919 0.09995 -0.73414 244 230 222
1.30609 0.08494 -0.73291 252 251 250
1.30716 0.09107 -0.72318 252 248 236
1.30407 0.07609 -0.72195 251 251 249
1.55094 0.05378 -0.82574 250 247 240
1.54172 0.05448 -0.83966 242 230 220
1.56498 0.04732 -0.82692 235 231 217
1.56011 0.03736 -0.81310 169 148 169
1.56680 0.02951 -0.80840 182 160 144
1.57873 0.02255 -0.80778 229 204 158
1.59107 0.01560 -0.80741 204 177 146
1.60733 -0.01805 -0.77999 169 142 92
1.55460 -0.05298 -0.71054 236 239 242
1.58420 -0.05753 -0.72297 206 195 214
1.57797 -0.06732 -0.70855 208 204 212
1.56126 -0.07849 -0.68643 244 248 241
1.48710 -0.12281 -0.59403 210 198 146
1.48833 -0.13114 -0.58561 187 184 137
1.50919 -0.13713 -0.59131 227 229 210
1.51597 -0.14486 -0.58680 251 253 254
1.52485 -0.14553 -0.57339 254 254 254
1.51879 -0.15305 -0.57945 254 254 254
1.51272 -0.16058 -0.58551 254 254 254
1.53825 -0.16799 -0.57449 251 249 250
1.54151 -0.15219 -0.57578 254 254 254
1.53541 -0.15975 -0.58188 254 254 254
1.53498 -0.18380 -0.57319 224 207 212
1.55177 -0.17514 -0.57459 237 228 231
1.55639 -0.19180 -0.55901 236 217 225
1.56490 -0.19954 -0.55550 249 242 241
1.56162 -0.21543 -0.55420 254 254 254
1.57565 -0.20712 -0.55350 254 254 251
1.57236 -0.22306 -0.55219 254 254 254
1.58986 -0.26571 -0.49747 242 234 226
1.60897 -0.27296 -0.50075 210 191 188
1.60430 -0.28177 -0.48832 192 168 137
1.18232 -0.64824 0.16301 20 16 22
1.17508 -0.64769 0.15209 36 30 17
1.17118 -0.65370 0.17557 74 78 78
1.16855 -0.66642 0.17662 126 127 107
1.17574 -0.66697 0.18747 83 72 60
1.19090 -0.67488 0.18725 39 21 15
1.18825 -0.68768 0.18830 22 18 20
1.72536 -0.95929 0.18515 32 20 29
1.71670 -0.95863 0.17208 26 19 31
1.71537 -0.97238 0.20542 62 62 55
1.73557 -1.00598 0.23045 88 78 88
1.73969 -1.02164 0.24525 77 80 93
1.75084 -1.03132 0.24933 109 115 139
1.76028 -1.04070 0.25407 138 146 167
1.76391 -1.04889 0.26094 147 147 154
1.80339 -1.06469 0.25506 127 96 95
1.82173 -1.07614 0.25685 100 43 42
1.82853 -1.09272 0.27106 74 16 40
1.81682 -1.09764 0.28337 111 67 91
1.88420 -1.12030 0.26860 195 181 191
2.81461 -1.47809 0.11400 222 209 177
2.81037 -1.49865 0.11569 254 251 239
2.78102 -1.47892 0.13470 203 187 173
2.77681 -1.49929 0.13637 253 247 236
2.83862 -1.51376 0.13907 185 155 142
2.80171 -1.54231 0.19220 128 128 158
2.74815 -1.54620 0.22801 157 161 177
2.82120 -1.58620 0.22897 193 191 205
2.83272 -1.58708 0.24636 198 188 186
2.81574 -1.59417 0.24094 200 194 193
2.82723 -1.59505 0.25830 195 187 184
2.81938 -1.60478 0.25045 202 195 191
2.95948 -1.88729 0.47850 169 175 195
2.96373 -1.86671 0.47681 158 157 164
2.95579 -1.87656 0.46888 164 162 173
2.94044 -1.88993 0.49261 173 185 204
2.93671 -1.89795 0.50363 162 163 190
2.92474 -1.90296 0.51618 131 127 158
2.92590 -1.91268 0.52618 102 98 121
2.90732 -1.92437 0.54998 101 93 107
2.90183 -1.93154 0.56109 128 126 138
2.89766 -1.95170 0.56275 180 180 180
2.91473 -1.94552 0.56886 163 167 167
2.91691 -1.95552 0.57857 179 183 181
2.92277 -1.96690 0.58763 172 172 176
2.91859 -1.98711 0.58929 117 104 123
2.91959 -1.97486 0.59825 147 137 153
2.91542 -1.99504 0.59991 114 119 112
2.82564 -2.16635 0.86407 107 109 106
2.81476 -2.16552 0.84763 110 109 114
2.81821 -2.17557 0.85664 103 100 105
0.94415 0.22742 -0.67433 142 177 253
0.94688 0.24062 -0.67542 147 180 254
0.94179 0.23431 -0.68051 143 178 254
0.94925 0.23374 -0.66924 148 179 254
0.94899 0.22134 -0.67051 135 174 251
0.96606 0.21916 -0.67828 126 164 241
1.00525 0.20826 -0.68961 50 54 146
1.00268 0.19192 -0.67007 19 27 74
1.01294 0.17947 -0.66247 17 18 41
1.01015 0.16596 -0.66136 10 10 25
1.01487 0.17228 -0.65571 15 16 42
1.01208 0.15878 -0.65460 7 8 20
1.01457 0.16446 -0.64691 11 11 27
1.01179 0.15097 -0.64580 9 6 8
1.01278 0.15622 -0.63677 8 8 20
1.01516 0.14151 -0.62198 7 5 20
1.02240 0.13582 -0.62002 55 56 70
1.01962 0.12234 -0.61892 74 83 107
1.03252 0.12317 -0.61212 85 74 100
1.24849 0.11359 -0.73016 31 79 143
1.27670 0.11189 -0.74509 75 115 192
1.27552 0.10323 -0.73486 174 201 223
1.29635 0.09961 -0.74326 233 244 239
1.29945 0.09188 -0.73660 251 253 249
1.29635 0.07690 -0.73537 248 242 238
1.55703 0.04827 -0.84194 232 220 212
1.56361 0.04039 -0.83717 206 177 158
1.57218 0.03284 -0.83396 134 93 93
1.55714 0.02110 -0.81207 166 152 152
1.57905 0.01585 -0.81933 221 212 209
1.55888 -0.05030 -0.73447 155 153 159
1.56991 -0.05757 -0.73303 171 175 200
1.57916 -0.06514 -0.73019 170 163 204
1.59462 -0.07190 -0.73195 187 193 207
1.57043 -0.08411 -0.70409 230 243 237
1.48015 -0.13039 -0.59937 235 228 194
1.51096 -0.13518 -0.61243 197 164 132
1.51795 -0.14292 -0.60808 204 184 180
1.52167 -0.15105 -0.60133 243 250 253
1.53926 -0.16626 -0.59506 250 248 247
1.53599 -0.18212 -0.59375 223 207 209
1.54661 -0.17407 -0.59083 234 225 227
1.54864 -0.19099 -0.57339 237 222 226
1.54536 -0.20686 -0.57209 254 254 254
1.57263 -0.20590 -0.57126 254 254 253
1.56933 -0.22187 -0.56995 253 254 254
1.58479 -0.26476 -0.51367 252 250 244
1.57579 -0.26407 -0.52726 251 248 242
1.58765 -0.27307 -0.50622 238 230 222
1.61014 -0.28017 -0.51179 206 190 188
1.62098 -0.28807 -0.50954 194 178 133
1.63514 -0.29584 -0.50941 72 58 32
1.64392 -0.31255 -0.49623 102 105 98
1.63768 -0.32029 -0.50247 83 78 81
1.65306 -0.31325 -0.48243 91 78 66
1.17554 -0.66065 0.16610 75 80 80
1.17290 -0.67343 0.16715 131 128 102
1.18012 -0.67398 0.17805 91 73 56
1.19324 -0.68175 0.17879 36 21 15
1.19059 -0.69459 0.17985 20 18 15
1.72169 -0.97451 0.18660 42 45 42
1.68239 -0.97454 0.21004 78 94 98
1.71374 -1.00272 0.22241 124 131 132
1.72564 -1.01248 0.22608 118 113 113
1.73301 -1.02138 0.23149 100 95 87
1.72985 -1.03666 0.23274 130 133 137
1.73718 -1.02964 0.23810 106 104 111
1.75135 -1.03998 0.24106 124 130 143
1.75504 -1.04819 0.24790 133 130 142
1.78534 -1.06205 0.24513 119 91 94
1.78213 -1.07756 0.24641 79 9 27
1.80088 -1.07288 0.24781 96 41 50
1.80009 -1.08023 0.25637 85 19 32
1.82267 -1.10024 0.26496 116 55 95
1.86348 -1.11697 0.25909 186 161 186
1.83957 -1.11913 0.27571 237 238 240
1.83632 -1.13484 0.27700 254 254 254
1.83883 -1.12650 0.28427 253 254 254
1.84769 -1.12718 0.29766 253 254 254
1.84164 -1.13468 0.29161 254 254 254
1.83559 -1.14219 0.28556 254 254 254
2.66011 -1.48633 0.19158 225 213 185
2.64896 -1.48548 0.17476 254 254 252
2.65250 -1.49576 0.18398 254 253 242
2.65603 -1.50604 0.19320 251 243 218
2.75818 -1.52292 0.17350 192 173 132
2.78381 -1.54921 0.18719 126 108 116
2.76100 -1.55224 0.20412 117 107 119
2.73210 -1.55340 0.22259 119 107 114
2.75200 -1.56857 0.22745 131 127 141
2.70707 -1.56482 0.25008 139 141 172
2.71065 -1.57517 0.25935 162 165 178
2.77942 -1.60494 0.25120 181 182 191
2.79082 -1.60581 0.26841 203 196 193
2.79744 -1.61979 0.25682 195 195 210
2.79749 -1.62926 0.26723 212 208 210
2.80892 -1.63014 0.28449 195 185 179
2.80112 -1.63981 0.27669 207 195 185
2.79331 -1.64949 0.26889 213 208 204
2.95025 -1.88726 0.46045 174 180 196
2.94465 -1.89468 0.47196 174 179 197
2.94216 -1.90318 0.48280 148 148 169
2.92690 -1.90703 0.49613 117 112 136
2.92952 -1.91730 0.50588 95 95 112
2.92280 -1.92415 0.51742 97 85 102
2.91479 -1.93047 0.52916 112 104 113
2.91145 -1.93847 0.53996 147 144 142
2.90726 -1.95874 0.54162 182 179 175
2.91170 -1.94778 0.55006 175 175 171
2.91811 -1.97776 0.57928 145 137 147
2.91393 -1.99800 0.58094 113 117 109
2.72065 -2.05720 0.78434 105 104 112
2.70995 -2.05638 0.76819 92 92 102
2.71335 -2.06625 0.77704 93 92 102
2.73135 -2.05801 0.80050 123 126 129
2.71674 -2.07613 0.78590 93 93 101
2.90701 -2.23207 0.86600 66 56 63
2.82974 -2.21472 0.89291 143 151 156
2.83319 -2.22476 0.90191 154 157 161
2.82576 -2.23397 0.89449 152 154 156
0.91601 0.23638 -0.68241 136 175 254
0.91872 0.24948 -0.68348 141 174 254
0.91366 0.24321 -0.68854 139 173 254
0.92107 0.24265 -0.67736 142 177 253
0.92341 0.23581 -0.67123 143 178 253
0.93725 0.22818 -0.68614 126 165 242
0.96756 0.23041 -0.70685 110 140 222
0.91364 0.20525 -0.64662 77 95 192
0.96838 0.21517 -0.69053 55 60 152
1.00757 0.21980 -0.71924 28 42 110
0.98737 0.20566 -0.69146 19 31 78
0.98459 0.19220 -0.69035 16 9 38
0.98780 0.19803 -0.68331 17 21 60
0.98503 0.18459 -0.68220 12 8 34
0.99326 0.19195 -0.67987 19 14 48
0.99048 0.17849 -0.67877 8 9 34
1.00054 0.18639 -0.67813 14 12 44
1.00244 0.17920 -0.67134 10 14 31
0.99966 0.16571 -0.67023 6 7 13
1.00829 0.14229 -0.63411 12 8 13
1.00779 0.13448 -0.62519 37 19 24
1.00502 0.12105 -0.62408 137 143 138
1.23291 0.12911 -0.75480 71 108 181
1.24260 0.12314 -0.75405 79 122 196
1.24846 0.11621 -0.74993 77 125 200
1.25681 0.10983 -0.74792 68 101 172
1.26149 0.10257 -0.74272 35 77 154
1.25843 0.08773 -0.74150 43 78 162
1.26114 0.09414 -0.73321 87 128 204
1.28152 0.09040 -0.74134 173 206 241
1.28674 0.08318 -0.73652 231 241 246
1.56687 0.05255 -0.87136 236 223 202
1.56624 0.04328 -0.86076 216 196 184
