ply
format ascii 1.0
element face 0
property list uchar int vertex_indices
element vertex 1340
property float x
property float y
property float z
property uchar diffuse_red
property uchar diffuse_green
property uchar diffuse_blue
end_header
2.99823 -2.33453 0.69941 176 177 169
3.03328 -2.35433 0.69843 67 52 113
3.02846 -2.36645 0.71058 141 169 182
3.06672 -2.38719 0.70879 182 198 199
3.05682 -2.40902 0.70896 182 189 196
3.20483 -2.55047 0.77388 182 195 199
3.21427 -2.56621 0.78203 198 208 215
3.21343 -2.57958 0.79325 214 221 226
3.21854 -2.59435 0.80273 229 235 239
3.20832 -2.61689 0.80291 242 245 248
1.69328 -2.30354 1.30714 184 185 173
1.70564 -2.31592 1.31115 68 71 68
1.70713 -2.32545 1.31814 48 44 26
1.70024 -2.34065 1.31827 46 49 44
1.59649 -0.88880 0.19456 13 18 62
1.58896 -0.88556 0.18030 28 27 41
1.62522 -0.90170 0.19092 140 149 160
1.63282 -0.90497 0.20530 153 149 162
1.63136 -0.90981 0.19447 132 130 154
1.63899 -0.91309 0.20888 152 151 169
1.63174 -0.91902 0.20174 106 113 140
1.62450 -0.92496 0.19459 82 71 110
1.78701 -0.95858 0.15768 49 52 116
1.79421 -0.94268 0.15755 103 126 160
1.78661 -0.94891 0.15005 69 97 149
1.79461 -0.95235 0.16518 64 80 124
1.77560 -0.97015 0.17262 79 97 142
1.76528 -0.98147 0.18683 108 134 170
1.76843 -0.99065 0.19272 118 133 167
1.77344 -0.99956 0.19747 133 147 170
1.76862 -1.00996 0.20825 153 163 176
1.78467 -1.02701 0.21418 161 164 180
1.79952 -1.03465 0.21309 156 161 170
1.80278 -1.04396 0.21902 149 147 160
1.81406 -1.05222 0.22017 133 103 120
1.84773 -1.05763 0.20805 113 48 63
1.85636 -1.06643 0.21094 102 23 41
1.85947 -1.08588 0.22515 94 30 41
1.87359 -1.09413 0.22491 99 47 68
1.86507 -1.10507 0.23794 142 118 112
1.90143 -1.11093 0.22486 211 185 192
1.91354 -1.11964 0.22598 247 235 237
1.90606 -1.13613 0.22612 254 254 254
1.91686 -1.12936 0.23221 254 254 251
1.90938 -1.14587 0.23235 254 254 254
2.34547 -1.40120 0.24214 251 254 254
2.35388 -1.38265 0.24199 254 254 254
2.34501 -1.38991 0.23324 254 254 254
2.35435 -1.39393 0.25090 254 254 254
2.35481 -1.40521 0.25980 254 254 254
2.35979 -1.41221 0.24404 242 253 253
2.36915 -1.41624 0.26176 250 252 253
2.37557 -1.42329 0.24527 216 232 243
2.36709 -1.44199 0.24542 99 81 183
2.40045 -1.43434 0.24202 161 160 215
2.41286 -1.44566 0.24510 119 116 189
2.43166 -1.45701 0.24507 157 156 205
2.48877 -1.48001 0.23569 238 253 253
2.51741 -1.49176 0.23117 216 234 243
2.54932 -1.50369 0.22519 174 169 221
2.56986 -1.52765 0.23451 156 168 208
2.60015 -1.54000 0.22966 133 131 166
2.60477 -1.55209 0.23719 104 115 128
2.61009 -1.56423 0.24439 92 104 127
2.63474 -1.57682 0.24251 60 67 81
2.70597 -1.59076 0.21888 44 34 57
2.72511 -1.60363 0.21991 38 34 41
2.73522 -1.61632 0.22523 41 34 29
2.74836 -1.62917 0.22919 17 20 55
2.80013 -1.64355 0.21546 177 187 202
2.79464 -1.65592 0.22815 235 235 242
2.79888 -1.66867 0.23639 242 236 239
2.80159 -1.68137 0.24535 250 251 237
2.80694 -1.69422 0.25312 232 245 219
2.85120 -1.70913 0.24350 168 150 170
2.88189 -1.72356 0.24013 164 144 178
2.84564 -1.73426 0.26655 221 229 228
2.89170 -1.74978 0.25654 201 191 186
2.99733 -1.76940 0.22066 181 152 100
2.98751 -1.79107 0.22083 181 155 114
3.15572 -1.95631 0.29427 77 60 87
3.02622 -2.03526 0.42159 138 128 167
3.01527 -2.03055 0.40088 130 133 202
3.04371 -2.05064 0.42546 163 152 172
3.04196 -2.06363 0.43683 207 216 216
3.03206 -2.08546 0.43700 207 210 219
2.82308 -2.13572 0.60239 110 107 110
2.83248 -2.11498 0.60222 157 162 174
2.82256 -2.12311 0.59243 156 159 155
2.81264 -2.13124 0.58264 156 153 152
2.83300 -2.12760 0.61217 141 152 175
2.81039 -2.14628 0.61714 34 29 68
2.80101 -2.16696 0.61731 46 47 68
2.81756 -2.15992 0.62466 15 27 92
2.81982 -2.17280 0.63397 17 36 88
2.81043 -2.19352 0.63414 59 58 66
2.81884 -2.18515 0.64445 22 43 81
2.80945 -2.20587 0.64462 63 60 68
2.81180 -2.19649 0.65707 23 50 89
2.80242 -2.21716 0.65723 61 64 61
2.81955 -2.21030 0.66444 24 48 68
2.81528 -2.22206 0.67605 38 57 60
2.93389 -2.29399 0.67613 144 152 159
2.97666 -2.32782 0.68254 162 171 179
2.99941 -2.34518 0.68544 180 181 183
3.06794 -2.37169 0.67332 99 95 150
3.01417 -2.37415 0.70165 132 148 156
3.06328 -2.39716 0.69621 176 197 202
3.05336 -2.41903 0.69638 181 191 195
1.69381 -2.31152 1.29785 190 191 185
1.71519 -2.32636 1.29938 69 73 75
1.70854 -2.33375 1.30862 48 44 25
1.70163 -2.34899 1.30874 49 50 46
1.59997 -0.89260 0.18055 16 15 52
1.59240 -0.88934 0.16624 25 28 45
1.59278 -0.89849 0.17345 26 23 40
1.78309 -0.95447 0.13998 58 81 134
1.78567 -0.96380 0.14625 49 53 101
1.76200 -0.97731 0.16890 87 108 147
1.75448 -0.98816 0.18140 99 118 165
1.74733 -1.00394 0.18153 92 96 131
1.76296 -0.99652 0.18397 99 105 140
1.76075 -1.00653 0.19316 126 132 151
1.76221 -1.01598 0.20009 144 150 175
1.76590 -1.02512 0.20566 152 163 188
1.77614 -1.03336 0.20725 142 144 174
1.77914 -1.04266 0.21329 130 117 141
1.80631 -1.04872 0.20475 117 87 112
1.82950 -1.05546 0.19872 107 52 66
1.82219 -1.07159 0.19885 77 27 45
1.83619 -1.06446 0.20270 102 29 43
1.83743 -1.07418 0.20995 99 15 28
1.84154 -1.08356 0.21551 117 48 53
1.85649 -1.09167 0.21467 149 109 107
1.88698 -1.10807 0.21285 213 209 216
1.87955 -1.12447 0.21298 244 242 252
2.31521 -1.39767 0.23524 246 249 254
2.32357 -1.37922 0.23510 254 254 254
2.31475 -1.38645 0.22639 252 254 254
2.33053 -1.40859 0.23650 226 230 249
2.33959 -1.41970 0.24101 181 192 226
2.36792 -1.43060 0.23580 125 127 189
2.40807 -1.45302 0.23407 141 127 195
2.42774 -1.46441 0.23355 197 216 230
2.53055 -1.49943 0.21101 122 126 184
2.53010 -1.51128 0.22081 106 101 165
2.56738 -1.53543 0.22191 119 126 158
2.57879 -1.54756 0.22607 93 103 131
2.58360 -1.55963 0.23346 67 76 82
2.64024 -1.57285 0.21612 49 51 70
2.67034 -1.58574 0.21167 38 34 49
2.68532 -1.59840 0.21449 32 28 42
2.67615 -1.61863 0.21465 11 10 15
2.70483 -1.61129 0.21526 25 26 34
2.71599 -1.62400 0.22003 27 17 27
2.72874 -1.63684 0.22410 30 13 34
2.78281 -1.65138 0.20911 168 164 152
2.77602 -1.66366 0.22240 241 243 239
2.78205 -1.67647 0.22979 249 251 245
2.78637 -1.68924 0.23798 219 224 211
2.81875 -1.70347 0.23347 149 134 124
2.77613 -1.71381 0.26293 72 53 78
2.84466 -1.73027 0.24234 132 105 143
2.84467 -1.74300 0.25264 218 222 222
2.93558 -1.76149 0.22260 177 161 161
2.99783 -1.77861 0.20564 175 151 110
2.98798 -1.80034 0.20581 183 154 121
3.01398 -2.04356 0.41204 109 112 180
3.00303 -2.03885 0.39134 131 97 155
3.00358 -2.05208 0.40178 144 117 159
3.04881 -2.06120 0.40908 181 189 200
3.03888 -2.08312 0.40925 207 212 220
3.06729 -2.07689 0.41263 208 215 224
3.05731 -2.09889 0.41281 205 210 217
2.81215 -2.14370 0.59297 124 116 101
2.80172 -2.13921 0.57323 151 151 147
2.81135 -2.15610 0.60340 59 51 47
2.80195 -2.17684 0.60357 56 52 59
2.81661 -2.18202 0.62177 51 56 68
2.80668 -2.19015 0.61198 55 64 69
2.80720 -2.20277 0.62194 61 64 72
2.80315 -2.22978 0.66708 62 72 64
2.79275 -2.22530 0.64740 62 63 65
2.97012 -2.32399 0.66067 153 161 174
2.97364 -2.33763 0.66997 161 169 182
3.00233 -2.35623 0.67082 180 185 186
3.08998 -2.40006 0.66290 107 92 80
3.17417 -2.56594 0.75547 177 187 193
3.16288 -2.56108 0.73412 166 174 177
3.17655 -2.59353 0.77662 209 217 223
3.19549 -2.62522 0.79288 238 245 248
3.20683 -2.63009 0.81432 250 251 253
3.19605 -2.63892 0.80369 248 252 253
3.18528 -2.64774 0.79306 249 251 253
1.70660 -2.32282 1.28510 193 192 185
1.73007 -2.33833 1.28604 75 74 76
1.71110 -2.34241 1.29873 50 44 26
1.70417 -2.35770 1.29885 49 51 46
1.60329 -0.90570 0.17404 28 32 46
1.59570 -0.90244 0.15968 27 26 34
1.65574 -0.91451 0.15494 101 83 85
1.64878 -0.92985 0.15506 128 130 138
1.76605 -0.94280 0.12269 56 62 112
1.77705 -0.95070 0.12357 53 65 97
1.77925 -0.96009 0.13008 27 39 81
1.78453 -0.96901 0.13465 36 33 86
1.76127 -0.98243 0.15715 75 90 135
1.75141 -0.99365 0.17116 90 112 158
1.75400 -1.01260 0.18521 119 128 150
1.75419 -1.02224 0.19291 133 139 165
1.76108 -1.03093 0.19650 116 118 145
1.77291 -1.03897 0.19709 96 65 107
1.76571 -1.05487 0.19722 66 27 32
1.80225 -1.04470 0.18706 86 43 69
1.81165 -1.05326 0.18929 83 41 56
1.80436 -1.06934 0.18942 62 35 36
1.81668 -1.06244 0.19420 88 41 48
1.82608 -1.08097 0.20450 102 39 67
1.85582 -1.08724 0.19471 167 138 145
1.87630 -1.09479 0.19058 224 226 213
1.88386 -1.10393 0.19420 248 249 242
2.28454 -1.38303 0.21976 247 250 254
2.29285 -1.36468 0.21962 254 254 254
2.28408 -1.37187 0.21096 252 254 254
2.29331 -1.37584 0.22842 254 254 254
2.28905 -1.39409 0.22646 228 235 251
2.30266 -1.40498 0.22846 195 201 235
2.33346 -1.41563 0.22169 159 152 204
2.34909 -1.42670 0.22283 116 108 173
2.36874 -1.43780 0.22200 109 96 173
2.37899 -1.44912 0.22603 152 143 206
2.39588 -1.46044 0.22675 183 197 226
2.41018 -1.47188 0.22886 165 163 217
2.40160 -1.49082 0.22901 93 93 145
2.43519 -1.48339 0.22567 106 112 179
2.42654 -1.50246 0.22583 102 102 138
2.46682 -1.49507 0.21931 95 96 157
2.45811 -1.51429 0.21946 107 109 138
2.50115 -1.50695 0.21176 98 98 147
2.51322 -1.51884 0.21535 109 110 145
2.53068 -1.53087 0.21636 119 131 148
2.55259 -1.54306 0.21526 109 122 140
2.55878 -1.55510 0.22192 75 75 111
2.62547 -1.56842 0.19935 41 39 51
2.63427 -1.58077 0.20495 30 32 45
2.64975 -1.59335 0.20740 27 27 37
2.64063 -1.61345 0.20756 15 7 24
2.66388 -1.60598 0.21055 18 18 29
2.69809 -1.63169 0.21426 35 8 21
2.73327 -1.65784 0.21784 217 211 189
2.76127 -1.67154 0.21492 239 250 226
2.78133 -1.68501 0.21580 202 187 194
2.76099 -1.69657 0.23532 101 102 126
2.75164 -1.71720 0.23549 95 84 79
2.76397 -1.70925 0.24409 89 75 76
2.75461 -1.72989 0.24426 103 86 77
2.76719 -1.72196 0.25277 92 74 70
2.78321 -1.73544 0.25567 125 92 116
2.85181 -1.75230 0.23502 206 210 220
2.92460 -1.76983 0.21282 180 129 151
2.91489 -1.79126 0.21299 171 105 122
2.97418 -1.78622 0.20129 179 142 135
2.96436 -1.80788 0.20146 178 121 126
3.03717 -2.06963 0.39919 197 206 205
3.02614 -2.06489 0.37834 163 156 168
3.02723 -2.09155 0.39937 206 209 215
3.36400 -2.19768 0.33941 184 187 191
3.35335 -2.22117 0.33960 163 163 161
2.80804 -2.15274 0.58102 124 120 113
2.79759 -2.14824 0.56126 148 147 144
2.80592 -2.16494 0.59196 75 64 67
2.79990 -2.23906 0.65496 62 65 61
2.78948 -2.23458 0.63525 59 59 64
2.91938 -2.31175 0.65406 148 155 164
2.90867 -2.30715 0.63380 116 125 126
2.90973 -2.33304 0.65423 157 165 173
2.95932 -2.34526 0.66121 161 171 180
2.94905 -2.35367 0.65107 163 174 180
2.94958 -2.36673 0.66138 173 183 184
2.97870 -2.36206 0.66512 176 186 181
3.04829 -2.38911 0.65222 146 140 137
3.05882 -2.41772 0.67011 138 153 147
3.04833 -2.42632 0.65975 125 139 157
3.04887 -2.43967 0.67028 151 164 185
3.14655 -2.57072 0.75008 177 185 189
3.13908 -2.59582 0.77414 204 214 220
3.16738 -2.62973 0.78743 238 243 246
3.15720 -2.65217 0.78761 248 251 253
1.72253 -2.33506 1.27134 195 195 182
1.73627 -2.34805 1.27499 80 79 76
1.72584 -2.35447 1.28540 51 42 27
1.71886 -2.36986 1.28552 51 50 49
1.62793 -0.91493 0.15351 54 47 67
1.65292 -0.91969 0.14475 122 130 129
1.64596 -0.93505 0.14487 124 125 130
1.77098 -0.93716 0.09926 63 55 46
1.77764 -0.96537 0.11873 29 36 51
1.77690 -0.97526 0.12712 47 47 81
1.76361 -0.98710 0.14342 68 81 120
1.75190 -0.99861 0.15866 76 95 134
1.75130 -1.00839 0.16688 93 102 130
1.74478 -1.01904 0.17878 108 119 155
1.74505 -1.02866 0.18644 107 110 136
1.76524 -1.03549 0.18177 79 59 75
1.75804 -1.05138 0.18190 63 30 32
1.78456 -1.04256 0.17774 67 26 38
1.77731 -1.05855 0.17786 61 37 27
1.80593 -1.07898 0.19643 43 27 48
1.79824 -1.08528 0.18884 45 34 43
1.83138 -1.08570 0.18902 80 66 98
1.84803 -1.09362 0.18702 137 149 165
1.85848 -1.10237 0.18882 184 196 215
1.86837 -1.12125 0.19911 212 222 252
1.86415 -1.13171 0.20971 227 230 250
1.85959 -1.14218 0.22049 248 249 252
1.86000 -1.15211 0.22833 254 254 254
2.26226 -1.37943 0.20920 233 240 247
2.26972 -1.39037 0.21428 202 208 224
2.32308 -1.40032 0.19539 155 144 197
2.33581 -1.41138 0.19792 118 103 188
2.34336 -1.42260 0.20319 130 109 179
2.34220 -1.43398 0.21298 154 145 186
2.32709 -1.44549 0.22994 168 177 210
2.35717 -1.45658 0.22372 163 150 208
2.37896 -1.46787 0.22186 115 124 177
2.40966 -1.47929 0.21560 100 91 166
2.40105 -1.49828 0.21575 108 108 136
2.50157 -1.52644 0.20735 104 113 139
2.51601 -1.53844 0.20977 93 102 128
2.60246 -1.57595 0.19647 24 24 42
2.59342 -1.59587 0.19663 11 8 17
2.61236 -1.58830 0.20147 19 20 34
2.62392 -1.60076 0.20572 14 13 27
2.65368 -1.62611 0.21122 45 12 21
2.69598 -1.63995 0.20105 129 93 78
2.70391 -1.66502 0.21735 226 237 206
2.76670 -1.68033 0.19803 175 153 150
2.75152 -1.69215 0.21527 83 76 105
2.74896 -1.70454 0.22659 77 76 102
2.76777 -1.74322 0.24841 102 85 105
2.75735 -1.73874 0.22870 100 88 78
2.87673 -1.76281 0.20923 169 179 215
2.86710 -1.78404 0.20940 157 123 140
2.90918 -1.77788 0.20504 169 95 135
3.23181 -1.86931 0.11611 187 150 131
3.24337 -1.87428 0.13797 183 157 126
3.23239 -1.88328 0.12713 186 154 124
3.39907 -1.95516 0.10114 182 163 121
3.40985 -1.93138 0.10095 182 155 120
3.39848 -1.94070 0.08973 186 159 124
3.42228 -1.97189 0.10296 147 131 109
3.47176 -1.99147 0.09382 61 55 91
3.49524 -2.00858 0.09581 83 80 92
3.47576 -2.02113 0.11581 152 142 117
3.47636 -2.03581 0.12740 170 153 123
3.52617 -2.05616 0.11872 129 122 127
3.53844 -2.06144 0.14192 182 200 209
3.03388 -2.07918 0.38600 202 210 216
3.02283 -2.07443 0.36511 169 182 187
3.25900 -2.16488 0.34168 195 202 206
3.26945 -2.14184 0.34149 204 208 212
3.25843 -2.15087 0.33062 200 206 212
3.24741 -2.15990 0.31975 195 189 213
3.24798 -2.17391 0.33081 191 189 207
3.30706 -2.18592 0.33444 188 194 199
2.80186 -2.16147 0.56981 124 120 118
2.79140 -2.15698 0.55003 157 146 150
2.79191 -2.16962 0.56001 140 121 117
2.79405 -2.17276 0.58289 84 70 72
2.80118 -2.18647 0.59040 53 40 41
2.80470 -2.19962 0.59926 46 52 55
2.80522 -2.21227 0.60924 52 52 59
2.79527 -2.22041 0.59943 50 50 56
2.79814 -2.24865 0.64227 66 62 72
2.78770 -2.24416 0.62252 57 59 67
2.79947 -2.26142 0.65193 83 87 89
2.90633 -2.31954 0.64502 149 161 169
2.89669 -2.34081 0.64519 157 163 171
3.01479 -2.39300 0.64971 170 166 153
3.00383 -2.38828 0.62897 171 183 190
3.06728 -2.41701 0.64264 107 87 81
3.05729 -2.43905 0.64281 148 169 161
3.13194 -2.57854 0.74076 173 182 184
3.13570 -2.60636 0.76138 200 210 218
3.16135 -2.62618 0.76447 218 227 234
1.73077 -2.35462 1.26717 83 78 74
1.72300 -2.35128 1.25246 199 197 179
1.73125 -2.36405 1.27456 51 39 27
1.72425 -2.37951 1.27468 51 51 51
1.61156 -0.92257 0.15231 29 32 45
1.60392 -0.91928 0.13785 25 23 26
1.64732 -0.92539 0.13636 100 108 133
1.75278 -0.95493 0.10647 78 75 62
1.76074 -0.96336 0.10923 57 58 61
1.75352 -0.97928 0.10936 64 56 75
1.75729 -0.97366 0.11933 52 57 77
1.76586 -0.98205 0.12176 58 64 86
1.76604 -0.99178 0.12955 59 68 98
1.75995 -1.00246 0.14130 54 61 93
1.75386 -1.01310 0.15302 68 73 98
1.74760 -1.02372 0.16482 78 81 115
1.76527 -1.03091 0.16163 63 45 86
1.75805 -1.04685 0.16175 45 23 47
1.76557 -1.04062 0.16933 59 24 51
1.75835 -1.05655 0.16946 49 29 39
1.80161 -1.09471 0.19475 47 36 53
1.81638 -1.10281 0.19378 69 51 79
1.81306 -1.11307 0.20378 107 93 138
1.80574 -1.12923 0.20391 100 67 104
1.83141 -1.12090 0.20076 134 133 180
1.83441 -1.13050 0.20700 123 123 188
1.80895 -1.14311 0.23021 178 181 212
1.83864 -1.14992 0.22057 233 237 243
1.82767 -1.16095 0.23510 248 251 254
1.83583 -1.16446 0.25054 254 254 254
1.83285 -1.17035 0.24007 251 253 254
1.84102 -1.17387 0.25553 254 254 254
1.83326 -1.18023 0.24786 253 254 254
2.25020 -1.35331 0.17531 253 253 254
2.25848 -1.33504 0.17517 254 254 254
2.24974 -1.34220 0.16655 254 254 254
2.25894 -1.34615 0.18393 254 254 254
2.24587 -1.36458 0.18665 241 247 249
2.25665 -1.37537 0.18989 212 221 233
2.24835 -1.39367 0.19003 116 117 154
2.27732 -1.38596 0.18791 167 170 198
2.30970 -1.39640 0.17985 125 113 160
2.30665 -1.40775 0.19060 117 91 160
2.29824 -1.42629 0.19075 187 194 214
2.31256 -1.41893 0.19664 148 128 194
2.29169 -1.43054 0.21669 182 187 212
2.31507 -1.44150 0.21364 180 181 207
2.33678 -1.45261 0.21156 137 143 185
2.37272 -1.46378 0.20226 110 100 170
2.38639 -1.47521 0.20455 114 119 157
2.40200 -1.48673 0.20591 114 115 161
2.39339 -1.50572 0.20607 106 105 132
2.45645 -1.52189 0.20661 100 101 126
2.45597 -1.51018 0.19737 109 108 133
2.48263 -1.53393 0.20300 65 77 106
2.55041 -1.55875 0.18852 26 26 53
2.57888 -1.58341 0.19396 13 15 24
2.60362 -1.60828 0.20148 17 8 13
2.62053 -1.62098 0.20314 64 35 36
2.63533 -1.63369 0.20589 158 114 102
2.66576 -1.64712 0.20123 219 216 171
2.70321 -1.67343 0.20344 142 128 125
2.72070 -1.68669 0.20526 88 73 65
2.72892 -1.69958 0.21150 66 53 76
2.73195 -1.71223 0.22019 69 54 76
2.73938 -1.72514 0.22686 91 85 77
2.73003 -1.74576 0.22703 97 90 79
2.75550 -1.75118 0.23973 94 82 100
2.74560 -1.75929 0.22996 94 85 88
2.93903 -1.77595 0.16615 135 126 171
2.96687 -1.80416 0.17479 157 128 147
2.96742 -1.81738 0.18522 153 105 133
3.13716 -1.84389 0.12008 150 77 111
3.12637 -1.85273 0.10944 135 71 100
3.15548 -1.85906 0.12302 153 82 119
3.19206 -1.87588 0.11798 168 98 123
3.27312 -1.89681 0.09358 178 128 128
3.28481 -1.90183 0.11568 184 158 128
3.29380 -1.91275 0.09594 169 141 140
3.30554 -1.91780 0.11813 185 157 130
3.31871 -1.92921 0.09656 181 161 134
3.34419 -1.94587 0.09706 182 167 123
3.35391 -1.96111 0.10444 139 120 96
3.44171 -1.98441 0.07851 59 53 51
3.43841 -1.99862 0.09170 20 19 57
3.48359 -2.01807 0.08440 63 54 68
3.50456 -2.03508 0.08748 143 136 109
3.50194 -2.04952 0.10051 170 151 112
3.56748 -2.07194 0.08523 90 68 64
3.57230 -2.08743 0.09531 39 43 75
2.79856 -2.18327 0.56767 104 82 64
2.78809 -2.17877 0.54786 203 195 180
2.78861 -2.19143 0.55785 158 148 115
2.79649 -2.19550 0.57863 51 42 28
2.80621 -2.20972 0.58519 42 48 51
2.79913 -2.25877 0.62853 65 64 78
2.78866 -2.25427 0.60873 56 60 66
2.78918 -2.26692 0.61871 63 66 74
2.79068 -2.26976 0.64173 80 81 87
2.78817 -2.28182 0.65277 93 103 96
2.78881 -2.29446 0.66269 106 119 121
2.87954 -2.32464 0.64084 145 159 169
2.86994 -2.34583 0.64101 158 163 173
3.00242 -2.40113 0.64009 179 180 161
2.99146 -2.39642 0.61937 172 181 187
3.04651 -2.42350 0.63572 96 93 100
3.03654 -2.44550 0.63589 149 164 158
3.09859 -2.56842 0.72651 155 166 171
3.08741 -2.56361 0.70536 149 160 158
3.08796 -2.57713 0.71602 153 161 163
3.11866 -2.61354 0.75280 196 208 215
3.15673 -2.63652 0.75199 215 226 233
1.72491 -2.36110 1.25944 87 81 74
1.71713 -2.35776 1.24472 201 196 180
1.73517 -2.37328 1.26406 51 39 32
1.72814 -2.38879 1.26419 47 54 45
1.61239 -0.92705 0.13977 16 20 32
1.60472 -0.92375 0.12527 24 25 31
1.60510 -0.93302 0.13258 20 21 34
1.62290 -0.93449 0.14039 68 67 97
1.65389 -0.93837 0.12756 116 122 125
1.65428 -0.94776 0.13497 118 116 122
1.64689 -0.95381 0.12768 111 101 119
1.68795 -0.97058 0.13610 107 102 102
1.74812 -0.97041 0.10495 63 66 71
1.76111 -0.98785 0.11239 61 69 72
1.76383 -0.99720 0.11856 47 49 71
1.75659 -1.01318 0.11869 26 20 33
1.77369 -1.00551 0.12021 35 30 54
1.76642 -1.02153 0.12034 29 20 42
1.77085 -1.01572 0.12995 32 29 59
1.76360 -1.03173 0.13007 29 21 42
1.76423 -1.02646 0.14205 31 33 65
1.75700 -1.04243 0.14218 36 23 41
1.76033 -1.03678 0.15242 39 21 58
1.75310 -1.05273 0.15255 39 24 43
1.77023 -1.08429 0.18581 50 33 44
1.76983 -1.07456 0.17814 47 33 33
1.78238 -1.09258 0.18626 58 40 49
1.78710 -1.10182 0.19132 79 54 46
1.82213 -1.11751 0.18597 101 73 96
1.84618 -1.13478 0.18757 98 73 100
1.81861 -1.14763 0.21218 162 152 157
1.80493 -1.15891 0.22837 211 207 214
1.78850 -1.17037 0.24612 227 223 231
1.81033 -1.17811 0.24114 238 233 237
1.81404 -1.18764 0.24695 248 246 247
1.82218 -1.19114 0.26235 254 254 254
1.81444 -1.19748 0.25472 252 252 253
2.23286 -1.34966 0.16237 249 254 253
2.24112 -1.33143 0.16222 254 254 254
2.23240 -1.33857 0.15362 254 254 254
2.25419 -1.37120 0.16883 185 192 190
2.29402 -1.40381 0.17472 146 128 177
2.27758 -1.41540 0.19258 181 182 199
2.30061 -1.43754 0.19865 149 154 202
2.32200 -1.44862 0.19660 117 112 189
2.34015 -1.45985 0.19634 131 124 173
2.32892 -1.47129 0.21140 156 161 191
2.34603 -1.48264 0.21178 147 152 175
2.38697 -1.49416 0.20000 114 115 144
2.42091 -1.51751 0.20143 104 107 128
2.44443 -1.52941 0.19895 84 91 109
2.50056 -1.54192 0.18016 38 44 69
2.52021 -1.55413 0.17992 21 19 36
2.51132 -1.57374 0.18008 12 10 15
2.53732 -1.56640 0.18104 18 16 29
2.54825 -1.57862 0.18532 13 13 17
2.56954 -1.60325 0.19429 24 9 15
2.59833 -1.61624 0.18998 72 57 49
2.60521 -1.62863 0.19647 171 150 126
2.64499 -1.64232 0.18706 217 218 179
2.64550 -1.65462 0.19676 193 183 177
2.65126 -1.66715 0.20394 110 103 125
2.64209 -1.68739 0.20410 93 79 73
2.67117 -1.68038 0.20440 86 71 75
2.69634 -1.69400 0.20246 89 78 59
2.71191 -1.70725 0.20518 34 27 59
2.70745 -1.71946 0.21736 19 20 63
2.72960 -1.73323 0.21710 80 73 72
2.72025 -1.75384 0.21726 97 90 88
2.94769 -1.79887 0.15789 148 122 140
2.96100 -1.81301 0.16249 152 113 144
3.16017 -1.86923 0.10539 137 75 110
3.17358 -1.88417 0.11058 140 97 118
3.19032 -1.89948 0.11436 133 89 117
3.21486 -1.91561 0.11478 100 63 90
3.25328 -1.93321 0.10923 135 127 114
3.34203 -1.95601 0.08197 118 103 106
3.33132 -1.97962 0.08216 29 25 35
3.36606 -1.97275 0.08315 52 44 46
3.35531 -1.99648 0.08334 36 34 34
3.39718 -1.99038 0.08139 31 25 25
3.38635 -2.01425 0.08158 36 38 34
3.42165 -2.00747 0.08263 30 30 39
3.44685 -2.02479 0.08367 36 38 45
3.51196 -2.04678 0.06793 118 122 91
3.50018 -2.06020 0.08487 166 149 106
3.56272 -2.08243 0.07066 88 60 52
3.55153 -2.10712 0.07086 37 35 54
3.57807 -2.09925 0.07637 26 29 46
3.57113 -2.11336 0.09137 63 74 87
3.58357 -2.11871 0.11489 134 139 145
3.57175 -2.12839 0.10323 109 113 113
3.18612 -2.17534 0.33998 202 210 223
3.18555 -2.16148 0.32904 196 201 214
3.17465 -2.17041 0.31829 225 233 235
2.79630 -2.20531 0.56513 49 48 30
2.81012 -2.22030 0.57015 32 39 33
2.80845 -2.23263 0.58100 47 49 58
2.81897 -2.23716 0.60090 54 53 60
2.80897 -2.24535 0.59104 53 54 61
2.79897 -2.25354 0.58117 52 54 61
2.78934 -2.27951 0.62882 76 76 84
2.77887 -2.27501 0.60903 63 62 73
2.79469 -2.29308 0.63706 89 97 91
2.78907 -2.30456 0.64925 96 108 114
2.86011 -2.33111 0.63415 143 156 166
2.98717 -2.40866 0.63149 182 183 176
2.97622 -2.40395 0.61078 172 183 188
2.97731 -2.43041 0.63166 156 162 157
3.06889 -2.58585 0.73291 161 171 179
3.10203 -2.62079 0.74414 189 199 203
3.13962 -2.64372 0.74335 205 214 225
1.71972 -2.36778 1.25151 90 79 74
1.71193 -2.36443 1.23678 202 196 173
1.72950 -2.37985 1.25624 49 38 27
1.72247 -2.39537 1.25637 50 54 46
1.40897 -0.85490 0.17137 30 26 32
1.41544 -0.84063 0.17126 21 27 46
1.40861 -0.84622 0.16452 24 23 40
1.41580 -0.84931 0.17811 24 24 33
1.41615 -0.85799 0.18496 22 23 27
1.40933 -0.86359 0.17822 21 25 28
1.61244 -0.94104 0.13527 35 33 65
1.60476 -0.93774 0.12073 23 24 34
1.71057 -0.97178 0.10910 81 83 92
1.75406 -0.97447 0.08865 46 44 47
1.75771 -0.98367 0.09420 58 58 61
1.76335 -0.99258 0.09848 53 52 59
1.75610 -1.00860 0.09861 41 26 44
1.77439 -1.00072 0.09933 36 26 52
1.76711 -1.01678 0.09946 38 26 36
1.74610 -1.08286 0.18061 53 35 46
1.75331 -1.06695 0.18048 46 34 34
1.74571 -1.07319 0.17298 46 32 46
1.73810 -1.07942 0.16547 64 40 62
1.75969 -1.09091 0.18006 67 41 52
1.75876 -1.11054 0.19645 115 97 79
1.75761 -1.12043 0.20506 131 115 101
1.79009 -1.13641 0.20110 157 127 119
1.80501 -1.14469 0.20005 177 143 126
1.77581 -1.16735 0.23360 204 185 188
1.77648 -1.17708 0.24114 212 191 193
1.76789 -1.18767 0.25419 224 206 207
1.76964 -1.19727 0.26106 234 226 228
1.79754 -1.20462 0.25249 243 240 241
1.80566 -1.20811 0.26785 253 254 254
1.80286 -1.21402 0.25735 246 247 248
1.81099 -1.21752 0.27273 254 254 254
1.80700 -1.22355 0.26291 237 242 250
1.81514 -1.22705 0.27831 254 254 254
1.81034 -1.23317 0.26896 241 245 252
1.81849 -1.23667 0.28437 254 254 254
1.81074 -1.24302 0.27673 251 252 254
2.23326 -1.35648 0.14876 216 223 229
2.24604 -1.36720 0.15080 165 167 183
2.27198 -1.38886 0.15484 139 135 143
2.25836 -1.40041 0.17129 176 180 191
2.24396 -1.41189 0.18808 199 196 226
2.23566 -1.43021 0.18823 145 122 196
2.30103 -1.43340 0.17581 136 136 181
2.31687 -1.44454 0.17660 118 111 179
2.30649 -1.45598 0.19127 153 150 202
2.29076 -1.46738 0.20870 191 194 211
2.31396 -1.47862 0.20573 173 170 194
2.37133 -1.49004 0.18512 116 120 136
2.37852 -1.50159 0.19074 103 105 131
2.46672 -1.53737 0.17382 48 57 61
2.48770 -1.54951 0.17274 23 21 49
2.47886 -1.56901 0.17289 11 6 14
2.50531 -1.56170 0.17345 15 14 23
2.52799 -1.58608 0.18140 14 5 16
2.54862 -1.59864 0.18084 34 11 19
2.56120 -1.61106 0.18436 98 72 65
2.61150 -1.63707 0.17925 203 196 172
2.61184 -1.64929 0.18897 162 140 148
2.60272 -1.66939 0.18914 88 77 73
2.62004 -1.66185 0.19488 100 91 97
2.61091 -1.68199 0.19504 94 81 79
2.65124 -1.67553 0.18973 85 75 84
2.64204 -1.69582 0.18989 96 84 77
2.67308 -1.70131 0.19925 94 79 67
2.69713 -1.71502 0.19784 27 15 39
2.69764 -1.72750 0.20769 17 12 36
2.71685 -1.74113 0.20873 82 73 75
2.70751 -1.76173 0.20890 100 90 85
2.81499 -1.78556 0.19365 115 94 95
2.80438 -1.78099 0.17359 99 89 84
2.96539 -1.80944 0.13473 145 117 143
2.94992 -1.82148 0.15254 160 127 164
2.94007 -1.84323 0.15271 143 94 129
3.01474 -1.83984 0.13367 151 110 145
3.11085 -1.86117 0.10094 144 83 109
3.13044 -1.87652 0.10317 136 99 110
3.15717 -1.89261 0.10230 114 69 104
3.16725 -1.90732 0.10898 87 42 71
3.18715 -1.92303 0.11134 81 48 67
3.24455 -1.94252 0.09727 83 59 57
3.23404 -1.96571 0.09745 61 39 37
3.29618 -1.96177 0.08599 44 37 40
3.28555 -1.98521 0.08618 45 34 40
3.43422 -2.03411 0.07276 18 25 40
3.42209 -2.02889 0.04981 38 35 31
3.54838 -2.06193 0.03588 98 103 102
3.52732 -2.07436 0.05692 158 141 107
3.54561 -2.09146 0.06125 87 61 52
3.53444 -2.11611 0.06145 41 35 47
3.56783 -2.12413 0.07616 60 67 84
3.63017 -2.14726 0.06246 77 91 100
3.64278 -2.15269 0.08631 130 138 142
3.61881 -2.17233 0.06266 92 108 123
2.78862 -2.20128 0.54421 200 197 177
2.78810 -2.18858 0.53420 242 245 233
2.77812 -2.19676 0.52435 236 242 242
2.80277 -2.21632 0.54903 75 68 67
2.79672 -2.22790 0.56157 41 31 26
2.81322 -2.24346 0.56559 45 49 57
2.80371 -2.26444 0.56576 51 55 62
2.79370 -2.29039 0.61377 73 72 83
2.78320 -2.28587 0.59390 61 62 72
2.79314 -2.30287 0.62418 85 93 89
2.79007 -2.31486 0.63549 85 96 112
2.84083 -2.33756 0.62746 142 160 166
2.83126 -2.35866 0.62763 153 169 185
2.85311 -2.35277 0.63340 158 169 181
2.86376 -2.35735 0.65353 163 169 181
2.85364 -2.36564 0.64355 162 175 183
2.84352 -2.37393 0.63357 154 169 185
2.96862 -2.41546 0.62407 179 188 191
2.95770 -2.41076 0.60340 159 177 188
2.95878 -2.43718 0.62424 171 177 154
3.04633 -2.59156 0.72631 178 179 182
3.03523 -2.58678 0.70531 205 209 209
3.03578 -2.60021 0.71589 220 224 224
3.03633 -2.61363 0.72648 227 232 232
3.06901 -2.61051 0.72986 187 190 194
3.05896 -2.63269 0.73004 232 237 236
3.09692 -2.64435 0.74275 203 204 213
3.08681 -2.66666 0.74293 241 244 244
1.71173 -2.37368 1.24437 94 79 67
1.70395 -2.37033 1.22965 209 198 173
1.72396 -2.38647 1.24837 52 39 27
1.71692 -2.40200 1.24850 50 52 48
1.38945 -0.84584 0.15943 22 19 45
1.39590 -0.83162 0.15931 21 25 36
1.38910 -0.83719 0.15261 19 22 38
1.39625 -0.84027 0.16614 21 24 36
1.39308 -0.85376 0.16394 44 33 58
1.39273 -0.86257 0.17126 59 66 59
1.60537 -0.94698 0.12791 21 20 48
1.59768 -0.94368 0.11337 24 23 31
1.61979 -0.95383 0.12588 76 73 91
1.69979 -0.97848 0.10380 84 81 94
1.69187 -0.97507 0.08883 99 98 102
1.74177 -0.98146 0.08415 64 53 57
1.75188 -0.98965 0.08548 56 46 54
1.76036 -0.99815 0.08791 49 31 51
1.73170 -1.08994 0.17736 80 54 56
1.72371 -1.08651 0.16226 84 61 71
1.74157 -1.09844 0.17906 108 82 57
1.70788 -1.11217 0.20790 139 114 94
1.71977 -1.12042 0.20833 154 132 120
1.73252 -1.12864 0.20830 161 144 129
1.74822 -1.13662 0.20651 165 144 136
1.75949 -1.15493 0.21543 198 176 159
1.75224 -1.17093 0.21556 212 196 185
1.75639 -1.18453 0.24104 219 201 192
1.74915 -1.20051 0.24117 230 218 210
1.74794 -1.20478 0.26190 228 217 217
1.76583 -1.21298 0.25914 231 225 223
1.75655 -1.22352 0.27256 217 209 217
1.75410 -1.23345 0.28190 167 165 206
1.76708 -1.24220 0.28217 182 190 229
1.80613 -1.24913 0.26726 235 242 253
1.81429 -1.25264 0.28269 254 254 254
1.80653 -1.25899 0.27504 253 254 254
2.20801 -1.34202 0.13130 239 241 250
2.22373 -1.35254 0.13156 201 195 225
2.24233 -1.37423 0.13937 153 137 165
2.24366 -1.38538 0.14769 175 169 182
2.24214 -1.39660 0.15759 209 208 219
2.24375 -1.40774 0.16577 205 201 219
2.25315 -1.41874 0.16975 163 152 207
2.29259 -1.44068 0.16680 160 149 188
2.25358 -1.45234 0.19675 190 194 211
2.25754 -1.46351 0.20372 202 207 226
2.31184 -1.47457 0.18414 170 161 201
2.35469 -1.48594 0.17084 113 112 145
2.36071 -1.49746 0.17701 94 104 120
2.37143 -1.50903 0.18075 91 98 126
2.44897 -1.53307 0.15948 46 46 65
2.44654 -1.54480 0.17026 22 17 37
2.43777 -1.56415 0.17042 12 5 18
2.47007 -1.55700 0.16777 15 9 33
2.50512 -1.58150 0.16922 21 8 12
2.51317 -1.59365 0.17483 54 33 30
2.52292 -1.60590 0.17963 129 93 75
2.53011 -1.61811 0.18575 189 178 125
2.56945 -1.63155 0.17596 190 182 134
2.54192 -1.64256 0.19936 140 119 106
2.53295 -1.66237 0.19952 93 80 74
2.55910 -1.65532 0.20066 94 73 86
2.55009 -1.67520 0.20082 95 83 79
2.65558 -1.70887 0.19336 94 82 70
2.64533 -1.70447 0.17399 95 84 81
2.64584 -1.71685 0.18375 96 85 74
2.68732 -1.72306 0.18817 47 37 55
2.68783 -1.73553 0.19801 47 33 44
2.67853 -1.75604 0.19817 100 89 82
2.69907 -1.74869 0.20277 92 84 72
2.68975 -1.76926 0.20293 98 87 82
2.82726 -1.79545 0.17328 99 87 90
2.81659 -1.79086 0.15311 97 86 82
2.81712 -1.80375 0.16328 95 85 78
3.06386 -1.86693 0.10684 142 108 110
3.10019 -1.88367 0.10132 103 75 80
3.10475 -1.89774 0.11033 85 36 57
3.09452 -1.92030 0.11051 81 26 34
3.13420 -1.91418 0.10817 84 37 48
3.12391 -1.93688 0.10835 79 26 45
3.15675 -1.93012 0.10923 81 33 54
3.14641 -1.95293 0.10941 73 28 36
3.43729 -2.04524 0.05507 18 22 39
3.42512 -2.04001 0.03205 37 32 32
3.51435 -2.06897 0.03380 91 92 101
3.52063 -2.08460 0.04316 153 142 117
3.53191 -2.10088 0.05043 85 67 50
3.52074 -2.12553 0.05063 40 35 40
3.55758 -2.13404 0.06381 59 61 77
3.58604 -2.15281 0.06406 55 67 91
3.57475 -2.17771 0.06426 100 115 128
2.77832 -2.20940 0.53449 209 200 193
2.76783 -2.20488 0.51463 231 237 242
2.78187 -2.22262 0.54334 116 82 86
2.79813 -2.23812 0.54735 46 28 21
2.81924 -2.25459 0.54961 42 50 51
2.80969 -2.27565 0.54978 52 54 60
2.79022 -2.29982 0.60152 71 70 81
2.77971 -2.29530 0.58162 60 63 70
2.78075 -2.32073 0.60169 81 85 82
2.78869 -2.31213 0.61230 82 91 84
2.78902 -2.32480 0.62240 73 87 108
2.84376 -2.34846 0.61280 133 151 171
1.70474 -2.37986 1.23695 102 77 61
1.71099 -2.39096 1.24267 54 39 26
1.70396 -2.40646 1.24279 48 49 47
1.71562 -2.41095 1.25644 40 38 37
1.72343 -2.41431 1.27121 26 25 24
1.71600 -2.42039 1.26388 27 26 27
1.38282 -0.84265 0.14553 39 22 43
1.38926 -0.82843 0.14542 22 25 37
1.38246 -0.83400 0.13871 23 20 31
1.38857 -0.85882 0.15559 112 107 115
1.39219 -0.86677 0.16011 128 133 113
1.39810 -0.87425 0.16304 60 71 53
1.40819 -0.88087 0.16305 22 19 26
1.41540 -0.88397 0.17669 20 24 33
1.40855 -0.88959 0.16993 16 21 35
1.40169 -0.89521 0.16316 20 20 36
1.59548 -0.95342 0.12244 24 19 36
1.58780 -0.95012 0.10792 22 22 31
1.58818 -0.95940 0.11524 31 18 41
1.59888 -0.96218 0.12774 45 39 71
1.63385 -0.96562 0.11196 98 102 114
1.63424 -0.97501 0.11937 109 101 104
1.62685 -0.98107 0.11208 112 106 109
1.67805 -0.98692 0.10577 87 89 94
1.71615 -0.99053 0.08847 73 62 77
1.74464 -0.99585 0.07766 63 51 57
1.75165 -1.00459 0.08102 58 43 48
1.76275 -1.02260 0.08973 51 34 45
1.77084 -1.02608 0.10503 42 28 39
1.76315 -1.03238 0.09744 53 36 43
1.75546 -1.03868 0.08985 68 48 56
1.71107 -1.09776 0.17809 112 90 83
1.70391 -1.11357 0.17822 149 132 117
1.71221 -1.10729 0.18521 137 115 100
1.70505 -1.12310 0.18534 160 144 137
1.68806 -1.11977 0.20815 148 126 117
1.68095 -1.13546 0.20828 173 155 152
1.70463 -1.12747 0.20560 157 133 132
1.69748 -1.14324 0.20572 190 165 160
1.72805 -1.13451 0.19888 168 147 138
1.72141 -1.14493 0.21085 183 160 154
1.71422 -1.16078 0.21097 204 187 177
1.72838 -1.15388 0.21440 198 178 166
1.72512 -1.16392 0.22426 207 187 176
1.71793 -1.17978 0.22439 218 204 195
1.73362 -1.21160 0.25840 221 214 210
1.73616 -1.22109 0.26475 193 186 194
1.73609 -1.23080 0.27266 149 130 151
1.72888 -1.24670 0.27279 83 74 77
1.74924 -1.23949 0.27272 87 71 121
1.75956 -1.24847 0.27453 119 122 173
2.15716 -1.31784 0.11971 250 253 253
2.16532 -1.29985 0.11956 254 254 254
2.15671 -1.30690 0.11107 254 254 254
2.16576 -1.31079 0.12819 254 254 254
2.18670 -1.33857 0.12083 230 232 246
2.17847 -1.35671 0.12098 180 176 215
2.20585 -1.34891 0.11904 198 200 231
2.22415 -1.35938 0.11782 162 146 207
2.22869 -1.38156 0.13339 211 208 214
2.23106 -1.39267 0.14114 216 218 229
2.23102 -1.40384 0.15021 183 182 221
2.23897 -1.41485 0.15492 157 150 202
2.25481 -1.42579 0.15538 155 138 198
2.24349 -1.43717 0.17061 191 174 217
2.24215 -1.44838 0.18041 223 224 229
2.24967 -1.45951 0.18545 204 213 224
2.28499 -1.47059 0.17567 145 140 191
2.31123 -1.48188 0.17090 105 97 151
2.34086 -1.49334 0.16446 86 92 118
2.38410 -1.51665 0.16040 44 49 78
2.38994 -1.52832 0.16677 27 24 54
2.38127 -1.54744 0.16692 12 7 19
2.42463 -1.55216 0.16768 13 7 26
2.47332 -1.58860 0.17137 89 67 53
2.49593 -1.60113 0.16952 159 138 105
2.50140 -1.61323 0.17642 202 189 141
2.51631 -1.62569 0.17862 177 163 133
2.50856 -1.63737 0.19220 116 100 97
2.52487 -1.65001 0.19378 93 74 74
2.51592 -1.66977 0.19394 98 87 80
2.65901 -1.72999 0.18741 89 76 66
2.64874 -1.72557 0.16798 97 86 80
2.64925 -1.73799 0.17778 97 87 78
2.64976 -1.75040 0.18758 98 88 74
2.67238 -1.74321 0.19104 93 80 62
2.66310 -1.76370 0.19120 98 87 82
2.95851 -1.84091 0.11835 141 101 104
3.00253 -1.85788 0.10874 136 108 112
3.05509 -1.87586 0.09541 99 65 62
3.06644 -1.89043 0.10120 81 36 58
3.05627 -1.91286 0.10138 81 22 46
3.09475 -1.90666 0.09933 83 34 38
3.43352 -2.05563 0.04026 20 24 45
3.42134 -2.05039 0.01721 30 33 29
3.42194 -2.06512 0.02883 23 28 38
3.50177 -2.07850 0.02257 77 73 73
3.51265 -2.09470 0.02993 136 127 104
3.51945 -2.11045 0.03909 80 62 49
3.50828 -2.13510 0.03928 34 31 35
3.54187 -2.14323 0.05376 55 53 62
3.09641 -2.16601 0.30869 219 228 237
2.77636 -2.21897 0.52152 217 213 206
2.79209 -2.23438 0.52567 140 118 107
2.80634 -2.24962 0.53045 47 28 24
2.82993 -2.26665 0.53174 43 48 55
2.82033 -2.28781 0.53191 54 52 63
2.79109 -2.31013 0.58761 68 70 82
2.78054 -2.30560 0.56766 61 61 67
2.78158 -2.33109 0.58778 81 78 89
2.78364 -2.33392 0.61085 70 76 100
2.83128 -2.35627 0.60367 128 144 168
2.86432 -2.37587 0.60203 153 170 187
2.86485 -2.38883 0.61225 157 171 184
2.85465 -2.39718 0.60220 160 169 184
2.96740 -2.44985 0.60728 173 182 177
2.96686 -2.43659 0.59682 161 169 188
2.95643 -2.44513 0.58653 161 175 188
2.96794 -2.46312 0.61775 145 157 156
2.76680 -2.48111 0.73910 199 203 202
2.75225 -2.49014 0.75415 208 213 214
1.67720 -2.37088 1.22815 215 202 185
1.68417 -2.35550 1.22803 246 247 239
1.67682 -2.36153 1.22077 254 253 243
1.66946 -2.36755 1.21352 254 253 244
1.69655 -2.38569 1.22989 115 83 77
1.70309 -2.39689 1.23550 55 35 24
1.69606 -2.41239 1.23562 41 41 44
1.70730 -2.41677 1.24937 38 37 41
1.70027 -2.43228 1.24950 22 21 18
1.71156 -2.42736 1.25570 26 25 27
1.71938 -2.43073 1.27049 22 23 19
1.71195 -2.43681 1.26316 21 23 17
1.70452 -2.44290 1.25583 19 20 13
1.38400 -0.84641 0.13308 99 97 81
1.37754 -0.86067 0.13319 125 137 143
1.38447 -0.85506 0.13983 125 130 124
1.38524 -0.88114 0.16057 99 95 97
1.40211 -0.88632 0.15573 34 23 40
1.39561 -0.90067 0.15585 26 18 21
1.59039 -0.96837 0.12133 31 19 60
1.63050 -0.97099 0.10196 93 90 111
1.65072 -0.98667 0.10383 104 101 104
1.67464 -0.99241 0.09566 95 93 96
1.71298 -0.99606 0.07807 82 71 88
1.73577 -1.00231 0.07092 74 59 68
1.74066 -1.01136 0.07564 68 50 59
1.74341 -1.02076 0.08179 64 46 55
1.75374 -1.02909 0.08300 64 45 56
1.68935 -1.10567 0.17962 136 117 99
1.69174 -1.15348 0.21711 199 174 168
1.68382 -1.15008 0.20213 199 176 173
1.70129 -1.17175 0.22680 211 196 186
1.69414 -1.18754 0.22693 220 211 207
1.71292 -1.19960 0.24315 226 216 203
1.71252 -1.18997 0.23556 227 211 203
1.71478 -1.20911 0.24986 208 199 198
1.70878 -1.21928 0.26132 167 159 168
1.70876 -1.22893 0.26916 124 107 133
1.70160 -1.24474 0.26929 94 82 80
1.73709 -1.23636 0.26000 95 77 93
1.72986 -1.25231 0.26013 97 85 72
1.74917 -1.25494 0.26859 97 92 108
1.75877 -1.26404 0.27082 169 182 199
1.78895 -1.27184 0.26097 230 242 249
1.78160 -1.28804 0.26110 217 225 250
2.11134 -1.31570 0.12371 247 251 252
2.11941 -1.29789 0.12357 254 254 254
2.11090 -1.30487 0.11517 250 254 254
2.10238 -1.31185 0.10677 228 235 251
2.16575 -1.33514 0.11031 209 214 235
2.18273 -1.34550 0.10960 196 198 225
2.20182 -1.36700 0.11681 197 185 225
2.20100 -1.37814 0.12628 228 223 238
2.21527 -1.38887 0.12733 212 217 231
2.22364 -1.39983 0.13173 173 172 212
2.22760 -1.41092 0.13860 160 151 205
2.22850 -1.42208 0.14717 185 181 218
2.22733 -1.43328 0.15688 218 213 231
2.23252 -1.44440 0.16311 239 236 243
2.23609 -1.45556 0.17025 204 219 224
2.26779 -1.46660 0.16221 132 140 179
2.30375 -1.47782 0.15203 92 89 137
2.30747 -1.48923 0.15928 76 84 109
2.32442 -1.50070 0.15950 52 60 78
2.33292 -1.51222 0.16428 30 31 64
2.40855 -1.55958 0.16215 16 5 14
2.43178 -1.57180 0.15960 48 21 29
2.45519 -1.58416 0.15708 122 90 71
2.47088 -1.59644 0.15863 188 170 115
2.46573 -1.60816 0.17088 204 192 148
2.48295 -1.62061 0.17175 163 137 125
2.47406 -1.64022 0.17191 88 76 65
2.48016 -1.63242 0.18282 105 88 87
2.49499 -1.64492 0.18500 90 69 82
2.48608 -1.66458 0.18516 96 88 87
2.50101 -1.65712 0.19167 95 83 80
2.49209 -1.67681 0.19183 96 86 80
2.95523 -1.85008 0.10465 122 92 100
2.99928 -1.86717 0.09489 93 65 63
3.02315 -1.88272 0.09471 77 34 49
3.04734 -1.89845 0.09449 80 23 49
3.08849 -1.92961 0.09770 87 36 50
3.07769 -1.93845 0.08705 91 62 69
3.08905 -1.94334 0.10853 82 56 47
3.48688 -2.08774 0.01235 55 48 46
3.47453 -2.08243 -0.01100 32 30 32
3.52614 -2.10752 0.00735 121 108 86
3.50644 -2.11995 0.02799 76 53 41
3.53669 -2.15382 0.03924 52 49 55
3.53733 -2.16890 0.05112 67 73 90
3.08617 -2.17491 0.29785 211 220 238
2.76095 -2.21359 0.50356 228 234 242
2.77041 -2.19271 0.50340 229 236 245
2.76042 -2.20090 0.49355 225 233 241
2.75044 -2.20908 0.48369 219 226 238
2.75096 -2.22178 0.49371 223 230 240
2.76082 -2.22618 0.51384 221 220 217
2.77671 -2.24164 0.51785 154 140 126
2.82499 -2.26311 0.50938 46 29 28
2.83571 -2.27789 0.51562 41 47 63
2.82608 -2.29913 0.51579 54 53 62
2.78395 -2.34422 0.59715 68 70 95
2.77340 -2.33968 0.57720 75 76 82
2.79235 -2.35860 0.60431 118 132 160
2.86878 -2.38730 0.58661 156 172 187
2.85909 -2.40868 0.58678 162 170 186
2.96725 -2.46068 0.59333 166 177 181
2.95625 -2.45595 0.57252 165 176 185
2.95734 -2.48254 0.59350 138 145 147
2.76671 -2.47906 0.71573 187 199 214
2.73703 -2.48450 0.73606 191 206 219
2.73461 -2.49639 0.74699 196 214 225
1.68843 -2.38225 1.21527 218 203 187
1.68065 -2.37890 1.20054 251 253 244
1.68962 -2.39189 1.22245 121 82 80
1.69111 -2.40162 1.22954 56 28 23
1.69838 -2.42240 1.24249 32 30 33
1.36723 -0.84551 0.12648 29 36 54
1.36008 -0.84244 0.11296 24 26 44
1.37892 -0.86912 0.13929 112 119 121
1.37855 -0.88670 0.15375 104 101 83
1.56921 -0.95808 0.10844 27 24 33
1.57610 -0.94288 0.10832 23 24 19
1.56883 -0.94883 0.10115 22 26 23
1.57747 -0.97530 0.11794 36 25 64
1.62533 -0.97668 0.09316 91 88 105
1.64327 -0.99277 0.09649 111 108 111
1.65988 -0.99969 0.09311 104 101 105
1.68866 -1.00485 0.08171 93 85 96
1.71718 -1.01022 0.07064 85 71 80
1.72247 -1.01919 0.07505 81 63 68
1.73650 -1.03673 0.08168 82 62 74
1.67716 -1.10280 0.16739 148 128 101
1.66925 -1.09939 0.15243 157 136 122
1.66964 -1.10895 0.15997 167 147 139
1.67003 -1.11851 0.16751 175 154 144
1.65193 -1.12494 0.19900 173 151 138
1.65232 -1.13442 0.20648 181 160 152
1.66117 -1.16205 0.22410 205 186 182
1.65409 -1.17767 0.22423 218 206 199
1.66786 -1.17092 0.22768 210 197 187
1.67313 -1.17996 0.23215 217 205 197
1.68653 -1.19787 0.23943 216 207 205
1.70120 -1.20618 0.23822 185 176 180
1.71065 -1.22470 0.24813 100 83 106
1.70346 -1.24055 0.24826 97 84 80
1.72549 -1.23319 0.24698 89 74 88
1.71827 -1.24912 0.24711 97 86 79
1.74187 -1.26119 0.26083 84 74 75
1.73382 -1.25772 0.24559 97 82 72
1.78768 -1.27777 0.24948 200 213 233
1.78032 -1.29400 0.24961 179 191 236
2.10878 -1.32241 0.11187 211 217 241
2.15683 -1.33122 0.09301 186 189 226
2.16288 -1.34199 0.09846 182 182 219
2.17465 -1.35259 0.10069 193 196 218
2.18223 -1.36340 0.10536 215 217 229
2.18658 -1.37435 0.11188 237 236 245
2.19625 -1.38518 0.11543 220 221 241
2.21006 -1.39596 0.11670 180 176 220
2.21645 -1.40698 0.12218 173 166 208
2.21955 -1.41810 0.12952 207 203 225
2.21122 -1.43648 0.12967 252 253 253
2.22183 -1.42925 0.13733 239 238 245
2.21891 -1.44047 0.14801 246 249 248
2.22361 -1.45161 0.15450 214 217 232
2.25025 -1.46263 0.14902 144 146 188
2.28331 -1.47380 0.14018 91 94 136
2.29023 -1.48517 0.14566 73 76 95
2.30315 -1.49659 0.14793 44 54 63
2.31537 -1.50808 0.15063 23 24 43
2.30683 -1.52692 0.15078 11 12 15
2.32522 -1.51963 0.15467 15 16 32
2.31666 -1.53851 0.15482 11 7 16
2.34570 -1.53136 0.15310 11 12 26
2.37317 -1.55494 0.15735 25 12 16
2.40356 -1.56722 0.15086 71 49 38
2.40141 -1.57887 0.16148 150 122 104
2.41791 -1.59102 0.16240 204 194 147
2.43590 -1.60332 0.16263 197 187 132
2.45667 -1.62768 0.17114 97 75 75
2.44782 -1.64720 0.17130 95 85 70
2.47431 -1.65214 0.18144 95 81 75
2.46494 -1.65982 0.17219 97 86 76
2.46542 -1.67175 0.18159 96 87 86
2.91457 -1.84290 0.09784 94 81 76
2.90361 -1.83819 0.07711 98 85 79
2.96727 -1.86060 0.08367 86 44 69
3.01072 -1.89128 0.08504 73 29 33
3.02820 -1.90642 0.08785 75 17 27
3.01807 -1.92876 0.08803 80 69 41
3.04614 -1.92170 0.09053 81 33 59
3.08617 -1.95301 0.09426 82 47 47
3.07592 -1.97563 0.09444 77 48 59
3.47658 -2.11239 0.01219 107 77 90
3.49762 -2.12999 0.01508 70 32 37
3.53314 -2.14966 0.01180 35 13 21
3.52189 -2.17448 0.01200 168 142 114
3.51665 -2.16241 0.03108 79 64 57
3.50543 -2.18715 0.03128 176 144 101
3.53264 -2.19462 0.04854 70 56 63
3.54512 -2.19999 0.07215 134 148 171
3.53326 -2.20971 0.06045 96 104 140
3.52139 -2.21943 0.04874 98 110 110
3.05274 -2.16668 0.28566 189 201 227
2.79249 -2.24182 0.48749 223 228 225
2.78188 -2.23726 0.46743 219 228 237
2.79482 -2.25497 0.49690 173 165 142
2.83412 -2.27498 0.49185 53 37 28
2.82447 -2.29627 0.49202 47 38 31
2.83586 -2.28816 0.50159 43 42 52
2.79524 -2.35683 0.57928 67 73 90
2.78464 -2.35227 0.55923 75 74 74
2.79785 -2.37008 0.58862 109 117 136
2.87471 -2.39910 0.57055 157 174 191
2.86498 -2.42057 0.57072 163 172 185
2.73261 -2.48146 0.71428 112 121 150
2.72217 -2.47697 0.69455 140 137 137
2.70734 -2.48782 0.73312 98 103 149
2.71879 -2.50304 0.73926 94 93 143
2.60943 -2.48834 0.78653 164 177 163
2.69501 -2.52194 0.76746 229 239 213
2.70535 -2.52638 0.78701 242 243 242
2.68838 -2.53261 0.77971 251 253 217
2.69869 -2.53705 0.79922 243 243 244
2.68889 -2.54508 0.78955 254 253 227
1.69659 -2.39282 1.20321 227 206 191
1.68877 -2.38946 1.18841 224 237 244
1.68916 -2.39891 1.19587 232 231 226
1.68205 -2.39790 1.21520 155 107 96
1.68255 -2.40735 1.22259 101 73 51
1.68488 -2.41734 1.22943 78 55 55
1.69252 -2.42895 1.23471 65 32 17
1.36142 -0.85086 0.11905 23 30 62
1.35427 -0.84778 0.10553 25 29 34
1.37469 -0.85661 0.11647 67 80 98
1.37251 -0.87462 0.13227 102 102 98
1.37601 -0.88262 0.13685 100 93 86
1.37580 -0.89142 0.14411 98 95 56
1.38968 -0.89730 0.14129 60 55 25
1.38317 -0.91164 0.14140 20 27 28
1.39597 -0.90481 0.14394 23 21 24
1.40321 -0.90792 0.15762 24 22 38
1.39633 -0.91355 0.15083 21 26 37
1.38945 -0.91918 0.14405 21 27 25
1.54533 -0.95766 0.10518 28 31 40
1.55218 -0.94254 0.10506 28 22 25
1.54495 -0.94846 0.09792 27 23 30
1.55849 -0.96463 0.10364 45 31 53
1.55161 -0.97982 0.10376 58 55 62
1.56586 -0.97267 0.10613 53 42 56
1.55896 -0.98789 0.10626 59 55 67
1.57497 -0.98047 0.10748 54 54 70
1.62642 -0.99086 0.08779 112 117 117
1.61938 -1.00638 0.08791 123 123 124
1.64565 -1.00687 0.09027 116 113 111
1.63819 -1.01299 0.08290 123 121 119
1.66338 -1.01373 0.08614 108 103 102
1.68857 -1.01959 0.07713 98 90 93
1.70919 -1.02627 0.07128 94 79 79
1.71651 -1.03497 0.07433 95 81 80
1.69853 -1.04724 0.09412 100 87 93
1.67664 -1.05994 0.11639 109 92 97
1.66949 -1.07570 0.11651 141 123 111
1.65218 -1.07284 0.14023 120 100 99
1.65256 -1.08235 0.14773 133 115 103
1.64509 -1.08848 0.14035 152 135 114
1.63126 -1.13257 0.20011 185 161 152
1.62346 -1.12921 0.18534 186 165 155
1.62384 -1.13865 0.19279 194 173 163
1.63421 -1.14172 0.20592 193 169 159
1.63460 -1.15116 0.21337 200 178 168
1.64041 -1.16954 0.22510 211 196 193
1.65143 -1.18747 0.23363 216 208 199
1.65773 -1.19641 0.23744 196 187 192
1.66465 -1.20533 0.24090 158 150 164
1.65744 -1.21552 0.25311 114 97 129
1.65035 -1.23115 0.25323 93 82 79
1.69223 -1.22214 0.23946 90 75 94
1.68507 -1.23795 0.23958 97 85 72
1.73531 -1.26738 0.25262 101 78 84
1.72765 -1.27366 0.24506 144 127 136
1.76189 -1.27541 0.24460 136 129 147
1.79506 -1.28318 0.23278 176 189 217
1.78767 -1.29949 0.23291 154 165 205
2.09664 -1.31870 0.09674 172 178 225
2.10472 -1.30087 0.09660 223 232 253
2.09619 -1.30786 0.08819 172 183 232
2.12288 -1.32840 0.09027 157 159 210
2.14673 -1.33836 0.08532 161 161 219
2.15612 -1.34902 0.08883 185 189 227
2.15896 -1.35995 0.09615 210 226 233
2.17402 -1.37051 0.09649 223 239 244
2.17913 -1.38145 0.10257 214 220 237
2.20408 -1.39191 0.09741 190 188 224
2.20574 -1.40304 0.10554 185 180 222
2.20068 -1.41431 0.11745 218 214 234
2.20288 -1.42543 0.12526 247 247 249
2.21172 -1.44765 0.13847 218 224 244
2.24916 -1.45857 0.12685 147 148 200
2.27369 -1.46976 0.12252 94 87 142
2.28014 -1.48112 0.12821 63 60 99
2.29591 -1.49253 0.12885 37 39 57
2.29590 -1.50396 0.13813 20 22 35
2.28738 -1.52274 0.13828 11 12 16
2.30590 -1.51546 0.14200 15 15 26
2.32983 -1.55022 0.15712 36 16 25
2.38696 -1.57459 0.14566 169 154 116
2.39555 -1.58650 0.15063 205 201 162
2.40915 -1.59861 0.15302 176 165 146
2.42694 -1.61094 0.15330 114 102 97
2.41813 -1.63037 0.15346 90 79 76
2.43555 -1.62305 0.15841 92 75 69
2.42673 -1.64251 0.15857 96 84 75
2.92943 -1.85357 0.07548 96 82 71
2.91840 -1.84883 0.05464 100 87 77
2.94977 -1.86863 0.07658 77 44 57
2.97493 -1.88424 0.07549 80 34 41
2.98708 -1.89879 0.08066 70 21 36
3.05250 -1.94582 0.08306 71 39 50
3.04174 -1.95464 0.07244 62 21 41
3.04230 -1.96833 0.08324 61 33 38
3.06792 -1.96108 0.08701 69 34 47
3.09194 -1.99112 0.09824 66 28 42
3.09251 -2.00492 0.10914 38 25 35
3.08165 -2.01381 0.09843 45 22 24
3.48733 -2.15476 0.01489 89 63 71
3.47615 -2.17942 0.01509 177 160 132
3.01101 -2.15722 0.27725 142 167 188
2.99981 -2.15240 0.25607 124 117 122
2.83647 -2.27278 0.46641 189 188 172
2.81312 -2.28129 0.48607 72 63 57
2.83182 -2.31053 0.49958 53 56 58
2.84255 -2.31515 0.51987 56 58 61
2.83235 -2.32350 0.50981 54 58 60
2.82216 -2.33186 0.49975 54 56 59
2.80823 -2.36990 0.56064 68 72 87
2.79757 -2.36531 0.54047 72 70 69
2.81300 -2.38368 0.56921 95 102 121
2.86694 -2.40805 0.55950 154 177 191
2.85720 -2.42953 0.55967 164 174 185
2.71892 -2.48867 0.70582 128 123 134
2.71373 -2.49987 0.71774 99 87 129
2.71424 -2.51245 0.72767 94 89 130
2.68701 -2.51808 0.74712 182 204 186
2.67769 -2.53863 0.74728 254 254 169
2.67196 -2.52663 0.76228 242 252 183
2.66268 -2.54710 0.76244 254 254 150
2.65975 -2.53582 0.77641 254 254 160
2.63827 -2.54252 0.79358 254 254 162
2.62869 -2.55221 0.80669 251 250 163
2.61951 -2.57246 0.80685 245 238 104
2.60784 -2.55885 0.82347 249 248 169
2.61798 -2.56321 0.84264 253 254 248
2.56028 -2.57016 0.85864 251 248 221
2.57029 -2.57446 0.87758 253 254 254
2.57235 -2.58544 0.86444 253 249 232
2.58240 -2.58976 0.88343 254 254 254
2.57285 -2.59758 0.87402 254 252 242
2.56331 -2.60540 0.86460 253 242 176
1.68952 -2.40836 1.20334 223 204 182
1.68835 -2.41735 1.21127 227 200 152
1.68131 -2.43289 1.21139 221 210 171
1.69009 -2.42721 1.21832 220 188 135
1.68046 -2.43361 1.22878 200 163 80
1.63886 -2.50349 1.30821 20 15 7
1.64654 -2.50679 1.32274 16 21 16
1.63924 -2.51278 1.31554 17 18 11
1.35945 -0.85534 0.10880 24 27 47
1.35229 -0.85226 0.09525 22 28 22
1.35264 -0.86092 0.10208 22 28 38
1.36192 -0.86353 0.11408 28 40 70
1.37011 -0.87925 0.12232 102 98 74
1.36985 -0.88807 0.12962 84 84 59
1.37548 -0.89565 0.13267 66 55 47
1.36899 -0.90997 0.13278 20 26 27
1.38965 -0.90151 0.12960 30 31 38
1.38313 -0.91589 0.12971 21 27 34
1.50452 -0.95115 0.10649 28 26 25
1.51130 -0.93620 0.10637 21 24 35
