ply
format ascii 1.0
element face 0
property list uchar int vertex_indices
element vertex 1346
property float x
property float y
property float z
property uchar diffuse_red
property uchar diffuse_green
property uchar diffuse_blue
end_header
0.91550 -0.46326 -0.52172 254 253 245
0.90642 -0.46255 -0.53312 254 254 254
0.90990 -0.47011 -0.52705 254 254 254
0.91338 -0.47767 -0.52099 254 254 254
0.92058 -0.47863 -0.50761 254 251 246
0.91845 -0.49303 -0.50688 254 254 254
0.92560 -0.48599 -0.50318 254 251 246
0.92348 -0.50040 -0.50245 254 254 254
0.92344 -0.49425 -0.49122 254 253 248
0.92132 -0.50862 -0.49049 254 254 254
0.93011 -0.50141 -0.48851 254 254 250
0.92798 -0.51580 -0.48778 254 254 254
1.04684 -0.95947 -0.03713 246 242 231
1.03818 -0.95879 -0.04800 251 249 251
1.04149 -0.96600 -0.04221 253 251 249
1.04682 -0.96633 -0.02878 214 207 198
1.03427 -0.97179 -0.01090 175 167 149
1.05571 -0.98099 -0.01894 168 181 192
1.06532 -0.98893 -0.01792 227 240 247
1.07400 -0.98961 -0.00702 251 250 251
1.06864 -0.99617 -0.01212 251 251 253
1.08482 -1.00497 -0.01593 250 252 249
1.09021 -0.99838 -0.01080 251 250 251
1.10635 -1.01454 -0.02362 244 242 245
1.11528 -1.02259 -0.02185 215 229 206
1.10970 -1.02876 -0.00935 158 141 100
1.13315 -1.03881 -0.01819 82 69 71
1.13592 -1.04611 -0.01180 69 61 67
1.13384 -1.06020 -0.01108 92 89 74
1.14477 -1.05428 -0.00982 84 80 66
1.14257 -1.06088 0.00017 91 90 72
1.15491 -1.07650 0.00806 84 87 59
1.18162 -1.09444 0.00590 46 42 24
1.17952 -1.10869 0.00663 9 8 11
1.22031 -1.10756 -0.01284 17 16 22
1.21817 -1.12204 -0.01211 11 10 10
1.24937 -1.11933 -0.02461 9 9 15
1.24721 -1.13397 -0.02387 9 10 11
1.95402 -1.53384 -0.15307 40 39 37
1.94259 -1.53294 -0.16742 32 31 22
1.94849 -1.54073 -0.13974 84 80 75
1.94582 -1.55882 -0.13882 97 81 74
2.44850 -1.84382 -0.22002 38 23 29
2.44621 -1.85231 -0.20766 52 37 51
2.44318 -1.87283 -0.20661 74 65 50
2.43951 -1.85936 -0.19310 73 59 50
2.43649 -1.87981 -0.19206 74 63 56
2.90719 -2.11088 -0.30699 50 43 37
2.91057 -2.08802 -0.30816 60 49 44
2.90168 -2.09889 -0.31661 56 46 46
2.91608 -2.10001 -0.29854 55 47 37
2.91270 -2.12287 -0.29738 43 33 20
2.90382 -2.13373 -0.30583 32 24 19
2.95586 -2.25809 -0.17193 33 29 15
2.95251 -2.28081 -0.17077 48 41 23
2.74498 -2.32477 0.09803 99 86 72
2.74810 -2.30370 0.09696 109 89 67
2.73990 -2.31372 0.08917 108 90 67
2.73775 -2.33068 0.11169 65 57 90
2.72308 -2.33341 0.12815 36 39 112
2.73094 -2.34556 0.13586 67 82 140
2.71488 -2.37380 0.18453 57 65 125
2.71183 -2.39452 0.18558 22 39 141
2.72724 -2.39657 0.20109 30 44 142
2.72418 -2.41729 0.20214 25 42 133
2.77398 -2.47800 0.25804 88 73 43
2.77091 -2.49879 0.25910 104 88 56
2.71984 -2.54588 0.38896 181 166 136
2.73257 -2.54688 0.40493 196 171 123
2.71539 -2.55202 0.40040 192 173 133
2.72809 -2.55301 0.41633 195 168 124
2.72025 -2.56259 0.40888 195 171 131
2.81814 -2.66000 0.43937 182 149 99
2.80521 -2.65898 0.42315 190 161 113
2.82468 -2.67155 0.44754 174 139 82
2.82108 -2.67806 0.45867 161 123 55
2.81388 -2.68273 0.47079 139 106 42
2.80593 -2.68698 0.48306 119 85 19
2.81246 -2.69847 0.49116 101 63 19
2.81645 -2.70869 0.49999 78 49 20
2.80903 -2.71309 0.51198 63 33 17
2.80321 -2.71826 0.52348 50 20 22
2.75971 -2.71205 0.55493 45 33 48
0.62115 0.12939 -0.99581 45 45 55
0.62460 0.12187 -0.98978 39 43 66
0.62502 0.07614 -0.93446 50 63 94
0.61608 0.07684 -0.94567 44 53 73
0.63113 0.06998 -0.93250 70 90 113
0.63918 0.06472 -0.93337 86 101 116
0.63707 0.05048 -0.93264 93 100 122
0.64738 0.05039 -0.92334 100 109 112
0.65880 0.04656 -0.92902 80 90 99
0.66468 0.04015 -0.92653 53 67 91
0.67269 0.02558 -0.91604 67 72 96
0.67057 0.01123 -0.91531 50 52 94
0.67258 0.01649 -0.90487 65 71 101
0.67046 0.00217 -0.90414 53 49 93
0.67226 0.00735 -0.89345 60 68 101
0.67453 -0.00959 -0.87488 54 58 92
0.67822 -0.01696 -0.86924 55 48 83
0.68855 -0.02161 -0.87293 55 47 75
0.69082 -0.02959 -0.86526 75 67 75
0.67146 -0.04624 -0.82745 124 98 112
0.69066 -0.04739 -0.84343 159 141 153
0.67956 -0.06054 -0.81736 173 174 169
0.68806 -0.06599 -0.81843 185 168 162
0.69354 -0.07263 -0.81529 151 148 148
0.70043 -0.07877 -0.81405 109 109 106
0.70860 -0.08447 -0.81451 89 93 89
0.72257 -0.13160 -0.76976 74 73 76
0.72310 -0.14002 -0.75998 82 97 93
0.72100 -0.15419 -0.75926 66 68 91
0.72388 -0.14833 -0.75057 83 88 90
0.73230 -0.15412 -0.75114 61 54 74
0.74124 -0.15482 -0.73992 56 56 72
0.73647 -0.16132 -0.74614 60 57 68
0.74542 -0.16202 -0.73492 53 56 71
0.73990 -0.16877 -0.74017 53 54 66
0.73960 -0.20275 -0.69852 48 70 84
0.73412 -0.20944 -0.70373 47 46 70
0.74054 -0.21086 -0.68949 53 55 73
0.74359 -0.21834 -0.68314 49 43 70
0.74151 -0.23241 -0.68242 69 70 77
0.74980 -0.22492 -0.68074 56 53 64
0.74772 -0.23901 -0.68003 68 69 77
0.75278 -0.23243 -0.67430 58 57 60
0.75070 -0.24651 -0.67359 71 73 89
0.75785 -0.23936 -0.67045 76 78 89
0.76265 -0.26296 -0.64605 71 74 82
0.76058 -0.27702 -0.64533 49 61 61
0.76465 -0.27070 -0.63844 62 72 79
0.76351 -0.27921 -0.62703 68 76 85
0.76689 -0.28656 -0.62114 73 77 93
0.77213 -0.30163 -0.60754 71 78 79
0.78701 -0.32259 -0.59547 54 66 77
0.79209 -0.32958 -0.59157 66 67 87
0.79833 -0.33633 -0.58899 64 61 71
0.80881 -0.34220 -0.59133 70 61 74
0.81760 -0.34848 -0.59163 116 113 104
0.82138 -0.35584 -0.58610 138 152 124
0.82147 -0.36394 -0.57631 141 155 151
0.83174 -0.37001 -0.57821 112 111 132
0.84579 -0.38356 -0.57443 54 44 70
0.85164 -0.39059 -0.57116 54 26 38
0.85834 -0.39749 -0.56883 55 24 39
0.86518 -0.40440 -0.56660 94 69 94
0.86385 -0.41272 -0.55526 170 112 143
0.85976 -0.42147 -0.54091 211 204 198
0.88832 -0.42485 -0.56263 239 227 225
0.88619 -0.43926 -0.56190 254 254 254
0.89823 -0.43139 -0.56365 252 251 248
0.89610 -0.44585 -0.56291 254 254 254
1.05178 -0.97398 -0.04180 251 247 233
1.04309 -0.97330 -0.05271 251 249 251
1.04642 -0.98054 -0.04691 251 251 250
1.05344 -0.98103 -0.03472 219 219 169
1.07141 -0.98997 -0.04011 120 122 93
1.05449 -0.99483 -0.01887 169 194 193
1.07121 -1.00369 -0.02321 233 245 248
1.08226 -1.01192 -0.02319 226 239 230
1.07990 -1.01847 -0.01308 185 160 170
1.11373 -1.02977 -0.02994 121 92 109
1.12254 -1.03787 -0.02804 67 54 44
1.12572 -1.04523 -0.02195 76 71 61
1.12364 -1.05931 -0.02124 91 89 78
1.12836 -1.05251 -0.01548 90 86 72
1.13006 -1.06653 0.00005 89 90 66
1.12738 -1.07298 0.01034 75 82 51
1.16783 -1.09298 -0.00192 26 23 15
1.16573 -1.10720 -0.00120 10 9 10
2.01215 -1.35659 -0.44517 19 11 23
2.01498 -1.33741 -0.44615 14 9 8
2.00752 -1.34653 -0.45324 31 22 34
2.00007 -1.35564 -0.46034 52 51 52
2.01961 -1.34747 -0.43807 9 8 5
2.02424 -1.35754 -0.43000 8 7 4
2.02335 -1.36799 -0.44142 14 9 10
2.03546 -1.36894 -0.42622 6 8 4
2.02798 -1.37808 -0.43333 8 6 6
1.96210 -1.54649 -0.16858 41 39 36
1.95061 -1.54559 -0.18300 31 33 29
1.95637 -1.55334 -0.15505 84 81 75
1.95369 -1.57152 -0.15413 97 82 72
2.36270 -1.79267 -0.23138 87 83 74
2.36568 -1.77245 -0.23241 92 82 54
2.35782 -1.78206 -0.23989 92 86 75
2.37056 -1.78306 -0.22391 91 81 69
2.38312 -1.80808 -0.23109 76 72 68
2.44552 -1.85518 -0.23022 45 35 39
2.44248 -1.87577 -0.22917 78 66 52
2.43819 -1.86205 -0.21522 65 60 47
2.43516 -1.88256 -0.21418 77 66 52
2.82763 -2.08722 -0.29351 48 46 38
2.83095 -2.06474 -0.29466 60 50 47
2.82221 -2.07542 -0.30297 55 49 44
2.84398 -2.10282 -0.28931 38 38 30
2.84065 -2.12536 -0.28817 16 12 20
2.97359 -2.26909 -0.20413 17 12 9
2.97697 -2.24618 -0.20530 12 7 6
2.96806 -2.25707 -0.21377 10 6 4
2.95916 -2.26796 -0.22224 8 7 6
2.97911 -2.28111 -0.19450 33 30 14
2.97573 -2.30401 -0.19333 47 41 27
2.72645 -2.32154 0.08347 101 84 67
2.72955 -2.30050 0.08240 111 89 67
2.72137 -2.31050 0.07462 111 91 68
2.73413 -2.33367 0.09129 66 55 85
2.74070 -2.34535 0.09956 37 46 109
2.72536 -2.34775 0.11637 63 88 152
2.68727 -2.36647 0.17366 48 59 128
2.68422 -2.38710 0.17471 18 35 134
2.76840 -2.48039 0.23896 78 63 39
2.77148 -2.45956 0.23790 70 61 39
2.76338 -2.46946 0.23019 59 55 53
2.75528 -2.47936 0.22249 52 56 75
2.76533 -2.50122 0.24002 94 82 50
2.76102 -2.48566 0.25206 92 79 49
2.75796 -2.50643 0.25312 102 87 52
2.67210 -2.51994 0.37430 118 101 72
2.67998 -2.53191 0.38175 127 112 87
2.68617 -2.54309 0.38975 142 125 110
2.71411 -2.56476 0.39086 156 141 117
2.73895 -2.58503 0.39306 172 158 127
2.75174 -2.58604 0.40911 196 168 127
2.74182 -2.59470 0.40224 186 168 134
2.75460 -2.59570 0.41827 195 167 122
2.74672 -2.60534 0.41077 193 171 133
2.80364 -2.66651 0.43373 187 159 114
2.79074 -2.66550 0.41754 192 169 124
2.79568 -2.67624 0.42616 192 166 125
2.80283 -2.67438 0.44406 184 154 110
2.79592 -2.67917 0.45614 179 149 98
2.79057 -2.68469 0.46771 167 140 82
2.80775 -2.70158 0.47272 157 127 64
2.80934 -2.71058 0.48226 148 113 56
2.79452 -2.71121 0.49644 132 97 48
2.79877 -2.72152 0.50515 115 76 34
2.79145 -2.72587 0.51708 97 53 31
2.78089 -2.72850 0.52984 90 62 26
0.61400 0.12177 -0.99867 73 62 64
0.61759 0.11433 -0.99286 42 39 60
0.62660 0.11362 -0.98155 42 51 79
0.62104 0.10682 -0.98684 42 52 75
0.61547 0.10002 -0.99213 49 59 74
0.62098 0.07011 -0.94193 55 65 90
0.61204 0.07081 -0.95315 53 57 78
0.61547 0.06336 -0.94718 57 60 87
0.62659 0.06370 -0.93923 71 87 113
0.63388 0.05806 -0.93900 85 97 121
0.64183 0.04362 -0.92861 93 104 118
0.63629 0.03684 -0.93388 86 93 110
0.66071 0.03405 -0.93419 61 72 92
0.65859 0.01970 -0.93346 53 51 82
0.66528 0.02702 -0.92976 54 63 91
0.67059 0.02029 -0.92640 52 57 92
0.66464 -0.00927 -0.88484 53 50 88
0.66806 -0.01675 -0.87882 68 62 94
0.66596 -0.03099 -0.87810 189 189 167
0.66974 -0.02495 -0.87034 107 85 109
0.66764 -0.03917 -0.86962 200 196 176
0.67058 -0.04231 -0.84989 166 168 148
0.67046 -0.05116 -0.83897 189 185 170
0.67650 -0.05755 -0.83667 193 170 166
0.68493 -0.06304 -0.83768 150 142 137
0.68809 -0.07060 -0.83133 96 96 119
0.68600 -0.08481 -0.83061 42 56 79
0.68952 -0.07881 -0.82259 66 73 111
0.68742 -0.09301 -0.82187 55 61 74
0.69535 -0.08536 -0.81992 67 75 93
0.69512 -0.09417 -0.80895 75 88 95
0.69302 -0.10835 -0.80822 66 65 72
0.71486 -0.14767 -0.76162 68 82 92
0.71830 -0.16361 -0.74528 67 67 93
0.71281 -0.17032 -0.75050 92 98 116
0.71541 -0.17304 -0.73111 71 89 97
0.72604 -0.17814 -0.73459 63 63 67
0.73494 -0.17884 -0.72342 56 58 66
0.72944 -0.18556 -0.72864 60 60 67
0.72395 -0.19227 -0.73387 64 63 72
0.73031 -0.21894 -0.68864 56 59 68
0.72147 -0.21824 -0.69973 59 63 70
0.72823 -0.23297 -0.68793 72 77 86
0.73140 -0.22695 -0.67985 67 66 84
0.72933 -0.24097 -0.67913 72 75 81
0.74549 -0.25621 -0.65697 61 64 88
0.74004 -0.26287 -0.66216 42 47 73
0.75042 -0.26316 -0.65298 82 79 91
0.74835 -0.27719 -0.65227 82 67 64
0.74709 -0.27226 -0.63881 69 62 69
0.74502 -0.28624 -0.63810 63 73 59
0.74811 -0.28836 -0.62008 59 67 78
0.75047 -0.29592 -0.61300 64 69 95
0.75819 -0.30217 -0.61241 75 84 114
0.75612 -0.31613 -0.61170 52 39 64
0.76135 -0.30955 -0.60629 61 68 80
0.76579 -0.31662 -0.60170 48 63 71
0.77205 -0.32329 -0.59928 63 67 61
0.77945 -0.32973 -0.59818 63 60 74
0.78344 -0.33695 -0.59299 72 73 89
0.79809 -0.34189 -0.60035 117 121 114
0.80464 -0.34863 -0.59810 136 161 134
0.80192 -0.35731 -0.58502 143 162 142
0.81534 -0.36268 -0.59072 114 114 116
0.83290 -0.37547 -0.59113 46 52 78
0.84188 -0.38190 -0.59150 53 30 33
0.84364 -0.38970 -0.58357 59 18 39
0.85332 -0.39607 -0.58463 100 73 98
0.85854 -0.40327 -0.58060 174 129 142
0.86305 -0.41061 -0.57576 213 203 196
0.87128 -0.41733 -0.57507 241 224 228
0.86916 -0.43171 -0.57434 254 254 254
0.87588 -0.42469 -0.57028 252 251 247
0.87376 -0.43907 -0.56955 254 254 254
1.04624 -0.98737 -0.03840 253 252 232
1.03756 -0.98669 -0.04929 251 251 252
1.05918 -0.99575 -0.03999 245 227 172
1.06306 -1.00308 -0.03458 132 127 134
1.05708 -1.00916 -0.02168 156 172 196
1.07690 -1.01853 -0.02835 137 111 149
1.09370 -1.02760 -0.03263 63 53 64
1.11133 -1.03686 -0.03742 69 63 64
1.10925 -1.05093 -0.03671 92 88 63
1.11928 -1.04488 -0.03490 87 82 54
1.12174 -1.05214 -0.02827 93 87 71
1.13243 -1.06750 -0.01927 82 86 64
1.12315 -1.07299 -0.00408 69 66 40
1.13797 -1.08212 -0.00647 36 34 22
1.13588 -1.09622 -0.00576 8 8 10
1.15845 -1.09221 -0.01286 13 13 15
1.15635 -1.10643 -0.01214 9 9 10
2.02984 -1.37082 -0.46901 41 46 31
2.01765 -1.36987 -0.48430 40 41 29
2.02232 -1.38002 -0.47616 37 43 41
2.02698 -1.39016 -0.46802 50 48 42
2.02519 -1.37905 -0.45470 34 33 17
2.01814 -1.38672 -0.43888 23 13 11
2.03024 -1.38767 -0.42370 6 7 7
2.02839 -1.39799 -0.43449 12 11 4
2.04052 -1.39894 -0.41927 8 8 8
2.03304 -1.40809 -0.42639 9 9 5
1.95814 -1.55600 -0.17716 40 42 37
1.94664 -1.55510 -0.19160 30 30 30
1.96170 -1.56535 -0.16899 84 83 74
1.95900 -1.58361 -0.16806 95 83 72
2.32092 -1.78274 -0.23173 89 86 72
2.32388 -1.76270 -0.23275 92 83 74
2.31609 -1.77222 -0.24016 95 83 78
2.30829 -1.78175 -0.24757 90 83 82
2.35477 -1.80226 -0.23883 78 64 50
2.42178 -1.83230 -0.26337 44 31 33
2.44499 -1.86736 -0.24174 72 64 50
2.44194 -1.88799 -0.24069 78 63 61
2.76705 -2.06021 -0.30050 52 47 44
2.77033 -2.03797 -0.30163 63 53 46
2.76169 -2.04854 -0.30986 58 48 51
2.77570 -2.04964 -0.29228 59 51 46
2.76377 -2.08245 -0.29937 27 21 44
2.77900 -2.07416 -0.29437 42 39 39
2.77571 -2.09644 -0.29324 28 21 46
2.79603 -2.08992 -0.29069 33 30 38
2.79727 -2.10018 -0.27928 20 19 33
2.72244 -2.31541 0.05216 101 89 76
2.72556 -2.29429 0.05108 105 86 68
2.71734 -2.30433 0.04327 102 85 68
2.73065 -2.30537 0.05997 109 87 73
2.72109 -2.32380 0.06365 92 75 75
2.72171 -2.33299 0.07430 64 43 84
2.72886 -2.34492 0.08234 37 41 112
2.73894 -2.35810 0.08923 55 88 144
2.69189 -2.34689 0.11855 92 113 171
2.72936 -2.37175 0.11468 83 101 159
2.71728 -2.37536 0.13013 51 64 133
2.71419 -2.39625 0.13119 18 23 112
2.69006 -2.38100 0.16191 19 31 129
2.68700 -2.40169 0.16296 21 36 131
2.66957 -2.54019 0.37518 111 93 69
2.65694 -2.53920 0.35933 114 93 65
2.66177 -2.54971 0.36776 112 91 67
2.66661 -2.56023 0.37620 112 91 63
2.68167 -2.55422 0.38127 114 94 74
2.67870 -2.57430 0.38229 110 91 62
2.70136 -2.57197 0.38496 119 101 80
2.74013 -2.59911 0.38268 130 119 95
2.75994 -2.61709 0.38654 145 135 114
2.75705 -2.62396 0.39758 164 151 130
2.76989 -2.62497 0.41369 192 167 121
2.76149 -2.63442 0.40630 179 162 133
2.77434 -2.63543 0.42241 191 164 113
2.76641 -2.64511 0.41487 189 170 127
2.78645 -2.72075 0.48898 166 129 76
0.62926 0.12563 -1.03627 128 108 94
0.61093 0.10697 -0.99646 66 62 72
0.61964 0.05627 -0.94234 65 72 104
0.61069 0.05697 -0.95356 65 67 85
0.62455 0.04952 -0.93860 78 84 114
0.63134 0.04362 -0.93762 87 91 114
0.65015 0.03408 -0.94329 74 82 102
0.64457 0.02726 -0.94859 58 63 89
0.66578 0.01380 -0.93285 54 46 75
0.66366 -0.00059 -0.93212 161 142 144
0.66296 -0.00546 -0.90664 91 77 110
0.66229 -0.01470 -0.89469 132 110 116
0.70924 -0.00409 -0.95104 161 151 146
0.66370 -0.04960 -0.85320 175 175 179
0.66999 -0.05589 -0.85129 122 131 147
0.67033 -0.06454 -0.84100 96 88 123
0.66530 -0.07523 -0.82324 90 81 105
0.66322 -0.08933 -0.82253 64 65 78
0.67025 -0.08204 -0.81946 50 55 82
0.68329 -0.10321 -0.80554 58 63 70
0.67439 -0.10251 -0.81672 59 63 68
0.67780 -0.10993 -0.81077 63 67 61
0.68121 -0.11734 -0.80482 79 81 61
0.68940 -0.13548 -0.77161 60 70 81
0.68053 -0.13478 -0.78274 62 65 71
0.68392 -0.14217 -0.77682 60 64 78
0.68732 -0.14955 -0.77090 61 58 77
0.69586 -0.14181 -0.76982 70 84 90
0.69378 -0.15591 -0.76910 56 62 68
0.69942 -0.14916 -0.76409 64 67 86
0.69733 -0.16326 -0.76337 47 53 63
0.69892 -0.15785 -0.75298 50 49 75
0.70329 -0.16491 -0.74835 76 82 92
0.70719 -0.18059 -0.73273 80 95 97
0.70512 -0.19465 -0.73201 67 69 75
0.71188 -0.18756 -0.72851 68 67 74
0.70981 -0.20162 -0.72779 68 70 79
0.73044 -0.25720 -0.66025 63 67 78
0.72707 -0.24987 -0.66612 68 70 82
0.72163 -0.25651 -0.67129 70 74 84
0.73071 -0.27354 -0.64046 52 55 82
0.72530 -0.28016 -0.64561 46 47 74
0.73218 -0.29758 -0.61234 57 57 73
0.73464 -0.30506 -0.60544 51 53 80
0.74042 -0.31175 -0.60258 54 53 84
0.75683 -0.32407 -0.60262 45 47 60
0.76583 -0.33011 -0.60352 88 85 108
0.77230 -0.33677 -0.60133 128 137 131
0.79761 -0.34754 -0.61149 137 156 152
0.79208 -0.35681 -0.59501 116 119 139
0.79780 -0.36373 -0.59181 71 83 93
0.80881 -0.36962 -0.59476 44 42 70
0.81981 -0.37557 -0.59761 46 29 24
0.83029 -0.38168 -0.59979 52 25 45
0.83665 -0.38863 -0.59715 104 78 93
0.86593 -0.42412 -0.58066 254 254 252
0.86381 -0.43850 -0.57992 254 254 254
1.04132 -0.99397 -0.04383 249 249 248
1.05236 -1.00215 -0.04399 217 235 196
1.05630 -1.00948 -0.03864 137 111 71
1.08156 -1.01958 -0.04958 49 44 84
1.07950 -1.03355 -0.04887 79 82 80
1.08924 -1.02748 -0.04698 52 61 89
1.08717 -1.04148 -0.04627 87 85 77
1.09365 -1.03497 -0.04187 80 78 68
1.10198 -1.04301 -0.03970 92 86 68
1.11188 -1.05820 -0.03022 88 89 57
1.12190 -1.06656 -0.02921 75 75 54
1.12115 -1.07333 -0.02022 48 43 34
1.11907 -1.08741 -0.01950 11 8 7
1.13546 -1.08241 -0.02231 21 15 14
1.13338 -1.09656 -0.02159 10 11 6
1.13782 -1.08966 -0.01558 10 6 7
1.13573 -1.10381 -0.01487 9 10 7
2.06083 -1.33168 -0.57098 14 17 23
2.06375 -1.31192 -0.57199 7 9 10
2.05606 -1.32131 -0.57930 7 7 12
2.04838 -1.33071 -0.58660 8 6 8
2.06852 -1.32229 -0.56367 13 19 25
2.07328 -1.33266 -0.55536 46 57 48
2.04778 -1.33863 -0.55041 40 58 40
2.06016 -1.33961 -0.53488 52 54 57
2.05252 -1.34894 -0.54215 55 67 52
2.02138 -1.39813 -0.45309 43 46 48
2.00924 -1.39718 -0.46833 37 38 30
2.01389 -1.40729 -0.46022 39 41 47
2.01854 -1.41741 -0.45211 35 40 38
2.01561 -1.40600 -0.43811 30 33 20
2.03016 -1.41824 -0.43652 20 18 13
2.04230 -1.41919 -0.42129 8 7 5
2.02716 -1.42666 -0.42343 14 9 7
2.03927 -1.42761 -0.40823 8 6 6
2.03180 -1.43675 -0.41534 10 6 4
1.95875 -1.56679 -0.18845 41 39 38
1.94722 -1.56588 -0.20292 29 31 24
1.95845 -1.57509 -0.17799 84 82 72
1.95575 -1.59337 -0.17706 95 83 72
2.31764 -1.79367 -0.24159 85 75 70
2.30984 -1.80321 -0.24901 83 68 63
2.31468 -1.81374 -0.24057 81 69 60
2.34553 -1.81143 -0.24556 78 61 56
2.34255 -1.83164 -0.24453 79 67 58
2.38628 -1.83338 -0.25626 73 57 40
2.38326 -1.85380 -0.25522 78 67 66
2.41105 -1.85043 -0.25823 73 61 55
2.40801 -1.87096 -0.25718 79 65 58
2.75381 -2.05937 -0.31847 49 42 49
2.75709 -2.03713 -0.31960 63 52 54
2.74844 -2.04770 -0.32783 57 47 52
2.75052 -2.08162 -0.31734 23 21 34
2.74886 -2.06746 -0.30398 38 33 44
2.76165 -2.10122 -0.27440 26 24 41
2.98017 -2.30026 -0.23207 15 17 9
3.00607 -2.32024 -0.23149 32 31 20
2.71462 -2.33455 0.05514 42 37 78
2.71412 -2.34326 0.06627 27 22 96
2.71101 -2.36432 0.06734 18 35 113
2.71883 -2.35415 0.07528 28 44 119
2.72809 -2.36699 0.08248 37 68 133
2.72506 -2.37456 0.09456 42 55 134
2.72195 -2.39560 0.09563 14 26 103
2.72961 -2.38537 0.10361 28 33 113
2.72651 -2.40641 0.10468 18 29 103
2.72157 -2.39070 0.11757 16 25 103
2.71848 -2.41167 0.11864 21 29 107
2.75537 -2.62847 0.37792 113 99 80
2.76287 -2.64047 0.38571 125 112 98
2.76524 -2.64993 0.39512 141 130 111
2.72606 -2.64673 0.42737 175 160 128
2.67186 -2.68304 0.52194 175 145 106
2.65221 -2.68065 0.53715 175 158 133
0.60228 0.11715 -1.01975 237 226 199
0.59325 0.11785 -1.03108 245 244 233
0.59811 0.10574 -1.00183 188 177 149
0.62724 0.11120 -1.03571 105 104 97
0.61059 0.09356 -0.99849 59 66 70
0.61961 0.09285 -0.98717 53 64 79
0.61405 0.08605 -0.99246 58 65 77
0.60848 0.07924 -0.99776 57 55 66
0.61561 0.05023 -0.94984 63 69 92
0.60665 0.05093 -0.96108 62 64 80
0.61008 0.04347 -0.95510 63 60 76
0.61351 0.03601 -0.94912 62 56 74
0.62221 0.04425 -0.94864 64 71 100
0.63550 0.03223 -0.94625 64 74 92
0.65624 0.02338 -0.95470 57 56 83
0.64400 -0.02681 -0.88153 212 207 183
0.63849 -0.03354 -0.88677 161 157 179
0.64455 -0.03542 -0.87145 213 203 195
0.66130 -0.04626 -0.87373 111 119 147
0.65386 -0.05805 -0.85229 75 76 123
0.65177 -0.07218 -0.85157 51 61 72
0.65158 -0.07641 -0.82757 42 54 85
0.65475 -0.08387 -0.82135 66 69 86
0.66507 -0.09730 -0.81444 58 63 74
0.66299 -0.11138 -0.81373 61 62 67
0.68998 -0.17413 -0.74314 68 76 78
0.68116 -0.17344 -0.75422 52 60 71
0.68454 -0.18079 -0.74832 56 53 71
0.68792 -0.18815 -0.74243 59 63 72
0.69446 -0.18114 -0.73869 77 83 96
0.69239 -0.19516 -0.73798 58 62 69
0.69883 -0.18818 -0.73410 68 71 75
0.69676 -0.20221 -0.73339 63 70 76
0.71508 -0.26649 -0.65291 69 73 77
0.70633 -0.26580 -0.66389 70 75 86
0.70968 -0.27309 -0.65804 73 77 84
0.71427 -0.27487 -0.64184 48 56 65
0.71582 -0.29072 -0.62378 67 61 67
0.72113 -0.29747 -0.62042 61 73 69
0.72149 -0.30546 -0.61093 51 49 66
0.72509 -0.31264 -0.60544 41 34 42
0.72960 -0.31961 -0.60107 46 42 55
0.74363 -0.32440 -0.60827 84 71 100
0.74726 -0.33163 -0.60275 119 127 120
0.76454 -0.33584 -0.61369 139 163 156
0.77537 -0.34968 -0.60675 114 117 131
0.78736 -0.35525 -0.61108 68 80 95
0.79397 -0.36200 -0.60894 54 44 78
0.79947 -0.36900 -0.60545 50 26 32
0.80644 -0.37573 -0.60368 53 22 45
0.81744 -0.38172 -0.60656 99 86 89
0.81517 -0.39026 -0.59393 174 144 144
0.84165 -0.39349 -0.61465 212 202 195
0.81910 -0.40567 -0.57863 246 231 234
0.81700 -0.41984 -0.57791 254 254 254
0.83444 -0.41909 -0.57642 254 254 252
0.83233 -0.43333 -0.57569 254 254 254
1.02994 -0.98613 -0.06101 249 251 252
1.03197 -0.97235 -0.06171 251 249 251
1.02661 -0.97890 -0.06681 251 250 252
1.03530 -0.97958 -0.05591 251 249 251
1.03615 -0.99371 -0.05748 233 245 239
1.08004 -1.01983 -0.06626 48 38 34
1.07797 -1.03386 -0.06555 82 78 70
1.07847 -1.02653 -0.05655 67 68 73
1.07640 -1.04052 -0.05584 79 76 69
1.09482 -1.04944 -0.04361 95 88 69
1.10140 -1.05727 -0.04012 81 83 61
1.09888 -1.06376 -0.02978 57 57 30
1.09681 -1.07777 -0.02906 11 9 11
1.11530 -1.07309 -0.03360 28 23 15
1.11322 -1.08719 -0.03289 10 10 6
2.03257 -1.33712 -0.56398 10 16 19
2.02021 -1.33615 -0.57950 8 8 6
2.03952 -1.34785 -0.55725 38 54 44
2.04988 -1.35927 -0.55285 59 74 78
2.04138 -1.36693 -0.53551 59 65 62
2.03849 -1.38653 -0.53451 48 53 53
2.03541 -1.37503 -0.51998 48 50 48
2.03253 -1.39456 -0.51898 46 48 46
2.00291 -1.42302 -0.43064 32 39 31
1.99085 -1.42207 -0.44578 38 36 43
1.99547 -1.43212 -0.43772 37 41 42
2.00009 -1.44217 -0.42966 40 45 37
2.00807 -1.43319 -0.42293 28 32 21
2.02033 -1.44498 -0.41985 23 16 11
2.03243 -1.44592 -0.40467 7 7 5
2.02956 -1.45611 -0.41476 14 8 6
2.04168 -1.45706 -0.39956 6 7 7
2.03420 -1.46620 -0.40667 7 7 5
1.96230 -1.57844 -0.20154 42 42 35
1.95072 -1.57753 -0.21606 31 32 29
1.96700 -1.58815 -0.19397 84 83 71
1.96429 -1.60653 -0.19304 97 82 74
2.73973 -2.04843 -0.34811 56 46 41
2.74302 -2.02615 -0.34925 66 54 48
2.73436 -2.03674 -0.35749 62 51 45
2.74840 -2.03784 -0.33988 63 50 46
2.74452 -2.05991 -0.33845 46 41 39
2.74124 -2.08218 -0.33732 21 15 41
2.74116 -2.06855 -0.32468 36 31 35
2.73024 -2.08421 -0.29523 20 15 52
2.74161 -2.09796 -0.28892 39 30 60
2.74047 -2.10725 -0.27643 34 34 45
2.72374 -2.11086 -0.25638 23 22 31
2.72626 -2.12138 -0.24579 16 10 11
2.74008 -2.12246 -0.22844 15 6 6
2.73155 -2.13289 -0.23656 12 6 3
2.72302 -2.14332 -0.24468 11 5 4
2.98672 -2.30727 -0.25991 7 8 14
2.99014 -2.28410 -0.26109 8 6 9
2.98113 -2.29511 -0.26966 7 6 7
2.98822 -2.31783 -0.24832 15 17 23
3.01274 -2.33739 -0.24712 27 28 35
3.02321 -2.35150 -0.23951 36 34 50
3.03787 -2.35265 -0.22111 51 43 41
3.02882 -2.36371 -0.22972 41 38 62
2.71136 -2.31982 0.01227 51 58 93
2.71449 -2.29861 0.01119 86 78 70
2.70624 -2.30869 0.00334 58 64 100
2.70822 -2.34103 0.01335 21 27 102
2.71028 -2.32835 0.02376 42 44 81
2.70716 -2.34952 0.02484 16 25 103
2.70997 -2.33717 0.03490 29 30 85
2.70685 -2.35831 0.03598 15 27 108
2.70650 -2.35351 0.05825 15 25 104
2.69831 -2.36353 0.05046 15 29 113
2.70339 -2.37458 0.05932 15 29 116
2.72082 -2.37742 0.07431 16 35 114
2.71262 -2.38744 0.06651 15 33 118
2.71770 -2.39851 0.07538 16 37 124
2.73394 -2.39197 0.07999 12 27 110
2.73082 -2.41311 0.08106 18 37 121
2.75238 -2.64892 0.37895 115 96 70
2.73950 -2.64791 0.36279 114 95 69
2.74443 -2.65864 0.37139 116 97 66
2.74936 -2.66937 0.37999 117 97 64
2.75098 -2.65647 0.38954 118 102 72
2.74796 -2.67688 0.39058 116 95 65
2.72711 -2.65267 0.40712 127 110 81
2.60971 -2.66389 0.53039 188 161 138
2.66547 -2.70090 0.52394 198 184 181
0.59129 0.09831 -1.00511 213 206 185
0.61429 0.10065 -1.02965 137 130 122
0.60571 0.08709 -1.00484 75 64 66
0.62069 0.03028 -0.94880 61 59 78
0.61859 0.01603 -0.94808 155 143 135
0.64350 0.02246 -0.96062 86 73 96
0.62940 -0.01075 -0.90634 208 203 180
0.62730 -0.02492 -0.90562 147 146 173
0.63950 -0.02425 -0.89919 207 204 203
0.65662 -0.03493 -0.90212 126 118 160
0.63743 -0.06909 -0.84188 37 47 80
0.64200 -0.09332 -0.81627 60 57 65
0.63318 -0.09263 -0.82734 63 64 71
0.63656 -0.09997 -0.82145 68 61 70
0.64440 -0.10102 -0.80902 70 73 76
0.65046 -0.10737 -0.80688 71 79 78
0.69970 -0.28384 -0.63537 57 65 70
0.70322 -0.29103 -0.62982 46 53 67
0.70423 -0.29884 -0.62112 47 46 57
0.71066 -0.30530 -0.61920 46 43 66
0.71378 -0.31259 -0.61313 51 50 77
0.72434 -0.31812 -0.61626 85 79 83
0.73039 -0.32475 -0.61376 119 133 124
0.72770 -0.33340 -0.60055 136 156 166
0.74481 -0.33758 -0.61150 143 154 165
0.75475 -0.34345 -0.61361 117 121 142
0.75268 -0.35743 -0.61290 46 30 44
0.77360 -0.34747 -0.62640 70 83 111
0.78426 -0.35334 -0.62919 56 36 89
0.78101 -0.36214 -0.61526 46 27 32
0.79019 -0.36837 -0.61621 64 36 39
0.79220 -0.37607 -0.60860 112 86 81
0.78951 -0.38467 -0.59545 174 143 138
0.81143 -0.38858 -0.61126 208 205 196
0.80932 -0.40281 -0.61054 254 254 253
0.78283 -0.40193 -0.56785 245 237 233
0.78077 -0.41592 -0.56714 254 254 254
0.79313 -0.40803 -0.57002 254 253 247
0.79106 -0.42207 -0.56930 254 254 254
0.80837 -0.41332 -0.57784 254 254 253
0.80629 -0.42745 -0.57712 254 254 254
0.99973 -0.97616 -0.06312 250 252 252
1.00175 -0.96249 -0.06381 250 249 251
0.99643 -0.96899 -0.06886 251 250 251
1.00504 -0.96966 -0.05806 250 249 251
1.01434 -0.98465 -0.06639 242 249 244
1.00220 -0.99000 -0.04835 209 217 190
0.99324 -0.99564 -0.03295 146 121 87
1.05681 -1.01039 -0.07460 64 58 67
1.05860 -1.01750 -0.06749 67 58 71
1.05654 -1.03144 -0.06679 89 83 65
1.06387 -1.02507 -0.06312 82 75 57
1.06181 -1.03902 -0.06241 81 80 61
1.08479 -1.04858 -0.05379 80 86 58
1.09688 -1.05721 -0.05452 75 69 49
1.10601 -1.06545 -0.05294 36 35 31
1.10392 -1.07956 -0.05222 9 9 17
1.10779 -1.07261 -0.04578 14 13 23
1.10571 -1.08671 -0.04507 9 10 12
2.03617 -1.34865 -0.57910 10 12 12
2.02376 -1.34768 -0.59467 8 9 6
2.02851 -1.35801 -0.58638 7 10 9
2.02874 -1.35657 -0.56233 32 34 32
2.03754 -1.36768 -0.55689 58 71 68
2.02759 -1.37498 -0.53850 55 62 58
1.98836 -1.44843 -0.41089 45 50 24
1.97636 -1.44749 -0.42595 42 43 48
2.01377 -1.46330 -0.41645 31 24 16
2.01642 -1.47290 -0.40710 15 8 8
2.02849 -1.47384 -0.39194 6 7 6
2.02104 -1.48295 -0.39903 8 5 5
2.01359 -1.49206 -0.40612 9 6 6
1.96317 -1.58941 -0.21311 45 45 40
1.95157 -1.58850 -0.22767 30 34 28
1.96609 -1.59865 -0.20446 86 82 74
1.96337 -1.61706 -0.20352 99 81 82
2.72413 -2.04679 -0.36492 54 45 43
2.72742 -2.02452 -0.36605 68 55 46
2.71876 -2.03510 -0.37428 61 49 46
2.72252 -2.05605 -0.35197 43 38 34
2.71924 -2.07827 -0.35084 16 15 33
2.73457 -2.07004 -0.34602 30 28 34
2.72045 -2.08459 -0.31478 15 12 53
2.72500 -2.09591 -0.30508 24 27 69
2.76429 -2.11974 -0.31266 60 63 67
2.74917 -2.12401 -0.29314 43 45 54
2.72906 -2.12636 -0.27131 21 22 37
2.72945 -2.13612 -0.25963 13 10 14
2.72620 -2.15813 -0.25851 11 4 4
2.92445 -2.28765 -0.25616 11 9 14
2.98693 -2.33186 -0.26040 16 22 55
3.00102 -2.34738 -0.25450 21 28 69
3.01292 -2.36207 -0.24757 27 31 81
3.00949 -2.38534 -0.24638 28 36 113
3.01996 -2.37485 -0.23842 31 36 93
3.03463 -2.37600 -0.22001 43 43 66
3.02558 -2.38707 -0.22862 31 41 98
3.01653 -2.39813 -0.23723 26 40 120
2.72832 -2.33149 -0.01736 42 52 117
2.73148 -2.31011 -0.01845 60 63 100
2.72317 -2.32027 -0.02636 53 61 126
2.72517 -2.35287 -0.01627 20 30 117
2.72252 -2.33808 -0.00375 31 38 111
2.71937 -2.35940 -0.00267 17 27 115
2.75777 -2.53879 0.21086 74 72 61
2.75272 -2.52781 0.20206 43 46 85
2.74458 -2.53776 0.19432 38 43 86
2.77095 -2.53982 0.22740 100 88 53
2.76281 -2.54977 0.21966 93 87 57
2.58413 -2.62498 0.48076 142 131 121
2.56872 -2.62476 0.49500 155 142 122
2.58023 -2.63846 0.50108 169 156 133
2.59458 -2.65368 0.50636 181 169 137
2.61195 -2.68600 0.52990 194 171 157
2.63545 -2.70618 0.53270 191 175 166
0.58934 0.09335 -1.01605 204 194 180
0.59255 0.08574 -1.00968 154 131 128
0.60482 0.08260 -1.01745 101 79 79
0.60202 0.07200 -1.00166 67 54 62
0.60547 0.06449 -0.99564 54 49 65
0.60540 0.05531 -0.98419 52 51 66
0.61095 0.06209 -0.97891 59 65 82
0.60559 0.03720 -0.96194 86 66 72
0.62087 -0.00093 -0.92922 206 202 190
0.62603 -0.00763 -0.92584 199 204 206
0.61628 -0.02075 -0.90031 176 177 196
0.61419 -0.03486 -0.89959 76 72 113
0.63985 -0.03744 -0.90205 68 59 117
0.63775 -0.05166 -0.90133 56 59 80
0.63271 -0.04921 -0.88068 57 58 104
0.62619 -0.06063 -0.86033 71 76 109
0.62412 -0.07468 -0.85962 62 61 80
0.63141 -0.06727 -0.85707 59 56 83
0.63044 -0.07636 -0.84487 58 56 72
0.62845 -0.08581 -0.83129 63 65 71
0.62825 -0.11166 -0.79906 74 76 83
0.61949 -0.11098 -0.81005 61 55 74
0.62284 -0.11827 -0.80420 65 60 80
0.63494 -0.11773 -0.79790 79 84 84
0.63288 -0.13166 -0.79720 61 56 69
0.66079 -0.25896 -0.64752 60 61 69
0.66281 -0.24530 -0.64822 54 59 58
0.65750 -0.25179 -0.65327 54 54 62
0.66940 -0.25963 -0.63673 72 80 85
0.66753 -0.26517 -0.64623 73 82 85
0.67615 -0.26585 -0.63542 74 80 91
0.67083 -0.27235 -0.64048 76 78 83
0.67664 -0.27886 -0.63794 62 62 69
0.68164 -0.28561 -0.63433 58 68 75
0.68695 -0.29229 -0.63110 51 54 67
0.68888 -0.29984 -0.62358 42 39 53
0.69243 -0.30698 -0.61812 48 46 48
0.70629 -0.31162 -0.62554 88 76 110
0.70766 -0.31933 -0.61729 125 132 149
0.71197 -0.32633 -0.61272 149 159 156
0.71732 -0.33311 -0.60941 144 160 159
0.75699 -0.34032 -0.63819 75 78 106
0.77876 -0.36007 -0.63443 63 34 56
0.78948 -0.36601 -0.63725 118 90 89
0.78316 -0.37540 -0.61961 178 157 135
0.79330 -0.38151 -0.62168 215 208 189
0.79121 -0.39570 -0.62096 254 254 253
0.75931 -0.39605 -0.57136 246 238 229
0.75726 -0.40995 -0.57065 254 254 254
0.76294 -0.40329 -0.56583 254 254 246
0.76089 -0.41720 -0.56512 254 254 254
0.98465 -0.97474 -0.06867 247 251 248
0.98666 -0.96113 -0.06937 250 249 251
0.98137 -0.96760 -0.07440 252 251 252
0.96016 -0.98530 -0.03231 171 134 139
0.95818 -0.99871 -0.03163 73 69 63
1.03104 -1.00070 -0.08063 103 78 84
1.04143 -1.00886 -0.08040 69 55 58
1.03938 -1.02277 -0.07969 90 82 70
1.04349 -1.01599 -0.07352 80 72 62
1.04144 -1.02989 -0.07282 89 85 68
1.04563 -1.02312 -0.06672 88 80 69
1.06982 -1.04701 -0.06013 68 70 58
1.08011 -1.05536 -0.05957 57 59 44
1.09492 -1.06442 -0.06242 30 24 42
1.09480 -1.07129 -0.05381 13 10 20
1.09272 -1.08536 -0.05309 11 9 12
2.01736 -1.36514 -0.56696 14 20 20
2.00501 -1.36417 -0.58246 5 9 5
2.00974 -1.37445 -0.57421 7 12 8
2.02043 -1.37508 -0.55756 28 38 41
2.01057 -1.38232 -0.53921 34 45 43
1.99713 -1.38872 -0.51851 36 48 42
1.99097 -1.39656 -0.50293 44 51 46
2.00314 -1.39752 -0.48767 43 46 43
1.99563 -1.40670 -0.49481 46 54 49
1.98184 -1.45769 -0.41852 54 56 39
1.96984 -1.45675 -0.43358 46 48 46
1.97444 -1.46675 -0.42557 51 55 54
1.99197 -1.46901 -0.41413 40 34 26
1.99805 -1.47938 -0.40707 18 11 13
1.99523 -1.49848 -0.40610 8 7 8
1.96669 -1.60120 -0.22632 46 46 37
1.95504 -1.60028 -0.24094 36 33 28
1.96899 -1.61028 -0.21726 88 82 78
1.96626 -1.62875 -0.21632 96 81 78
2.67947 -2.03510 -0.36650 51 46 37
2.68274 -2.01302 -0.36763 65 52 50
2.67415 -2.02352 -0.37579 60 49 45
2.70064 -2.05221 -0.36544 42 35 32
2.70984 -2.06519 -0.35810 30 22 23
2.72380 -2.08965 -0.34108 20 20 57
2.70317 -2.09199 -0.31856 34 41 80
2.76499 -2.12396 -0.33773 57 67 91
2.78137 -2.13971 -0.33380 80 87 83
2.74573 -2.14614 -0.29193 22 22 39
2.75223 -2.15822 -0.28316 13 10 15
2.74896 -2.18041 -0.28203 10 5 9
2.75634 -2.19821 -0.23752 8 7 6
2.75960 -2.17611 -0.23865 8 5 3
2.75101 -2.18661 -0.24682 8 5 6
2.76493 -2.18770 -0.22935 8 5 4
2.77026 -2.19930 -0.22005 8 6 5
2.92128 -2.30077 -0.26729 22 23 62
2.95611 -2.32433 -0.27122 23 26 74
2.95270 -2.34742 -0.27004 31 38 108
2.73359 -2.33831 -0.04232 42 52 129
2.73676 -2.31682 -0.04341 56 61 129
2.72840 -2.32703 -0.05136 50 63 133
2.72005 -2.33724 -0.05931 35 50 129
2.73041 -2.35979 -0.04123 16 32 124
2.75022 -2.54901 0.20291 65 66 61
2.73704 -2.54798 0.18637 31 42 88
2.75690 -2.56077 0.21112 87 85 57
2.77008 -2.56180 0.22767 102 90 66
2.76194 -2.57175 0.21993 99 89 67
2.75380 -2.58170 0.21219 96 86 60
2.60462 -2.64880 0.46497 116 100 85
2.60173 -2.66838 0.46597 114 96 76
2.60377 -2.65616 0.47491 120 105 91
2.57806 -2.65047 0.49231 132 119 111
2.54390 -2.64021 0.51207 148 137 127
2.54428 -2.64804 0.52140 165 151 129
2.59772 -2.69168 0.52466 186 167 136
2.61294 -2.70749 0.52978 184 160 128
0.56073 0.08409 -0.99614 212 209 189
0.55184 0.08479 -1.00730 139 159 163
0.56279 0.07601 -0.98807 186 164 148
0.58010 0.07552 -1.00407 166 141 128
0.59283 0.07262 -1.01270 134 118 101
0.59568 0.06482 -1.00574 98 71 66
0.59872 0.05712 -0.99909 92 59 57
0.59347 0.01838 -0.94588 213 190 157
0.59259 0.00902 -0.93341 239 223 197
0.59246 0.00005 -0.92212 236 226 206
0.59812 -0.00634 -0.91961 214 201 204
0.60054 -0.01416 -0.91222 172 160 189
0.59846 -0.02824 -0.91150 62 56 103
0.61721 -0.06871 -0.86040 58 59 80
0.60837 -0.06802 -0.87148 61 58 76
0.61175 -0.07538 -0.86558 62 59 74
0.61467 -0.08705 -0.83516 74 71 86
0.60925 -0.09368 -0.84032 78 82 98
0.61261 -0.10100 -0.83445 94 91 105
0.61240 -0.09654 -0.82119 82 75 89
0.61386 -0.10455 -0.81263 60 56 79
0.61181 -0.11843 -0.81192 59 52 80
0.61582 -0.12934 -0.78370 68 64 83
0.60712 -0.12866 -0.79462 59 59 82
0.61045 -0.13591 -0.78880 56 56 80
0.61378 -0.14316 -0.78299 59 56 69
0.64282 -0.25286 -0.65606 67 71 57
0.64483 -0.23925 -0.65675 56 59 76
0.63953 -0.24572 -0.66178 61 59 71
0.64811 -0.24639 -0.65103 56 56 64
0.64639 -0.25991 -0.65072 60 57 65
0.65143 -0.26657 -0.64728 62 61 69
0.64941 -0.28019 -0.64659 60 56 66
0.65679 -0.27315 -0.64425 67 74 81
0.66201 -0.27979 -0.64101 75 84 75
0.66985 -0.28576 -0.64112 54 54 57
0.67381 -0.29277 -0.63620 43 47 55
0.67872 -0.29955 -0.63249 55 56 82
0.68608 -0.30573 -0.63187 93 83 96
0.68747 -0.31341 -0.62365 122 125 119
0.69723 -0.31906 -0.62601 149 153 169
0.70308 -0.32570 -0.62338 145 143 169
0.71720 -0.33044 -0.63103 111 117 134
0.71515 -0.34432 -0.63033 39 29 49
0.72970 -0.33565 -0.63656 65 78 100
0.74024 -0.34138 -0.63956 49 41 74
0.76799 -0.35975 -0.64335 117 88 86
0.78192 -0.36503 -0.65018 178 163 143
0.79349 -0.37086 -0.65403 217 208 196
0.79138 -0.38515 -0.65331 254 254 254
0.76370 -0.38485 -0.60804 247 243 231
0.76163 -0.39888 -0.60733 254 254 254
0.75150 -0.39518 -0.58348 254 254 245
0.74945 -0.40909 -0.58278 254 254 254
0.95943 -0.97218 -0.06581 231 237 229
0.96142 -0.95867 -0.06650 250 250 251
0.95092 -0.97151 -0.07649 207 211 187
0.97241 -0.98040 -0.06806 193 182 181
0.99001 -0.98925 -0.07395 126 105 112
1.00580 -0.99797 -0.07828 67 60 57
1.00377 -1.01172 -0.07758 85 82 68
1.02443 -1.01396 -0.07628 85 76 58
1.01905 -1.02053 -0.08140 88 85 61
1.04803 -1.03763 -0.06952 78 84 56
1.03926 -1.03695 -0.08052 75 73 48
1.06994 -1.05447 -0.06962 33 32 34
1.06809 -1.06104 -0.05968 33 42 39
1.06603 -1.07502 -0.05897 28 37 46
1.08155 -1.06992 -0.06157 27 27 30
1.08365 -1.07709 -0.05467 16 11 18
1.08158 -1.09113 -0.05395 12 10 8
2.01414 -1.38467 -0.56574 10 13 15
2.00179 -1.38370 -0.58123 5 11 5
2.00652 -1.39398 -0.57299 7 10 7
2.01125 -1.40427 -0.56474 9 9 12
2.00138 -1.39125 -0.54531 11 14 22
1.99850 -1.41073 -0.54432 7 9 14
1.99296 -1.39865 -0.52802 14 14 30
1.96775 -1.40232 -0.49925 23 26 44
1.95870 -1.40938 -0.48178 33 49 53
1.97075 -1.41033 -0.46666 47 50 50
1.96332 -1.41942 -0.47374 47 53 64
1.96969 -1.47449 -0.41139 38 38 33
1.95773 -1.47355 -0.42641 52 54 54
1.98011 -1.48588 -0.40723 17 15 16
1.97730 -1.50492 -0.40626 8 8 7
1.96818 -1.61248 -0.23840 50 46 38
1.95650 -1.61156 -0.25305 36 32 22
1.97153 -1.62188 -0.22993 87 83 76
1.96880 -1.64041 -0.22899 96 81 76
2.64216 -2.02591 -0.37157 53 47 41
2.64540 -2.00396 -0.37269 67 52 53
2.63686 -2.01439 -0.38081 61 51 48
2.62833 -2.02482 -0.38892 57 53 43
2.66533 -2.04366 -0.37175 40 38 29
2.67988 -2.05848 -0.36730 29 23 20
2.68244 -2.06910 -0.35656 26 13 24
2.71173 -2.08924 -0.35964 28 34 68
2.72777 -2.10474 -0.35577 54 63 90
2.72448 -2.12704 -0.35464 82 89 104
2.75684 -2.12502 -0.35848 73 79 103
2.75353 -2.14745 -0.35734 81 87 99
2.78160 -2.14384 -0.35885 79 86 102
2.80080 -2.16072 -0.35630 84 89 93
2.82003 -2.17769 -0.35367 55 62 71
2.75986 -2.16517 -0.31146 27 24 38
2.75657 -2.18749 -0.31033 15 9 17
2.75948 -2.17472 -0.29922 15 9 16
2.75619 -2.19701 -0.29809 11 6 20
2.74901 -2.19005 -0.27011 10 4 17
2.75763 -2.17951 -0.26191 8 4 4
2.75049 -2.20020 -0.25891 16 12 31
2.74722 -2.22234 -0.25778 28 33 63
2.76505 -2.21537 -0.25403 18 21 44
2.79944 -2.23826 -0.25859 21 28 60
2.81441 -2.25373 -0.25373 25 33 79
2.81109 -2.27615 -0.25259 34 46 117
2.84283 -2.27452 -0.25517 30 36 95
2.83950 -2.29708 -0.25403 40 49 121
2.86893 -2.29452 -0.25538 34 39 104
2.86558 -2.31719 -0.25423 41 47 123
2.90651 -2.31917 -0.26082 34 39 107
2.90313 -2.34203 -0.25965 37 45 122
2.73818 -2.55710 0.19660 57 59 58
2.72502 -2.55607 0.18007 27 39 87
2.74764 -2.57018 0.20379 83 80 52
2.57218 -2.66057 0.48463 116 98 82
2.55996 -2.65961 0.46929 114 93 70
2.56464 -2.66979 0.47745 113 92 69
2.56932 -2.67997 0.48562 113 92 65
2.58647 -2.69124 0.50904 143 126 104
2.59231 -2.70204 0.51686 158 146 116
2.60401 -2.71600 0.52298 162 146 117
0.55849 0.06080 -0.98382 203 186 146
0.57914 0.06185 -1.00516 182 161 131
0.58561 0.05585 -1.00395 163 131 103
0.58178 0.04489 -0.98655 176 146 104
0.57259 0.02250 -0.94971 237 217 164
0.57250 0.01352 -0.93842 247 235 187
0.58217 0.00902 -0.94218 239 233 196
0.58229 0.00015 -0.93124 214 203 194
0.57894 -0.02785 -0.89305 100 82 135
0.57688 -0.04180 -0.89234 56 60 82
0.59580 -0.11592 -0.79954 64 61 87
0.59377 -0.12969 -0.79884 62 60 86
0.63166 -0.25293 -0.66338 75 72 83
0.63366 -0.23935 -0.66407 57 57 75
0.62838 -0.24580 -0.66909 59 59 76
0.62822 -0.26196 -0.64878 98 101 90
0.63660 -0.26764 -0.64983 85 87 88
0.66069 -0.29326 -0.64121 76 76 86
0.67030 -0.29882 -0.64360 93 88 96
0.67048 -0.30679 -0.63382 127 142 153
0.67705 -0.31317 -0.63224 151 155 169
0.68422 -0.31943 -0.63139 142 139 155
0.68722 -0.32671 -0.62521 103 111 129
0.70420 -0.33075 -0.63664 63 63 105
0.70269 -0.33912 -0.62473 55 42 63
0.73480 -0.34804 -0.64474 58 48 72
0.74839 -0.35320 -0.65148 124 91 86
0.77420 -0.36407 -0.66294 217 206 192
0.77210 -0.37830 -0.66222 254 254 254
0.73343 -0.38042 -0.60302 248 245 232
0.73138 -0.39431 -0.60231 254 254 254
0.73624 -0.38781 -0.59651 254 254 246
0.73419 -0.40170 -0.59581 254 254 254
0.97810 -0.98140 -0.09051 144 125 113
0.97609 -0.99507 -0.08981 82 75 69
0.97241 -0.98749 -0.07739 84 74 88
0.97040 -1.00110 -0.07670 86 80 69
0.97692 -0.99478 -0.07267 76 69 73
0.97491 -1.00840 -0.07198 91 86 67
0.99619 -1.00396 -0.07991 82 77 58
1.02167 -1.02769 -0.07501 89 86 56
1.05693 -1.04630 -0.08598 34 38 38
1.05148 -1.05297 -0.09116 13 11 25
1.05486 -1.06032 -0.08526 10 11 20
1.05487 -1.05286 -0.07580 15 19 24
1.05281 -1.06684 -0.07509 8 11 17
1.06523 -1.06124 -0.07539 8 13 26
1.05967 -1.06723 -0.06253 19 28 42
1.05761 -1.08119 -0.06182 32 34 41
1.06662 -1.08192 -0.05094 20 17 22
1.06456 -1.09588 -0.05023 13 11 13
1.96199 -1.41183 -0.50754 8 10 20
1.94987 -1.41088 -0.52274 8 8 9
1.95451 -1.42097 -0.51465 8 8 9
1.95915 -1.43106 -0.50656 6 9 19
1.95506 -1.41932 -0.49148 13 18 34
1.94119 -1.42517 -0.47073 26 30 45
1.95318 -1.42611 -0.45568 49 52 53
1.94229 -1.43435 -0.46035 34 44 41
1.95427 -1.43529 -0.44531 48 51 59
1.94735 -1.44444 -0.45267 44 52 48
1.95933 -1.44538 -0.43763 44 47 48
1.95194 -1.45442 -0.44467 45 53 49
1.96333 -1.48377 -0.41910 39 37 31
1.97176 -1.49470 -0.41364 19 14 14
1.96895 -1.51372 -0.41267 8 8 7
1.97820 -1.62630 -0.25571 52 48 40
1.96646 -1.62538 -0.27045 33 32 28
1.97744 -1.63453 -0.24469 87 83 78
1.97469 -1.65315 -0.24375 96 82 77
2.60469 -2.02620 -0.36427 43 43 32
2.60147 -2.04798 -0.36316 20 18 28
2.62375 -2.05210 -0.35045 25 15 23
2.68665 -2.08418 -0.37142 40 38 58
2.72444 -2.10750 -0.37897 63 72 100
2.72482 -2.11741 -0.36697 78 87 104
2.79576 -2.17287 -0.36657 79 86 93
2.81595 -2.19025 -0.36446 59 68 75
2.78148 -2.18716 -0.33489 32 26 32
2.77815 -2.20966 -0.33374 21 11 15
2.75658 -2.20679 -0.28626 14 12 33
2.74256 -2.20569 -0.30386 20 9 22
2.75330 -2.22906 -0.28513 27 32 34
2.75057 -2.21408 -0.27134 28 27 47
2.78845 -2.24800 -0.26576 24 35 84
2.79522 -2.26027 -0.25702 27 41 104
2.72738 -2.56575 0.18986 47 50 58
2.73649 -2.57867 0.19715 76 70 47
2.75402 -2.59571 0.20141 92 82 52
2.76723 -2.59674 0.21799 103 90 59
2.75908 -2.60671 0.21023 101 88 57
2.75092 -2.61668 0.20247 97 84 56
2.57968 -2.70852 0.51119 120 104 77
2.59471 -2.72430 0.51630 120 105 84
0.54958 0.04340 -0.97227 231 215 177
0.54751 0.02937 -0.97156 245 251 233
0.54980 0.03451 -0.96136 234 221 175
0.55606 0.02854 -0.96001 240 232 186
0.56373 0.02319 -0.96083 241 238 197
0.56882 0.01661 -0.95757 236 230 199
0.56402 0.00546 -0.93891 218 208 197
0.58787 -0.00158 -0.95345 116 111 133
0.58539 -0.01161 -0.93847 79 78 117
0.58820 -0.01928 -0.93162 64 75 110
0.58611 -0.03337 -0.93090 70 68 87
0.58026 -0.10937 -0.81107 62 71 92
0.57160 -0.10869 -0.82193 51 60 70
0.57492 -0.11590 -0.81615 64 81 83
0.57857 -0.11848 -0.79799 75 78 95
0.57654 -0.13219 -0.79730 59 55 67
0.58005 -0.12635 -0.78959 62 65 80
0.57803 -0.14004 -0.78889 60 60 77
0.58406 -0.15834 -0.75347 72 70 82
0.58078 -0.15120 -0.75920 59 58 86
0.59264 -0.15901 -0.74271 59 60 61
0.58482 -0.16637 -0.74417 73 78 74
0.58810 -0.17350 -0.73845 62 62 71
0.61869 -0.25354 -0.66820 61 61 78
0.62069 -0.23999 -0.66889 59 60 69
0.61542 -0.24643 -0.67390 60 61 72
0.61015 -0.25287 -0.67891 73 79 89
0.62214 -0.26060 -0.66274 72 73 92
0.62378 -0.26816 -0.65488 102 105 112
0.62931 -0.27464 -0.65218 86 81 89
0.63756 -0.28040 -0.65305 64 66 75
0.64450 -0.28656 -0.65212 73 59 77
0.65221 -0.30057 -0.64215 140 146 158
0.66510 -0.31331 -0.63882 142 152 170
0.66864 -0.32043 -0.63337 99 109 143
0.67864 -0.32602 -0.63617 62 64 100
0.68344 -0.33288 -0.63228 49 40 53
0.68551 -0.34038 -0.62492 38 27 53
0.70536 -0.34387 -0.63998 78 54 73
0.71639 -0.34945 -0.64379 132 92 98
0.72882 -0.35481 -0.64925 170 169 166
0.73952 -0.36061 -0.65247 218 204 193
0.73745 -0.37466 -0.65176 254 254 254
0.70900 -0.38291 -0.59467 254 254 245
0.70696 -0.39667 -0.59397 254 254 254
0.71515 -0.45944 -0.50489 240 245 254
0.71715 -0.44588 -0.50558 254 254 254
0.72043 -0.45299 -0.49987 254 254 254
0.70988 -0.46588 -0.50990 181 171 211
0.72370 -0.46011 -0.49416 254 254 254
0.71842 -0.46655 -0.49918 253 254 254
0.93477 -0.95655 -0.09758 245 251 246
0.93676 -0.94305 -0.09827 250 249 251
0.93151 -0.94946 -0.10326 252 250 252
0.94002 -0.95013 -0.09259 251 250 251
0.93802 -0.96363 -0.09191 221 218 214
0.92852 -0.96926 -0.07556 173 149 161
0.93374 -0.96288 -0.07060 240 250 242
0.92331 -0.97563 -0.08052 92 74 87
0.92654 -0.98267 -0.07488 87 75 80
0.95020 -0.97846 -0.08526 114 94 104
0.99480 -1.01777 -0.07972 87 86 68
1.00418 -1.02580 -0.07885 75 81 63
1.00215 -1.03957 -0.07815 16 15 23
1.01257 -1.03374 -0.07713 62 53 30
1.01053 -1.04754 -0.07643 11 11 15
1.03887 -1.04428 -0.08968 30 23 25
1.03681 -1.05824 -0.08897 11 8 17
1.05390 -1.07381 -0.06743 14 15 34
1.04510 -1.07312 -0.07847 9 10 12
1.05496 -1.08754 -0.05128 25 19 27
1.04954 -1.09416 -0.05643 24 22 45
1.93474 -1.43444 -0.47843 9 12 25
1.92274 -1.43350 -0.49349 7 8 11
1.92734 -1.44349 -0.48548 7 7 13
1.93193 -1.45348 -0.47747 8 8 15
1.93076 -1.44242 -0.46454 14 16 26
1.93646 -1.45265 -0.45732 23 29 40
1.94140 -1.46270 -0.44957 32 45 47
1.95337 -1.46364 -0.43455 48 52 52
1.94695 -1.47290 -0.44223 41 52 51
1.95264 -1.48315 -0.43498 52 56 49
1.95698 -1.49306 -0.42681 39 35 29
1.96404 -1.50366 -0.42047 19 14 17
1.96124 -1.52268 -0.41950 7 9 12
1.98587 -1.63955 -0.27172 56 48 43
1.99012 -1.64930 -0.26367 88 83 79
1.98735 -1.66803 -0.26272 96 81 77
2.70114 -2.10307 -0.39179 49 66 83
2.71575 -2.11813 -0.38724 67 83 104
2.71941 -2.12923 -0.37693 70 83 98
2.75630 -2.15258 -0.38381 67 82 95
2.78074 -2.17147 -0.38409 67 79 98
2.79594 -2.18700 -0.37953 67 82 99
2.81941 -2.20570 -0.37911 58 70 75
2.76528 -2.24333 -0.27900 22 27 38
2.75123 -2.24223 -0.29662 38 31 15
2.75661 -2.25393 -0.28724 29 20 18
2.76199 -2.26563 -0.27786 20 10 26
2.77771 -2.25781 -0.27303 13 21 49
2.78672 -2.27097 -0.26538 15 25 73
2.79697 -2.28465 -0.25830 24 34 98
2.80603 -2.29787 -0.25062 36 45 115
2.81144 -2.30963 -0.24119 43 50 125
2.74109 -2.31856 -0.16114 35 44 126
2.74432 -2.29667 -0.16225 31 43 123
2.73581 -2.30707 -0.17034 34 42 127
2.74960 -2.30815 -0.15304 31 41 124
2.75488 -2.31964 -0.14384 28 38 119
2.76254 -2.33678 -0.15932 30 40 121
2.77638 -2.33786 -0.14195 21 38 110
2.76784 -2.34831 -0.15008 19 36 112
2.70746 -2.56145 0.17588 23 35 84
2.71054 -2.54060 0.17482 21 38 118
2.70243 -2.55051 0.16711 21 37 117
2.69433 -2.56042 0.15939 24 39 122
2.70438 -2.58230 0.17694 27 29 47
2.71749 -2.57482 0.18279 36 37 51
2.73063 -2.58972 0.18858 65 57 40
2.74815 -2.60680 0.19281 84 76 47
2.59219 -2.73628 0.50762 106 88 52
2.57993 -2.73532 0.49224 109 88 69
2.58462 -2.74553 0.50042 110 88 57
2.58931 -2.75574 0.50861 120 96 66
2.55661 -2.73199 0.53708 129 111 90
0.53710 0.04231 -0.97751 249 242 225
0.53938 0.03443 -0.96987 250 250 230
0.55193 0.02250 -0.96729 233 236 227
0.56458 0.01946 -0.97599 205 208 207
0.58843 0.02150 -1.00213 163 164 171
0.54207 -0.00873 -0.91832 133 126 153
0.55544 -0.02030 -0.91699 44 42 84
0.55338 -0.03423 -0.91628 58 56 71
0.57090 -0.03111 -0.91870 71 72 92
0.56883 -0.04511 -0.91799 60 63 81
0.57068 -0.15938 -0.75733 64 57 83
0.57268 -0.14581 -0.75802 61 61 91
0.56740 -0.15226 -0.76304 57 56 80
0.56213 -0.15871 -0.76806 55 57 69
0.57056 -0.16769 -0.74678 91 85 99
0.57813 -0.17331 -0.74719 91 94 99
0.57612 -0.18690 -0.74650 64 66 62
0.57865 -0.18138 -0.73758 64 68 64
0.58719 -0.18205 -0.72686 66 65 77
0.58192 -0.18849 -0.73188 65 66 75
0.59799 -0.24035 -0.68261 83 84 91
0.59998 -0.22685 -0.68330 83 93 95
0.59473 -0.23326 -0.68830 69 72 80
0.60324 -0.23393 -0.67762 64 68 70
0.60650 -0.24102 -0.67194 59 60 70
0.59600 -0.25385 -0.68193 90 95 102
0.60202 -0.24720 -0.67799 75 73 84
0.60750 -0.26168 -0.66523 71 73 86
0.61488 -0.26760 -0.66509 52 52 68
0.61775 -0.27481 -0.65885 69 70 81
0.62023 -0.28213 -0.65212 74 63 90
0.62858 -0.28786 -0.65318 92 87 108
0.63256 -0.29479 -0.64841 134 132 146
0.64245 -0.30020 -0.65139 160 162 168
0.64691 -0.30705 -0.64719 148 150 161
0.65429 -0.31318 -0.64678 110 116 134
0.66543 -0.32643 -0.64115 44 32 70
0.66886 -0.33359 -0.63555 40 30 51
0.68149 -0.33863 -0.64170 79 58 68
0.68641 -0.34550 -0.63794 134 91 106
0.68929 -0.35283 -0.63158 180 168 167
0.70881 -0.35655 -0.64621 225 202 195
0.70675 -0.37046 -0.64550 254 254 254
0.68918 -0.36874 -0.61148 250 250 239
0.68715 -0.38247 -0.61079 254 254 254
0.68495 -0.37751 -0.59627 254 254 246
0.68293 -0.39119 -0.59558 254 254 254
0.71103 -0.45806 -0.52086 105 143 201
0.71303 -0.44447 -0.52155 247 254 254
0.70775 -0.45093 -0.52658 195 185 232
0.70543 -0.47417 -0.49510 245 253 254
0.71394 -0.47483 -0.48443 254 254 254
0.70869 -0.48125 -0.48942 254 254 254
0.92116 -0.94861 -0.11235 247 252 250
0.92315 -0.93512 -0.11303 250 249 251
0.91790 -0.94153 -0.11802 251 250 251
0.92640 -0.94220 -0.10736 250 249 251
0.92638 -0.95589 -0.10836 231 237 233
0.92669 -0.96265 -0.10017 192 184 177
0.94838 -0.97183 -0.11009 132 112 112
0.94637 -0.98544 -0.10940 87 79 72
0.94925 -0.99213 -0.08544 89 81 69
0.94071 -0.99146 -0.09615 92 87 79
0.94398 -0.99857 -0.09045 94 91 72
0.97806 -1.02272 -0.07550 68 65 41
1.02117 -1.03549 -0.10208 33 35 41
1.01911 -1.04941 -0.10137 9 10 15
1.04073 -1.07921 -0.06650 12 10 23
1.03197 -1.07852 -0.07750 7 9 10
1.03532 -1.08582 -0.07165 10 8 16
1.04544 -1.08673 -0.06171 22 21 39
1.04339 -1.10065 -0.06100 24 27 37
1.92731 -1.46126 -0.46313 11 10 22
1.91535 -1.46032 -0.47814 7 7 14
1.91993 -1.47028 -0.47015 8 6 10
1.92451 -1.48024 -0.46217 7 8 13
1.93206 -1.47126 -0.45526 14 16 30
1.93747 -1.48142 -0.44784 24 27 41
1.94242 -1.49148 -0.44010 35 47 37
1.95053 -1.50233 -0.43448 27 30 27
1.94772 -1.52135 -0.43351 8 11 13
1.95728 -1.51286 -0.42793 15 13 19
1.95447 -1.53189 -0.42696 6 10 9
1.98204 -1.64098 -0.29146 38 29 39
1.98482 -1.62219 -0.29241 30 31 36
1.97751 -1.63112 -0.29936 32 28 40
1.97021 -1.64005 -0.30631 32 28 40
1.98657 -1.65083 -0.28355 63 48 51
2.00663 -1.66536 -0.28513 88 83 80
2.00384 -1.68424 -0.28417 94 81 78
2.50886 -2.01871 -0.33779 29 20 21
