ply
format ascii 1.0
element face 0
property list uchar int vertex_indices
element vertex 1323
property float x
property float y
property float z
property uchar diffuse_red
property uchar diffuse_green
property uchar diffuse_blue
end_header
1.99085 -2.40732 -0.78443 34 18 35
2.00190 -2.40558 -0.76599 53 67 66
2.00033 -2.42695 -0.76411 81 82 85
2.11107 -2.56540 -0.65184 84 89 74
2.09758 -2.56596 -0.66879 84 90 85
2.10353 -2.57645 -0.65937 84 89 82
2.12930 -2.58247 -0.65011 63 64 56
2.16719 -2.61019 -0.66053 39 36 33
2.15559 -2.61128 -0.64008 27 23 33
2.15695 -2.62662 -0.61459 21 30 24
2.15535 -2.64825 -0.61269 22 17 21
2.17342 -2.64289 -0.61150 26 39 24
2.16984 -2.64820 -0.59622 29 41 32
2.19702 -2.67043 -0.59947 27 43 35
2.21526 -2.70234 -0.57100 37 61 20
2.22251 -2.71364 -0.56220 36 58 17
2.19476 -2.70526 -0.53304 35 56 23
2.20604 -2.71877 -0.52668 35 54 27
2.22466 -2.73645 -0.52448 34 48 38
2.24909 -2.75748 -0.52550 29 39 43
2.24748 -2.77928 -0.52360 5 7 16
2.29296 -2.78968 -0.53740 22 31 35
2.29134 -2.81171 -0.53547 5 6 17
2.31770 -2.81108 -0.53825 16 22 34
2.31607 -2.83323 -0.53631 7 6 20
2.34451 -2.83374 -0.54013 11 15 42
2.34287 -2.85602 -0.53818 7 6 20
2.36675 -2.85385 -0.53932 8 11 42
2.36510 -2.87623 -0.53736 7 6 15
2.41192 -2.89467 -0.53772 10 9 37
2.41025 -2.91725 -0.53574 7 6 17
2.43340 -2.91454 -0.53614 10 8 39
2.43173 -2.93721 -0.53416 7 6 18
2.43180 -2.92099 -0.52197 9 7 39
2.43013 -2.94361 -0.51999 8 7 20
2.43271 -2.93619 -0.49599 10 9 34
2.42481 -2.94776 -0.50388 9 8 18
2.43105 -2.95875 -0.49402 9 9 13
2.44518 -3.07866 -0.25897 10 11 27
2.43144 -3.07923 -0.27623 13 13 15
2.44492 -3.08537 -0.24644 21 23 40
2.45979 -3.10157 -0.24094 39 42 41
2.45817 -3.12351 -0.23902 50 49 44
2.46655 -3.11270 -0.23166 50 51 48
2.46493 -3.13464 -0.22974 58 50 60
2.46465 -3.11835 -0.21844 59 56 63
2.49824 -3.14646 -0.22129 69 69 77
2.47427 -3.13809 -0.19816 91 99 96
2.49969 -3.16110 -0.19722 117 122 123
2.49951 -3.16781 -0.18483 139 141 132
2.49789 -3.18977 -0.18291 146 145 129
-0.20482 -0.56985 -0.57776 252 254 252
-0.20402 -0.55905 -0.57871 254 254 254
-0.20780 -0.56459 -0.58248 254 254 254
-0.20104 -0.56431 -0.57398 254 254 254
-0.19642 -0.57419 -0.58341 244 248 240
-0.19541 -0.57980 -0.57487 227 223 220
-0.18824 -0.58441 -0.57806 199 183 197
-0.18879 -0.59025 -0.56661 160 136 158
-0.18959 -0.60108 -0.56566 99 83 87
-0.17053 -0.59328 -0.59053 128 99 125
-0.17135 -0.60426 -0.58956 103 92 84
-0.16464 -0.59822 -0.59106 108 84 96
-0.16545 -0.60924 -0.59009 107 95 84
-0.15645 -0.60288 -0.59582 95 84 80
-0.15726 -0.61395 -0.59485 109 96 92
-0.10935 -0.63800 -0.60803 97 90 73
-0.08203 -0.65298 -0.62489 69 58 61
-0.08605 -0.65888 -0.62891 58 51 56
-0.08288 -0.66447 -0.62388 56 50 55
-0.07877 -0.65857 -0.62001 59 52 61
-0.07962 -0.67006 -0.61900 54 49 54
1.46439 -1.65825 -1.29414 18 17 22
1.45157 -1.65879 -1.31024 12 11 7
1.45723 -1.66875 -1.30130 15 13 16
1.46767 -1.66742 -1.28280 26 29 27
1.46713 -1.67530 -1.26766 31 32 37
1.47350 -1.69348 -1.24496 29 28 38
1.84266 -2.05137 -1.19095 90 94 115
1.84427 -2.02949 -1.19287 86 91 110
1.83661 -2.04072 -1.20052 87 92 113
1.85032 -2.04015 -1.18330 86 90 104
1.86991 -2.07089 -1.19947 94 99 123
1.88141 -2.08389 -1.19443 99 103 126
1.86748 -2.08616 -1.16788 98 111 129
1.88352 -2.10108 -1.16666 96 110 126
1.89119 -2.11247 -1.15837 86 91 95
1.91950 -2.13277 -1.16719 58 58 57
1.91786 -2.15493 -1.16525 33 30 44
1.91937 -2.14085 -1.15234 34 32 47
1.91774 -2.16297 -1.15040 34 36 47
1.99332 -2.31745 -0.95134 90 103 100
1.99754 -2.32722 -0.94041 82 89 91
1.98448 -2.32865 -0.91679 73 71 62
1.99141 -2.33968 -0.90795 51 42 18
1.99030 -2.35442 -0.87944 39 49 45
1.99993 -2.39697 -0.81782 77 78 64
1.98644 -2.39753 -0.83476 84 82 75
1.99776 -2.40336 -0.80273 64 73 49
1.99617 -2.42483 -0.80085 25 19 43
1.99643 -2.41756 -0.77484 58 70 73
2.01210 -2.44036 -0.75877 78 81 74
2.02552 -2.43980 -0.74192 83 80 84
2.08356 -2.50697 -0.75314 89 90 95
2.09116 -2.49583 -0.74554 90 90 96
2.09716 -2.50641 -0.73605 90 92 94
2.08956 -2.51755 -0.74364 86 87 86
2.08195 -2.52869 -0.75124 69 71 71
2.10137 -2.58254 -0.64484 79 83 71
2.08790 -2.58310 -0.66175 86 90 84
2.13223 -2.60655 -0.65105 72 70 51
2.15182 -2.62451 -0.65006 54 49 45
2.15828 -2.63534 -0.64084 40 30 39
2.14937 -2.63772 -0.62216 31 21 26
2.16245 -2.65941 -0.60391 17 14 22
2.18357 -2.67836 -0.60357 12 13 26
2.24807 -2.73625 -0.60256 9 12 8
2.25034 -2.74482 -0.59067 7 12 6
2.24871 -2.76683 -0.58875 9 8 6
2.23723 -2.74467 -0.56983 5 10 7
2.23561 -2.76655 -0.56792 6 7 6
2.23531 -2.75079 -0.55563 5 8 8
2.23370 -2.77263 -0.55372 8 8 6
2.24778 -2.76510 -0.54979 5 7 11
2.24617 -2.78698 -0.54788 11 10 7
2.26394 -2.78154 -0.54602 6 7 13
2.26232 -2.80348 -0.54410 11 13 14
2.43450 -3.08802 -0.26523 15 17 24
2.45425 -3.10732 -0.26205 26 28 39
2.46535 -3.12121 -0.25477 40 43 40
2.50500 -3.16702 -0.23560 70 58 74
2.46297 -3.14700 -0.20418 87 90 86
2.48484 -3.16780 -0.20171 118 124 120
2.48334 -3.17362 -0.18874 141 145 127
2.48173 -3.19553 -0.18682 147 146 129
-0.20866 -0.56381 -0.60254 251 254 250
-0.20786 -0.55295 -0.60349 254 254 254
-0.21166 -0.55852 -0.60729 254 254 254
-0.20486 -0.55824 -0.59874 254 254 254
-0.20764 -0.56944 -0.59394 242 245 233
-0.20445 -0.57468 -0.58957 224 214 210
-0.20989 -0.58134 -0.56857 192 168 180
-0.19562 -0.58479 -0.58553 153 127 137
-0.18399 -0.58875 -0.59724 125 96 126
-0.18480 -0.59971 -0.59628 105 91 86
-0.17799 -0.59365 -0.59809 108 81 102
-0.17880 -0.60463 -0.59713 106 96 84
-0.12657 -0.62771 -0.61975 101 95 74
-0.12968 -0.62222 -0.62468 104 96 80
-0.12261 -0.62192 -0.61581 104 97 83
-0.13052 -0.63349 -0.62370 88 79 67
-0.11096 -0.63774 -0.62687 84 77 68
-0.10183 -0.64270 -0.63270 76 66 61
-0.10268 -0.65413 -0.63170 57 49 55
1.48103 -1.68483 -1.31076 22 19 24
1.47361 -1.69039 -1.28852 29 29 41
1.47209 -1.71088 -1.28673 39 39 47
1.46938 -1.69698 -1.26964 34 38 51
1.46787 -1.71739 -1.26785 52 46 43
1.43976 -1.71043 -1.19688 50 63 74
1.44415 -1.71979 -1.18697 61 75 86
1.44267 -1.73986 -1.18521 67 77 88
1.82653 -2.05093 -1.20608 91 99 121
1.82815 -2.02907 -1.20800 85 90 114
1.82049 -2.04029 -1.21564 86 94 120
1.81887 -2.06215 -1.21373 99 109 127
1.84037 -2.06485 -1.20324 98 104 128
1.85249 -2.07809 -1.19885 101 115 135
1.86705 -2.09239 -1.19649 98 112 126
1.84527 -2.09119 -1.16323 83 83 96
1.89692 -2.12146 -1.19216 57 55 64
1.89529 -2.14360 -1.19022 29 34 41
1.90620 -2.13361 -1.18513 37 37 50
1.90457 -2.15577 -1.18319 37 40 50
1.89996 -2.13901 -1.16511 33 26 44
1.89833 -2.16109 -1.16318 36 42 48
1.88435 -2.25718 -0.92431 54 58 61
1.87099 -2.25774 -0.94108 50 51 49
1.87688 -2.26812 -0.93176 48 49 54
1.92201 -2.28274 -0.93906 65 76 81
1.95142 -2.30449 -0.94731 75 86 85
1.95787 -2.31527 -0.93817 78 87 94
1.95037 -2.31928 -0.91863 70 75 88
1.94877 -2.34088 -0.91674 84 94 88
1.95840 -2.33080 -0.91071 68 66 61
1.96742 -2.34282 -0.90351 65 55 34
1.97793 -2.35558 -0.89736 47 31 31
1.97839 -2.36339 -0.88386 35 36 40
1.96948 -2.36653 -0.86364 54 66 51
1.99525 -2.40946 -0.82737 81 81 68
1.98176 -2.41002 -0.84432 89 88 81
1.99939 -2.41902 -0.81667 66 70 56
2.00310 -2.43579 -0.79215 52 67 60
2.00151 -2.45726 -0.79027 56 47 57
2.00943 -2.45383 -0.76957 70 58 51
2.02200 -2.46773 -0.76472 67 66 63
2.05865 -2.50162 -0.76262 67 80 84
2.08394 -2.52231 -0.76608 70 72 81
2.08233 -2.54408 -0.76418 79 88 78
2.07474 -2.58314 -0.64024 88 88 79
2.06135 -2.58370 -0.65706 88 93 88
2.07593 -2.59096 -0.62793 92 92 66
2.15942 -2.65859 -0.64063 52 40 42
2.14548 -2.65808 -0.61885 39 30 29
2.15584 -2.67105 -0.61207 27 18 21
2.15424 -2.69270 -0.61017 58 50 45
2.17595 -2.68951 -0.61117 23 17 24
2.17435 -2.71125 -0.60927 52 47 42
2.20740 -2.71441 -0.61701 25 20 22
2.20579 -2.73631 -0.61509 42 40 38
2.28730 -2.92357 -0.36591 17 14 23
2.28889 -2.90203 -0.36779 10 9 11
2.28135 -2.91308 -0.37533 16 14 16
2.29485 -2.91252 -0.35837 12 9 15
2.30080 -2.92301 -0.34895 14 10 18
2.28571 -2.94511 -0.36402 26 25 36
2.44454 -3.10360 -0.29383 25 25 20
2.44617 -3.08155 -0.29576 13 13 13
2.43845 -3.09286 -0.30347 23 24 18
2.43072 -3.10417 -0.31118 34 32 29
2.44591 -3.11134 -0.28194 27 27 26
2.45443 -3.12361 -0.27345 32 33 33
2.45799 -3.13273 -0.26263 43 40 34
2.46640 -3.15177 -0.24164 64 56 61
2.47760 -3.16576 -0.23436 78 69 74
2.42953 -3.14160 -0.20012 94 94 90
2.46430 -3.17076 -0.20359 116 122 122
2.46268 -3.19264 -0.20168 136 133 138
2.48785 -3.19275 -0.20186 138 139 128
2.48623 -3.21473 -0.19993 153 148 138
-0.22565 -0.56015 -0.60155 251 253 249
-0.22485 -0.54937 -0.60250 254 254 254
-0.22863 -0.55490 -0.60627 254 254 254
-0.22187 -0.55462 -0.59778 254 254 254
-0.21700 -0.56437 -0.60804 241 243 232
-0.20867 -0.56871 -0.61379 222 210 209
-0.22081 -0.57660 -0.57937 187 168 172
-0.21618 -0.58155 -0.57790 149 125 132
-0.21698 -0.59231 -0.57696 101 84 90
-0.19981 -0.58465 -0.59915 125 91 117
-0.20062 -0.59554 -0.59820 105 91 87
-0.19567 -0.58978 -0.59657 105 79 88
-0.19648 -0.60069 -0.59562 108 95 89
-0.18471 -0.59391 -0.60704 101 83 91
-0.18552 -0.60489 -0.60608 107 96 89
-0.14086 -0.62299 -0.62592 101 94 79
-0.14396 -0.61752 -0.63084 105 94 87
-0.13692 -0.61723 -0.62199 106 96 87
-0.14479 -0.62876 -0.62985 87 79 71
-0.11446 -0.63767 -0.64247 78 67 66
-0.11530 -0.64907 -0.64147 56 52 57
-0.10878 -0.64297 -0.64210 64 58 64
-0.10962 -0.65440 -0.64110 55 53 56
-0.10563 -0.64854 -0.63707 59 52 60
-0.10647 -0.65997 -0.63607 54 51 53
1.46803 -1.68533 -1.32686 13 13 21
1.46234 -1.67530 -1.33587 10 15 10
1.45513 -1.68587 -1.34307 16 18 14
1.47381 -1.69538 -1.31795 25 29 29
1.47028 -1.70223 -1.29959 36 40 45
1.46876 -1.72275 -1.29779 41 43 44
1.45747 -1.72166 -1.24291 44 38 43
1.45036 -1.73207 -1.25001 24 28 43
1.43510 -1.72157 -1.20626 46 57 67
1.83677 -2.06155 -1.24427 96 102 125
1.83840 -2.03952 -1.24620 88 91 116
1.82296 -2.06212 -1.26161 97 105 130
1.84101 -2.07963 -1.21811 96 111 126
1.86171 -2.09658 -1.22111 88 88 101
1.88885 -2.11638 -1.22949 54 52 64
1.88720 -2.13860 -1.22755 35 38 42
1.87630 -2.11912 -1.20384 29 27 45
1.87467 -2.14121 -1.20190 37 41 33
1.89087 -2.13356 -1.20135 23 29 39
1.88923 -2.15571 -1.19940 37 40 25
1.92003 -2.31166 -0.92298 67 70 81
1.93383 -2.32597 -0.91947 76 89 86
1.93479 -2.34153 -0.89253 88 87 68
1.94421 -2.35372 -0.88571 75 65 37
1.96178 -2.36998 -0.88481 44 37 36
1.96018 -2.39155 -0.88293 58 44 43
1.95712 -2.38264 -0.85396 67 72 58
1.97057 -2.38208 -0.83707 78 78 65
1.96645 -2.39480 -0.84702 79 81 70
1.98685 -2.42007 -0.83429 83 83 68
1.98612 -2.42713 -0.82016 71 68 54
1.98454 -2.44862 -0.81827 25 27 32
1.97940 -2.43107 -0.80186 24 23 30
1.98678 -2.44225 -0.79352 39 45 51
2.00730 -2.46764 -0.78078 63 41 40
2.01949 -2.48137 -0.77567 59 57 63
2.03920 -2.49909 -0.77564 56 62 75
2.05872 -2.52415 -0.76185 70 77 81
2.05333 -2.55050 -0.70469 65 63 53
2.05491 -2.52904 -0.70657 59 72 64
2.04739 -2.54005 -0.71407 67 73 68
2.06085 -2.53949 -0.69718 68 71 66
2.06678 -2.54994 -0.68779 81 83 83
2.05926 -2.56095 -0.69530 62 69 71
2.02934 -2.55191 -0.66263 64 68 68
2.04265 -2.55136 -0.64591 84 89 86
2.02697 -2.55775 -0.64802 77 83 85
2.05367 -2.58662 -0.63905 96 97 86
2.07487 -2.61258 -0.62639 86 90 82
2.07329 -2.63391 -0.62452 93 92 92
2.14852 -2.68231 -0.61981 62 54 48
2.14693 -2.70397 -0.61791 94 92 75
2.21431 -2.75559 -0.59380 29 22 27
2.20060 -2.75616 -0.61102 62 58 58
2.20665 -2.76681 -0.60145 57 52 53
2.21269 -2.77746 -0.59188 51 44 44
2.27410 -2.92431 -0.38302 23 20 23
2.27569 -2.90277 -0.38490 16 14 15
2.26814 -2.91382 -0.39244 23 20 21
2.27975 -2.93462 -0.37344 24 22 28
2.45447 -3.12613 -0.31003 36 34 26
2.45976 -3.13639 -0.29994 39 34 27
2.46031 -3.14361 -0.28761 42 40 38
2.46881 -3.15591 -0.27906 55 55 50
2.49520 -3.17972 -0.27885 74 74 58
2.47096 -3.17096 -0.25502 92 91 80
2.43206 -3.15260 -0.22464 109 108 98
2.47360 -3.18625 -0.23134 119 119 116
2.47197 -3.20827 -0.22941 140 138 134
2.47482 -3.19381 -0.21950 131 133 133
2.47320 -3.21580 -0.21758 140 133 135
-0.24396 -0.55104 -0.60810 254 254 254
-0.24317 -0.54032 -0.60904 254 254 254
-0.24693 -0.54582 -0.61279 254 254 254
-0.24021 -0.54554 -0.60435 254 254 254
-0.23724 -0.55076 -0.59966 254 254 254
-0.23780 -0.55565 -0.60987 249 253 250
-0.23155 -0.56027 -0.61175 241 240 236
-0.22332 -0.56457 -0.61753 221 205 214
-0.23668 -0.57274 -0.58025 186 164 175
-0.22700 -0.57678 -0.58890 149 120 133
-0.22779 -0.58753 -0.58796 100 84 86
-0.21148 -0.57994 -0.60889 119 89 108
-0.21228 -0.59081 -0.60794 104 92 79
-0.15473 -0.61827 -0.63266 100 93 79
-0.15390 -0.60707 -0.63364 106 97 84
-0.15782 -0.61282 -0.63755 103 96 84
-0.15080 -0.61252 -0.62874 106 96 86
-0.14703 -0.62318 -0.63641 94 88 77
-0.12441 -0.63237 -0.65710 77 71 62
-0.12525 -0.64378 -0.65610 61 55 56
-0.11694 -0.64337 -0.64925 65 53 61
-0.11778 -0.65479 -0.64825 55 53 50
1.46209 -1.69633 -1.33537 17 15 27
1.44918 -1.69686 -1.35158 17 17 17
1.45487 -1.70689 -1.34257 19 16 28
1.46056 -1.71692 -1.33356 28 31 47
1.46978 -1.70705 -1.32841 29 32 38
1.46826 -1.72766 -1.32660 44 45 62
1.45881 -1.71126 -1.30241 41 46 47
1.45730 -1.73175 -1.30061 42 42 50
1.43055 -1.73278 -1.21577 30 41 64
1.41794 -1.73330 -1.23159 26 32 41
1.42906 -1.75288 -1.21400 39 50 71
1.84257 -2.07859 -1.26389 100 110 134
1.83722 -2.08447 -1.24416 94 103 110
1.85758 -2.10133 -1.24696 58 57 58
1.85595 -2.12348 -1.24502 41 38 41
1.86078 -2.11085 -1.23473 35 26 51
1.85914 -2.13297 -1.23279 39 39 43
1.86848 -2.12231 -1.22642 34 28 44
1.86684 -2.14445 -1.22448 38 40 50
1.91072 -2.32933 -0.91528 58 65 66
1.90321 -2.34032 -0.92278 70 76 66
1.90914 -2.35076 -0.91341 69 76 69
1.91235 -2.33763 -0.90269 70 74 78
1.91077 -2.35903 -0.90082 59 67 69
1.90732 -2.34260 -0.88519 83 86 90
1.91571 -2.35423 -0.87770 95 90 96
1.94782 -2.39274 -0.86017 60 61 69
1.95985 -2.40629 -0.85520 76 83 68
1.97020 -2.41901 -0.84898 84 88 75
1.96861 -2.44053 -0.84709 48 41 53
1.97744 -2.43015 -0.84049 70 65 55
1.96189 -2.42952 -0.81581 62 54 42
1.98021 -2.45373 -0.80167 39 38 61
1.97552 -2.45860 -0.78490 63 67 72
1.97394 -2.47995 -0.78303 92 96 94
1.97854 -2.46748 -0.77356 80 88 78
1.97697 -2.48881 -0.77169 94 95 90
2.00317 -2.48777 -0.77714 91 96 89
2.00159 -2.50922 -0.77526 92 104 99
2.02841 -2.51579 -0.76749 102 104 100
2.02682 -2.53734 -0.76560 103 106 105
2.02287 -2.52740 -0.73690 109 115 97
2.03630 -2.52684 -0.72003 76 84 78
2.02129 -2.54883 -0.73502 103 103 100
2.02390 -2.54240 -0.71095 111 108 93
2.01641 -2.55336 -0.71842 104 105 103
2.02023 -2.54760 -0.69528 94 95 81
2.01666 -2.55281 -0.67976 77 81 71
2.01878 -2.56109 -0.66802 65 60 57
2.01549 -2.56638 -0.65279 59 62 74
2.02488 -2.57864 -0.64583 74 86 91
2.04848 -2.60589 -0.63488 103 109 91
2.04691 -2.62714 -0.63302 109 104 100
2.15058 -2.76240 -0.51633 27 20 14
2.16397 -2.76184 -0.49951 17 17 20
2.15649 -2.77281 -0.50698 21 15 15
2.26181 -2.90500 -0.43861 36 30 28
2.26989 -2.91682 -0.43027 37 31 26
2.28348 -2.91626 -0.41321 23 21 20
2.25300 -2.91338 -0.40852 35 32 28
2.25074 -2.91883 -0.39473 34 34 30
2.25759 -2.92985 -0.38581 36 35 32
2.27221 -2.94567 -0.38097 36 35 33
2.28350 -2.95947 -0.37434 36 36 35
2.29702 -2.95890 -0.35736 25 26 31
2.29831 -2.97546 -0.36949 34 31 32
2.31186 -2.97490 -0.35246 22 24 20
2.44035 -3.13343 -0.31470 46 44 44
2.46173 -3.15400 -0.31236 59 58 52
2.44448 -3.14975 -0.29149 72 70 66
2.45979 -3.16644 -0.28620 85 89 81
2.43758 -3.15888 -0.26320 106 112 91
2.45858 -3.17926 -0.26057 124 127 110
2.45695 -3.20131 -0.25864 137 138 129
2.47545 -3.19701 -0.25592 132 131 122
2.47381 -3.21912 -0.25399 140 137 137
2.48044 -3.20705 -0.24574 133 131 132
2.47881 -3.22915 -0.24380 140 136 134
-0.25297 -0.54596 -0.62263 254 254 254
-0.25218 -0.53523 -0.62357 254 254 254
-0.25593 -0.54074 -0.62732 254 254 254
-0.24921 -0.54046 -0.61888 254 254 254
-0.25170 -0.55153 -0.61447 249 253 248
-0.24772 -0.55654 -0.61186 238 240 231
-0.23746 -0.56039 -0.62198 217 203 210
-0.24485 -0.56755 -0.59629 183 158 176
-0.24341 -0.57302 -0.58858 147 114 143
-0.24419 -0.58370 -0.58765 100 85 93
-0.21896 -0.57452 -0.62688 118 86 117
-0.21977 -0.58542 -0.62592 104 92 86
-0.21702 -0.58001 -0.61998 101 79 88
-0.21783 -0.59089 -0.61902 105 94 83
-0.16679 -0.61336 -0.64263 100 94 83
-0.16988 -0.60792 -0.64752 105 94 89
-0.16288 -0.60762 -0.63872 105 96 85
-0.15085 -0.62309 -0.65138 87 80 70
-0.14221 -0.62796 -0.65690 79 70 66
-0.14304 -0.63929 -0.65591 63 56 54
-0.13260 -0.63278 -0.66411 71 60 62
-0.13345 -0.64418 -0.66311 60 56 54
1.43687 -1.74798 -1.23620 26 34 56
1.42420 -1.74851 -1.25211 19 20 24
1.43538 -1.76819 -1.23443 26 33 52
1.42260 -1.79628 -1.12277 42 49 72
1.41835 -1.80215 -1.10476 58 66 88
1.43073 -1.80163 -1.08921 53 66 77
1.41690 -1.82189 -1.10303 69 79 97
1.81932 -2.07516 -1.27295 94 104 118
1.82095 -2.05310 -1.27488 96 105 125
1.81322 -2.06442 -1.28260 98 109 120
1.84050 -2.09238 -1.27666 84 93 106
1.84206 -2.10120 -1.26294 52 60 51
1.84043 -2.12333 -1.26101 33 38 45
1.85004 -2.11278 -1.25489 40 34 42
1.84840 -2.13493 -1.25295 38 39 40
1.90441 -2.36325 -0.88233 67 67 65
1.89105 -2.36381 -0.89911 79 79 74
1.89694 -2.37419 -0.88978 76 73 59
1.92622 -2.38913 -0.87105 62 63 48
1.93120 -2.39907 -0.86101 53 47 64
1.93986 -2.41089 -0.85365 62 72 40
1.95394 -2.42554 -0.85020 59 53 39
1.95619 -2.44142 -0.82456 39 37 43
1.96728 -2.45455 -0.81889 28 25 32
1.97547 -2.46617 -0.81111 54 62 69
1.96845 -2.46977 -0.79265 84 91 81
1.96687 -2.49113 -0.79078 93 95 91
1.99533 -2.54896 -0.69114 110 109 95
1.98205 -2.54951 -0.70781 109 110 106
2.00914 -2.57783 -0.66089 68 65 60
2.02356 -2.59995 -0.64413 94 103 103
2.09757 -2.73965 -0.50975 78 73 44
2.08433 -2.74020 -0.52639 110 109 103
2.09017 -2.75049 -0.51714 115 115 94
2.09601 -2.76078 -0.50790 100 104 57
2.12978 -2.76551 -0.51599 57 53 19
2.13625 -2.77622 -0.50702 35 32 9
2.14959 -2.77567 -0.49026 21 17 20
2.14932 -2.79086 -0.50187 25 20 11
2.16270 -2.79031 -0.48507 20 20 24
2.15998 -2.80410 -0.49528 20 15 15
2.17338 -2.80354 -0.47846 17 23 21
2.17306 -2.81879 -0.49004 19 17 13
2.18648 -2.81823 -0.47318 18 25 22
2.18615 -2.83352 -0.48475 21 18 17
2.21035 -2.85498 -0.48568 21 20 30
2.21223 -2.86990 -0.46121 55 56 57
2.21093 -2.87597 -0.44779 69 71 66
2.20687 -2.88032 -0.43290 75 73 62
2.20194 -2.88410 -0.41760 70 64 48
2.20378 -2.89875 -0.39357 66 67 51
2.23036 -2.92190 -0.39535 73 77 59
2.25647 -2.94485 -0.39674 78 78 64
2.26427 -2.95647 -0.38830 74 71 63
2.23192 -2.94307 -0.35876 74 71 63
2.24296 -2.95667 -0.35213 72 67 61
2.42687 -3.14108 -0.31964 75 69 76
2.42524 -3.16316 -0.31771 115 114 111
2.42343 -3.14566 -0.30537 91 92 91
2.40001 -3.13726 -0.28157 106 104 97
2.39840 -3.15911 -0.27965 128 127 118
2.43177 -3.16462 -0.28427 115 115 104
-0.26542 -0.54160 -0.62998 253 254 254
-0.26463 -0.53090 -0.63092 254 254 254
-0.26838 -0.53639 -0.63466 254 254 254
-0.26168 -0.53612 -0.62624 254 254 254
-0.25912 -0.54612 -0.63227 248 253 249
-0.25673 -0.55147 -0.62638 237 236 231
-0.25084 -0.55612 -0.62771 214 200 206
-0.25560 -0.56283 -0.60715 180 161 168
-0.25155 -0.56783 -0.60471 147 115 135
-0.25234 -0.57852 -0.60377 104 83 90
-0.23142 -0.56997 -0.63491 120 83 114
-0.23222 -0.58084 -0.63396 106 90 86
-0.22637 -0.57491 -0.63428 102 79 94
-0.22718 -0.58580 -0.63332 106 93 86
-0.17911 -0.60851 -0.65200 101 92 80
-0.17828 -0.59735 -0.65297 105 94 85
-0.18219 -0.60307 -0.65688 102 94 80
-0.17520 -0.60278 -0.64809 106 94 89
-0.17211 -0.61343 -0.65471 96 87 78
-0.15751 -0.62334 -0.66106 74 70 67
-0.15834 -0.63462 -0.66007 59 57 55
-0.15173 -0.62853 -0.66119 66 62 61
-0.15257 -0.63984 -0.66020 61 56 57
-0.14225 -0.63335 -0.66833 66 58 61
-0.14309 -0.64472 -0.66733 61 56 52
1.42197 -1.80136 -1.14987 56 57 85
1.42343 -1.78146 -1.15162 52 53 75
1.41646 -1.79167 -1.15858 51 42 64
1.42049 -1.82127 -1.14813 74 83 98
1.79356 -2.07062 -1.27957 91 104 116
1.79519 -2.04865 -1.28149 101 108 123
1.78749 -2.05992 -1.28918 97 110 120
1.81651 -2.08860 -1.28507 84 94 103
1.82010 -2.09826 -1.27316 64 52 61
1.81847 -2.12034 -1.27122 34 32 40
1.83028 -2.11079 -1.26711 33 32 46
1.82864 -2.13290 -1.26518 36 40 38
1.89794 -2.38206 -0.87682 69 58 59
1.88460 -2.38262 -0.89357 80 79 68
1.90706 -2.39409 -0.86990 55 47 47
1.91813 -2.40715 -0.86438 39 39 44
1.92977 -2.42052 -0.85924 41 40 33
1.93018 -2.42807 -0.84589 52 43 33
1.92806 -2.43426 -0.83077 55 58 59
1.93315 -2.44421 -0.82088 51 61 41
1.94525 -2.45786 -0.81601 46 33 51
1.94168 -2.46322 -0.79996 56 66 65
1.97353 -2.55188 -0.68893 114 115 107
1.97066 -2.55732 -0.67392 117 116 104
1.97037 -2.56416 -0.66069 119 114 95
1.98009 -2.57658 -0.65408 105 98 68
2.00141 -2.59552 -0.65501 70 63 69
2.00957 -2.60711 -0.64727 71 77 85
2.01073 -2.61476 -0.63502 92 97 98
2.01657 -2.62504 -0.62578 105 107 100
2.00917 -2.63586 -0.63317 96 104 99
2.13504 -2.79088 -0.51814 82 83 43
2.12167 -2.79144 -0.53493 125 126 101
2.12757 -2.80182 -0.52560 126 120 95
2.13346 -2.81221 -0.51627 118 109 93
2.13234 -2.79612 -0.50380 68 61 42
2.13077 -2.81740 -0.50193 108 102 88
2.14978 -2.81343 -0.50118 59 46 38
2.16110 -2.82709 -0.49496 58 46 38
2.16392 -2.83564 -0.48384 61 52 43
2.18524 -2.85539 -0.48325 61 51 48
2.20508 -2.87431 -0.48171 78 76 72
2.22767 -2.89497 -0.48162 99 100 90
2.22608 -2.91662 -0.47972 116 113 99
2.23529 -2.90651 -0.47306 106 106 96
2.24677 -2.92044 -0.46663 114 113 93
2.24656 -2.92717 -0.45372 111 107 78
2.24235 -2.93141 -0.43867 103 96 76
2.24076 -2.95301 -0.43678 128 119 117
2.25674 -2.94716 -0.43380 108 103 88
2.25514 -2.96881 -0.43190 129 126 114
2.26079 -2.95649 -0.42328 117 117 95
2.25919 -2.97813 -0.42139 128 128 112
2.26568 -2.96635 -0.41324 118 114 99
2.26408 -2.98798 -0.41134 127 127 111
2.26150 -2.97051 -0.39837 113 107 99
2.25990 -2.99208 -0.39648 125 126 108
2.23799 -2.96250 -0.37336 113 111 98
2.23641 -2.98389 -0.37149 121 123 113
2.15854 -2.93213 -0.29497 108 108 98
2.16282 -2.94133 -0.28512 107 106 96
2.16725 -2.95061 -0.27536 108 108 95
-0.27395 -0.54227 -0.63454 247 250 244
-0.26893 -0.54704 -0.63424 235 233 231
-0.27035 -0.55314 -0.62038 211 199 210
-0.26782 -0.55841 -0.61486 176 157 168
-0.25958 -0.56259 -0.62116 141 112 132
-0.26037 -0.57330 -0.62023 102 88 85
-0.24398 -0.56547 -0.64257 117 86 107
-0.24478 -0.57631 -0.64162 106 91 86
-0.23874 -0.57034 -0.64242 104 79 89
-0.23954 -0.58121 -0.64147 107 92 87
-0.19141 -0.60368 -0.66124 98 92 71
-0.19059 -0.59254 -0.66222 103 94 77
-0.19449 -0.59825 -0.66611 101 94 74
-0.18751 -0.59796 -0.65735 102 94 75
-0.17635 -0.61336 -0.66896 87 80 67
-0.17718 -0.62459 -0.66798 64 59 58
-0.17124 -0.61858 -0.66797 76 70 65
-0.17207 -0.62983 -0.66698 60 59 56
-0.16663 -0.62388 -0.66596 66 61 64
-0.16746 -0.63514 -0.66498 61 58 57
1.41617 -1.80449 -1.17213 61 80 97
1.41765 -1.78453 -1.17388 49 44 50
1.41066 -1.79477 -1.18086 50 62 71
1.40367 -1.80501 -1.18784 43 59 65
1.40919 -1.81472 -1.17911 53 70 85
1.41936 -1.81329 -1.16112 72 85 104
1.47083 -1.87155 -1.14038 71 84 101
1.45823 -1.87207 -1.15621 75 85 97
1.48243 -1.88381 -1.13732 79 92 108
1.77753 -2.07828 -1.27971 78 95 103
1.78443 -2.08932 -1.27088 62 49 52
1.78281 -2.11124 -1.26896 33 34 23
1.80586 -2.10674 -1.27506 41 24 25
1.80423 -2.12877 -1.27313 32 37 35
1.88181 -2.38850 -0.87778 71 68 56
1.86851 -2.38905 -0.89449 78 85 77
1.91194 -2.41877 -0.87280 34 36 31
1.91852 -2.42952 -0.86396 40 36 48
1.88820 -2.42085 -0.82815 65 77 74
1.87585 -2.42152 -0.80570 70 86 80
1.90772 -2.44558 -0.81534 54 49 31
1.93248 -2.46598 -0.81966 38 34 47
1.91977 -2.46639 -0.79708 40 59 53
1.95427 -2.57002 -0.66223 129 133 116
1.96496 -2.58298 -0.65630 115 111 86
1.98689 -2.60232 -0.65772 91 87 67
1.98533 -2.62340 -0.65588 66 53 60
2.00130 -2.61747 -0.65411 61 63 74
2.00026 -2.62383 -0.64040 85 94 95
2.18510 -2.86407 -0.50780 107 109 89
2.19284 -2.87565 -0.49940 109 104 90
2.19125 -2.89721 -0.49751 131 127 122
2.19873 -2.88610 -0.48993 118 114 100
2.19714 -2.90766 -0.48804 128 124 108
2.21687 -2.90410 -0.48738 121 119 101
2.21527 -2.92573 -0.48548 118 117 100
2.23698 -2.93022 -0.47299 123 121 105
2.22939 -2.94134 -0.48058 121 120 114
2.23538 -2.95190 -0.47109 127 123 123
2.23911 -2.93837 -0.46137 130 124 107
2.23751 -2.96003 -0.45947 126 125 124
2.24783 -2.95062 -0.45340 127 119 111
2.24623 -2.97230 -0.45150 127 126 124
2.38489 -3.15980 -0.29694 135 134 131
2.38327 -3.18165 -0.29503 151 148 127
-0.29312 -0.53364 -0.63810 252 254 251
-0.29234 -0.52303 -0.63903 254 254 254
-0.29605 -0.52847 -0.64274 254 254 254
-0.28940 -0.52819 -0.63439 254 254 254
-0.28354 -0.54317 -0.63677 232 228 226
-0.27919 -0.55386 -0.62419 171 153 164
-0.26925 -0.55765 -0.63428 138 109 137
-0.27004 -0.56836 -0.63334 103 90 85
-0.25816 -0.56131 -0.64664 112 83 104
-0.25896 -0.57210 -0.64570 107 94 77
-0.25311 -0.56618 -0.64622 99 82 83
-0.25391 -0.57700 -0.64528 105 95 81
-0.20385 -0.59889 -0.67010 98 91 72
-0.20303 -0.58778 -0.67107 105 93 85
-0.20692 -0.59348 -0.67496 101 92 79
-0.19996 -0.59319 -0.66621 103 94 81
-0.19664 -0.60372 -0.67352 92 87 64
-0.19014 -0.60869 -0.67545 85 79 62
-0.19096 -0.61987 -0.67447 65 58 62
-0.18549 -0.61393 -0.67362 78 70 62
-0.18632 -0.62514 -0.67264 66 59 60
-0.17790 -0.61883 -0.67758 72 63 60
-0.17873 -0.63008 -0.67659 65 61 58
1.47615 -1.88695 -1.15928 72 87 94
1.47465 -1.90715 -1.15751 27 34 47
1.54870 -1.94749 -1.17115 88 105 126
1.56159 -1.94696 -1.15496 95 102 119
1.56550 -1.96223 -1.17254 94 107 126
1.57844 -1.96169 -1.15629 98 106 123
1.57121 -1.97228 -1.16351 103 114 128
1.63594 -2.00773 -1.20907 99 112 118
1.64332 -1.99691 -1.20170 99 107 125
1.75151 -2.08149 -1.27068 57 56 56
1.74990 -2.10327 -1.26877 37 38 28
1.77369 -2.09922 -1.27578 44 33 38
1.77208 -2.12112 -1.27386 36 38 22
1.86695 -2.39551 -0.87962 64 75 62
1.85367 -2.39607 -0.89629 69 77 77
1.85953 -2.40638 -0.88703 52 58 71
1.88520 -2.41232 -0.87962 59 55 45
1.88400 -2.41896 -0.86507 57 63 48
1.87970 -2.42391 -0.84827 62 58 60
1.86985 -2.42587 -0.82749 67 61 71
1.85648 -2.42588 -0.80427 74 93 100
1.87884 -2.44495 -0.80716 52 63 53
1.91691 -2.47254 -0.82125 32 29 32
1.90602 -2.47382 -0.79993 38 46 53
1.92733 -2.56965 -0.65645 134 140 129
1.98602 -2.63071 -0.64331 84 90 89
1.98012 -2.63419 -0.62651 100 105 105
1.99326 -2.63364 -0.61001 97 98 97
1.98592 -2.64440 -0.61734 103 105 108
1.97857 -2.65516 -0.62467 122 123 112
2.19544 -2.87922 -0.53866 123 123 106
2.18184 -2.87979 -0.55573 130 131 121
2.18784 -2.89035 -0.54624 131 128 115
2.19383 -2.90092 -0.53675 126 125 114
2.19994 -2.88887 -0.52830 122 123 109
2.19834 -2.91056 -0.52640 123 121 122
2.20485 -2.89876 -0.51819 124 124 122
2.20325 -2.92044 -0.51629 130 129 122
-0.30896 -0.53021 -0.63734 252 254 250
-0.30818 -0.51967 -0.63826 254 254 254
-0.31188 -0.52508 -0.64195 254 254 254
-0.31557 -0.53049 -0.64564 246 247 235
-0.30527 -0.52480 -0.63365 254 254 254
-0.30334 -0.53473 -0.63865 246 247 236
-0.27262 -0.55727 -0.64983 110 86 105
-0.27341 -0.56801 -0.64889 107 95 85
-0.26618 -0.56183 -0.65247 99 85 91
-0.26698 -0.57261 -0.65152 106 95 86
-0.21670 -0.59420 -0.67795 98 91 73
-0.21588 -0.58312 -0.67892 106 93 84
-0.21976 -0.58881 -0.68280 102 93 78
-0.21282 -0.58852 -0.67407 103 93 82
-0.20971 -0.59902 -0.68108 93 84 71
-0.20324 -0.60396 -0.68308 86 77 66
-0.20406 -0.61511 -0.68211 67 56 61
-0.19893 -0.60922 -0.68066 76 69 60
-0.19976 -0.62039 -0.67969 63 57 61
-0.19239 -0.61421 -0.68269 68 61 61
-0.19322 -0.62541 -0.68171 65 61 59
1.40099 -1.82448 -1.18489 31 25 57
1.38849 -1.82500 -1.20059 21 19 33
1.39400 -1.83471 -1.19186 26 21 43
1.39952 -1.84442 -1.18314 29 25 49
1.39388 -1.82911 -1.16365 43 44 66
1.39242 -1.84896 -1.16191 34 33 52
1.44493 -1.86479 -1.18561 70 87 106
1.45756 -1.86426 -1.16975 77 85 107
1.46093 -1.88642 -1.17270 70 83 80
1.48568 -1.90422 -1.18238 49 61 56
1.48418 -1.92454 -1.18060 23 29 30
1.58551 -1.99219 -1.19087 89 102 124
1.62077 -2.01516 -1.20921 86 102 111
1.65713 -2.03876 -1.22827 77 88 93
1.70475 -2.06748 -1.25738 59 52 54
1.70316 -2.08902 -1.25549 32 37 30
1.73096 -2.08694 -1.26648 40 32 24
1.72936 -2.10863 -1.26458 33 40 31
1.85987 -2.41378 -0.87362 60 60 62
1.85339 -2.41752 -0.85516 70 75 71
1.85183 -2.43858 -0.85331 87 86 81
1.85470 -2.43250 -0.82910 78 80 55
1.87085 -2.44829 -0.82752 67 51 52
1.87494 -2.45761 -0.81705 43 45 52
1.86819 -2.46104 -0.79872 64 65 58
1.86003 -2.46364 -0.77947 84 86 73
1.85849 -2.48451 -0.77765 108 109 93
1.91559 -2.58462 -0.64782 141 150 142
1.97658 -2.63342 -0.66234 75 66 64
1.96807 -2.63537 -0.64373 75 81 79
1.95328 -2.63361 -0.62114 110 118 111
1.95174 -2.65444 -0.61931 134 135 121
-0.31304 -0.53571 -0.64017 231 227 220
-0.31673 -0.54111 -0.64386 166 144 150
-0.31382 -0.54625 -0.63925 132 106 120
-0.28851 -0.55359 -0.64959 108 85 101
-0.28930 -0.56427 -0.64866 108 96 84
-0.28140 -0.55796 -0.65388 101 84 89
-0.28219 -0.56868 -0.65294 107 96 85
-0.23140 -0.58985 -0.68177 98 91 77
-0.23059 -0.57881 -0.68274 103 93 88
-0.23445 -0.58447 -0.68660 101 93 84
-0.22754 -0.58419 -0.67791 104 93 86
-0.22312 -0.59441 -0.68774 92 88 67
-0.21176 -0.60446 -0.68875 80 71 66
-0.21258 -0.61560 -0.68777 67 59 65
1.44102 -1.87642 -1.19576 36 38 53
1.42838 -1.87695 -1.21164 32 30 43
1.43395 -1.88677 -1.20281 34 32 40
1.43953 -1.89659 -1.19399 34 33 37
1.47188 -1.90431 -1.19735 33 40 44
1.47038 -1.92463 -1.19557 31 34 29
1.48709 -1.91824 -1.19777 25 35 38
1.48558 -1.93862 -1.19599 31 34 24
1.62701 -2.02419 -1.24400 38 40 68
1.61375 -2.02474 -1.26065 34 40 36
1.61960 -2.03504 -1.25140 38 41 52
1.65133 -2.04262 -1.25201 53 58 66
1.64976 -2.06391 -1.25014 42 45 43
1.67498 -2.06084 -1.25920 54 50 55
1.67339 -2.08227 -1.25733 41 42 36
1.68486 -2.07304 -1.25350 41 37 42
1.68328 -2.09449 -1.25162 34 41 27
1.83102 -2.40603 -0.87840 67 71 79
1.82520 -2.39579 -0.88760 70 65 81
1.82365 -2.41683 -0.88575 79 90 85
1.82946 -2.42707 -0.87655 86 89 78
1.83943 -2.41767 -0.87116 78 77 76
1.83788 -2.43872 -0.86932 94 97 79
1.83915 -2.42465 -0.85737 92 97 77
1.84532 -2.44217 -0.83494 90 89 67
1.84843 -2.45092 -0.82377 67 61 49
1.85985 -2.46420 -0.81874 38 39 62
1.84158 -2.46125 -0.79198 101 119 105
1.82463 -2.45891 -0.76639 112 111 80
1.82490 -2.47287 -0.74029 111 100 81
1.81768 -2.48344 -0.74750 104 105 95
1.84095 -2.48866 -0.73865 80 72 58
1.80206 -2.47382 -0.69799 83 83 88
1.80056 -2.49421 -0.69621 61 61 63
1.84297 -2.53070 -0.66218 109 110 117
1.84448 -2.51023 -0.66397 111 113 109
1.83731 -2.52073 -0.67113 108 108 106
1.83014 -2.53123 -0.67829 96 108 107
1.85858 -2.54635 -0.66003 119 120 124
1.87357 -2.56170 -0.65739 123 126 134
1.87205 -2.58229 -0.65558 133 137 140
1.95088 -2.64038 -0.64457 65 65 57
-0.31977 -0.53601 -0.64818 199 188 175
-0.31900 -0.52548 -0.64910 252 254 250
-0.32638 -0.53629 -0.65647 163 142 150
-0.24671 -0.58565 -0.68400 100 90 78
-0.24590 -0.57467 -0.68496 106 94 84
-0.24975 -0.58030 -0.68879 103 92 84
-0.24287 -0.58002 -0.68016 103 94 82
-0.23895 -0.59023 -0.68912 95 85 73
-0.23048 -0.59477 -0.69562 87 77 62
-0.23130 -0.60585 -0.69465 66 59 54
-0.22189 -0.59934 -0.70224 77 70 58
-0.22271 -0.61048 -0.70126 62 60 61
-0.21572 -0.60432 -0.70375 71 66 63
-0.21655 -0.61549 -0.70277 63 61 66
1.64575 -2.05438 -1.26122 41 47 46
1.63239 -2.05493 -1.27799 37 43 41
1.63828 -2.06531 -1.26867 36 42 31
1.64418 -2.07569 -1.25935 37 43 40
1.52675 -2.19198 -0.78452 55 69 60
1.52139 -2.18254 -0.79300 64 72 61
1.53354 -2.18204 -0.77774 66 72 72
1.53890 -2.19148 -0.76926 64 73 74
1.84357 -2.45598 -0.84645 77 82 67
1.85339 -2.46841 -0.84025 48 43 40
1.85779 -2.47788 -0.83000 27 38 65
1.81800 -2.46295 -0.78732 91 113 126
1.80355 -2.46186 -0.76353 132 148 127
1.80798 -2.47118 -0.75361 110 98 95
1.79041 -2.48174 -0.70191 86 89 79
1.79110 -2.50225 -0.66386 96 109 112
1.78960 -2.52249 -0.66209 93 108 98
1.87780 -2.59905 -0.63379 150 148 140
1.87060 -2.60959 -0.64098 145 149 147
1.89391 -2.61517 -0.63175 132 125 108
-0.31811 -0.54021 -0.66388 128 99 117
-0.32475 -0.54049 -0.67222 101 85 102
-0.32182 -0.54565 -0.66759 99 86 98
-0.31889 -0.55081 -0.66296 103 92 91
-0.31311 -0.54491 -0.66388 104 84 99
-0.31389 -0.55553 -0.66295 105 96 86
-0.25209 -0.58568 -0.69584 93 84 73
-0.24400 -0.59022 -0.70175 86 75 71
-0.24481 -0.60127 -0.70078 67 58 62
-0.23800 -0.59514 -0.70312 79 66 66
-0.23882 -0.60622 -0.70215 66 59 62
1.51465 -2.19251 -0.79982 62 68 53
1.51608 -2.17313 -0.80152 64 68 63
1.50929 -2.18307 -0.80830 65 70 66
1.50250 -2.19302 -0.81508 69 74 64
1.51920 -2.20153 -0.79068 44 52 38
1.51777 -2.22091 -0.78899 39 38 40
1.52048 -2.20885 -0.77891 30 39 39
1.80168 -2.41973 -0.88189 75 75 54
1.79589 -2.40953 -0.89105 71 77 64
1.80014 -2.44066 -0.88006 83 95 76
1.81423 -2.43359 -0.87790 85 93 78
1.83059 -2.45664 -0.86314 85 93 86
1.82904 -2.47765 -0.86130 33 21 48
1.84939 -2.47401 -0.86370 58 54 47
1.85383 -2.48352 -0.85344 45 34 27
1.84727 -2.48692 -0.83501 55 60 74
1.82275 -2.48027 -0.80343 75 88 109
1.80151 -2.47531 -0.77452 136 153 130
1.80855 -2.48611 -0.76648 118 120 103
1.79690 -2.49315 -0.73180 94 100 88
1.79046 -2.50298 -0.70123 89 94 88
1.79269 -2.51095 -0.68992 84 77 98
1.78291 -2.51200 -0.67017 86 98 99
-0.25611 -0.58549 -0.71067 83 76 63
-0.26301 -0.58578 -0.71935 74 65 71
-0.25692 -0.59651 -0.70971 62 56 58
-0.25214 -0.59071 -0.70783 74 66 63
-0.25295 -0.60174 -0.70687 64 59 56
-0.24504 -0.59545 -0.71164 68 58 64
-0.24586 -0.60652 -0.71067 63 60 57
1.50747 -2.20225 -0.80628 65 68 49
1.49532 -2.20276 -0.82154 70 75 71
1.51372 -2.21216 -0.79853 52 53 38
1.79003 -2.42811 -0.88588 70 81 66
1.77693 -2.42866 -0.90234 88 86 78
1.78271 -2.43884 -0.89319 85 88 77
1.81274 -2.45461 -0.87611 87 91 74
1.81119 -2.47559 -0.87427 28 34 58
1.83714 -2.47510 -0.88106 66 61 66
1.85796 -2.50076 -0.86947 48 61 33
1.85640 -2.52193 -0.86761 103 108 85
1.81194 -2.48206 -0.82148 90 99 81
1.81696 -2.49178 -0.81182 98 109 91
1.81061 -2.49510 -0.79379 126 133 132
1.77972 -2.49122 -0.74476 106 94 83
1.77821 -2.51167 -0.74297 116 122 94
1.78661 -2.50189 -0.73671 98 100 87
1.78510 -2.52235 -0.73492 105 101 92
1.76989 -2.49904 -0.71163 87 82 75
1.76839 -2.51935 -0.70985 100 103 108
1.77206 -2.50694 -0.70028 103 112 109
1.77056 -2.52723 -0.69850 110 107 109
1.77000 -2.51902 -0.67313 86 95 96
1.76851 -2.53922 -0.67136 110 115 96
1.49894 -2.21129 -0.81162 72 74 58
1.48680 -2.21179 -0.82687 80 84 78
1.50459 -2.22088 -0.80340 61 61 49
1.50316 -2.24025 -0.80170 68 65 70
1.54239 -2.25415 -0.80848 54 49 55
1.54094 -2.27371 -0.80677 47 50 41
1.80513 -2.45822 -0.89691 82 87 73
1.82356 -2.47546 -0.89741 68 64 55
1.83706 -2.49704 -0.88033 41 54 67
1.83550 -2.51816 -0.87848 107 114 106
1.81198 -2.48996 -0.84775 93 99 89
1.81472 -2.50532 -0.82287 101 108 92
1.80217 -2.50507 -0.80017 116 126 126
1.80064 -2.52579 -0.79835 160 174 159
1.78530 -2.50226 -0.77443 161 168 157
1.78303 -2.50771 -0.75959 120 104 102
1.78151 -2.52824 -0.75779 125 120 114
1.75417 -2.55030 -0.62323 102 112 131
1.74864 -2.54056 -0.63198 74 88 83
1.74163 -2.55082 -0.63897 104 112 91
1.76670 -2.54978 -0.60749 127 134 134
1.75969 -2.56004 -0.61449 120 131 134
1.48573 -2.21782 -0.81305 80 83 68
1.47362 -2.21832 -0.82826 80 82 81
1.47896 -2.22773 -0.81981 80 80 72
1.49342 -2.22848 -0.80654 68 69 63
1.53408 -2.26340 -0.81413 73 76 65
1.52723 -2.27343 -0.82096 56 60 61
1.75799 -2.43296 -0.90053 79 88 75
1.75953 -2.41213 -0.90235 87 90 85
1.75223 -2.42282 -0.90964 76 84 83
1.74494 -2.43350 -0.91692 36 34 29
1.77731 -2.45063 -0.90201 64 67 64
1.79678 -2.46846 -0.90350 43 38 45
1.79206 -2.47279 -0.88617 36 31 39
1.82588 -2.49875 -0.89854 57 75 82
1.82432 -2.51988 -0.89669 109 108 98
1.81314 -2.51240 -0.84796 104 107 89
1.81861 -2.52242 -0.83857 97 99 90
1.79263 -2.51439 -0.80572 108 119 120
1.79110 -2.53510 -0.80390 162 173 154
1.77775 -2.51935 -0.76818 126 119 112
1.77623 -2.53988 -0.76638 113 110 108
1.72119 -2.55141 -0.59958 95 88 98
1.84155 -2.63673 -0.65743 117 131 128
1.84003 -2.65724 -0.65563 114 99 110
1.86693 -2.65866 -0.66192 137 134 139
1.86541 -2.67930 -0.66011 120 112 108
1.87613 -2.67084 -0.65527 139 136 131
1.87461 -2.69150 -0.65346 109 101 98
1.48385 -2.23690 -0.81099 64 70 63
1.50344 -2.25400 -0.81432 53 63 65
1.54792 -2.29127 -0.82492 55 58 49
1.56024 -2.29076 -0.80945 29 29 35
1.55336 -2.30084 -0.81632 53 67 32
1.75453 -2.44578 -0.91084 36 31 32
1.74146 -2.44633 -0.92725 45 46 37
1.75299 -2.46664 -0.90901 87 94 81
1.74906 -2.44965 -0.89289 31 26 37
1.74752 -2.47042 -0.89107 101 113 95
1.80228 -2.48647 -0.92090 46 56 73
1.80072 -2.50757 -0.91905 111 115 106
1.80779 -2.49657 -0.91141 85 90 104
1.80623 -2.51767 -0.90957 116 112 103
1.79564 -2.51731 -0.84756 107 108 100
1.78257 -2.51785 -0.86398 99 101 94
1.80576 -2.52997 -0.84172 105 98 101
1.78494 -2.52477 -0.81264 110 117 124
1.76570 -2.52705 -0.77176 121 111 103
1.76419 -2.54755 -0.76996 120 133 136
1.71211 -2.56026 -0.60500 96 98 95
1.69972 -2.56078 -0.62057 136 143 133
1.70518 -2.57041 -0.61192 140 144 129
1.46538 -2.23397 -0.82084 87 83 74
1.46005 -2.22458 -0.82927 92 87 84
1.46827 -2.24204 -0.81037 58 58 50
1.49298 -2.26197 -0.81807 37 41 40
1.51905 -2.28273 -0.82671 58 67 66
1.51761 -2.30228 -0.82500 79 83 74
1.55338 -2.30813 -0.84194 86 96 77
1.56841 -2.32302 -0.84113 97 105 75
1.58083 -2.32250 -0.82554 40 45 28
1.56695 -2.34283 -0.83940 70 64 81
1.58920 -2.34115 -0.84492 88 91 73
1.60169 -2.34063 -0.82924 28 31 42
1.75117 -2.45870 -0.92127 62 69 57
1.74963 -2.47959 -0.91944 105 106 92
1.76091 -2.51214 -0.83393 115 118 110
1.76358 -2.52044 -0.82258 124 127 113
1.74882 -2.51856 -0.79810 130 134 124
1.77820 -2.54242 -0.80691 163 168 150
1.74434 -2.52924 -0.76836 117 106 101
1.74283 -2.54965 -0.76657 121 127 132
1.44333 -2.22907 -0.82754 91 91 89
1.43802 -2.21972 -0.83594 96 98 92
1.45007 -2.23920 -0.82035 75 81 72
1.44865 -2.25842 -0.81867 45 49 62
1.47638 -2.26653 -0.81665 55 52 55
1.47495 -2.28586 -0.81496 68 80 72
1.50868 -2.29081 -0.83061 69 75 68
1.54747 -2.32539 -0.83655 76 74 73
1.54056 -2.33551 -0.84344 68 59 69
1.75195 -2.52174 -0.83984 120 134 116
1.73025 -2.51575 -0.80989 126 136 121
1.73782 -2.52684 -0.80238 142 155 130
1.74127 -2.53551 -0.79175 151 151 142
1.71770 -2.52816 -0.76088 104 80 97
-0.32020 -0.56781 -0.75744 54 47 57
-0.32100 -0.57871 -0.75649 50 47 45
1.43792 -2.24609 -0.82247 56 59 68
1.46732 -2.27518 -0.82149 55 64 68
1.50777 -2.31062 -0.82934 68 62 66
1.56120 -2.35366 -0.84730 78 74 74
1.55974 -2.37348 -0.84557 89 98 85
1.57525 -2.36817 -0.84564 90 97 82
1.71802 -2.52326 -0.81317 128 134 135
1.70446 -2.52183 -0.78958 171 188 158
1.73249 -2.54506 -0.79769 132 123 134
1.73083 -2.55721 -0.77007 123 127 120
1.74360 -2.55668 -0.75403 127 137 129
1.72933 -2.57758 -0.76829 121 122 123
1.41698 -2.23526 -0.84283 74 83 75
1.41557 -2.25441 -0.84115 64 67 63
1.42286 -2.24491 -0.83495 65 67 70
1.42924 -2.25484 -0.82750 61 65 69
1.43227 -2.26290 -0.81719 54 61 60
1.43085 -2.28205 -0.81551 40 43 39
1.45109 -2.27980 -0.82025 50 53 52
1.47741 -2.30096 -0.82947 58 59 49
1.48880 -2.31380 -0.82603 61 55 48
1.51940 -2.33755 -0.83849 74 77 77
1.55682 -2.36529 -0.85635 91 102 89
1.70031 -2.52747 -0.81218 139 147 152
1.68590 -2.52540 -0.78790 165 180 171
1.70398 -2.54275 -0.78858 92 72 102
1.70479 -2.54975 -0.77604 107 107 100
1.70329 -2.57003 -0.77427 145 141 135
1.39950 -2.23273 -0.85312 79 83 81
1.40091 -2.21362 -0.85479 86 83 82
1.39421 -2.22342 -0.86147 85 83 81
1.39808 -2.25184 -0.85144 60 56 76
1.40847 -2.24409 -0.84797 63 70 67
1.41689 -2.26152 -0.82936 78 81 73
1.41019 -2.27133 -0.83605 87 88 81
1.41916 -2.26913 -0.81842 59 60 52
1.41775 -2.28824 -0.81675 44 47 44
1.45597 -2.30261 -0.82388 50 60 54
1.47949 -2.32235 -0.83073 57 69 63
1.51117 -2.34683 -0.84422 76 89 83
1.52828 -2.36308 -0.84536 93 93 87
1.54425 -2.37873 -0.84544 97 90 91
1.55827 -2.39330 -0.84383 106 114 115
1.49878 -2.36524 -0.78210 139 151 146
1.50678 -2.37621 -0.77578 169 184 180
1.49623 -2.37635 -0.75446 196 203 187
1.50008 -2.38486 -0.74484 202 208 188
1.51885 -2.40217 -0.74715 200 205 185
1.67318 -2.51940 -0.81700 138 147 154
1.67623 -2.52774 -0.80616 175 193 171
1.69275 -2.55068 -0.79253 69 63 72
1.69632 -2.55933 -0.78210 112 123 133
1.69483 -2.57960 -0.78032 140 145 131
1.38774 -2.23971 -0.85536 73 68 81
1.40572 -2.26248 -0.84513 73 72 73
1.41361 -2.27958 -0.82608 65 62 62
1.43724 -2.30566 -0.82046 53 63 53
1.44713 -2.31764 -0.81593 59 64 57
1.49774 -2.35311 -0.84556 82 88 90
1.48230 -2.35057 -0.81960 116 124 131
1.47872 -2.35483 -0.80368 142 161 150
1.48304 -2.36365 -0.79437 159 176 161
1.48720 -2.37237 -0.78494 161 158 152
1.49822 -2.38511 -0.78111 163 161 185
1.49887 -2.39803 -0.75605 212 217 217
1.49745 -2.41733 -0.75436 217 221 223
1.51582 -2.41433 -0.75693 216 216 219
1.51439 -2.43371 -0.75524 220 225 224
1.61626 -2.49335 -0.79807 180 181 162
1.63366 -2.51024 -0.79866 184 194 182
1.66378 -2.53488 -0.80906 157 153 145
1.66228 -2.55510 -0.80729 88 70 66
1.66625 -2.54284 -0.79781 94 84 82
1.36752 -2.23558 -0.86304 77 75 55
1.35560 -2.23608 -0.87801 82 83 73
1.36612 -2.25460 -0.86137 68 70 62
1.38996 -2.26715 -0.84390 82 82 83
1.39523 -2.27643 -0.83557 86 82 78
1.39396 -2.28198 -0.82158 56 51 52
1.40535 -2.29476 -0.81853 38 42 40
1.42147 -2.31030 -0.81946 62 77 66
1.46401 -2.34118 -0.84271 96 112 97
1.42755 -2.32632 -0.79891 149 166 145
1.46670 -2.35539 -0.81900 182 191 168
1.47087 -2.36412 -0.80954 159 147 117
1.48376 -2.37797 -0.80735 115 70 61
1.46780 -2.37483 -0.78127 117 30 54
1.47601 -2.38591 -0.77523 125 49 73
1.50246 -2.40786 -0.78405 166 134 151
1.48899 -2.40606 -0.76027 205 214 231
1.63315 -2.52449 -0.81081 159 155 160
1.62328 -2.52486 -0.78993 110 101 113
1.65082 -2.55445 -0.78523 107 117 97
1.64378 -2.56476 -0.79226 131 130 128
1.64933 -2.57455 -0.78347 141 144 132
1.66626 -2.57034 -0.78406 136 144 139
1.66477 -2.59051 -0.78229 138 144 132
1.37367 -2.26517 -0.85508 74 77 75
1.38260 -2.28279 -0.83704 78 78 67
1.37930 -2.28712 -0.82129 44 43 46
1.38887 -2.29886 -0.81673 44 52 64
1.37564 -2.29736 -0.79256 106 126 125
1.41969 -2.32923 -0.81747 163 180 168
1.43427 -2.34399 -0.81698 199 211 198
1.44957 -2.35922 -0.81702 211 213 199
1.46709 -2.37581 -0.81882 173 149 133
1.44903 -2.37135 -0.79081 134 48 41
1.46006 -2.38410 -0.78717 189 46 23
1.46827 -2.39520 -0.78114 211 58 50
1.46529 -2.39959 -0.76590 186 65 104
1.48658 -2.41857 -0.77056 191 166 193
1.50435 -2.43548 -0.77220 217 225 234
1.58904 -2.51206 -0.78843 150 140 139
1.60718 -2.52950 -0.78974 77 75 82
1.60626 -2.53523 -0.77598 86 92 92
1.60479 -2.55511 -0.77424 139 152 146
1.35004 -2.25896 -0.85962 77 74 62
1.35944 -2.27680 -0.84209 91 97 85
1.36099 -2.29005 -0.81774 32 34 36
1.37382 -2.30369 -0.81608 36 52 75
1.36344 -2.30375 -0.79433 102 129 156
1.41456 -2.33997 -0.82551 172 194 207
1.42615 -2.35301 -0.82251 205 216 216
1.42473 -2.37221 -0.82083 217 222 222
1.43246 -2.36296 -0.81497 216 220 218
1.43826 -2.37260 -0.80699 206 202 182
1.43517 -2.37693 -0.79154 167 118 87
1.44693 -2.39014 -0.78857 152 29 9
1.45224 -2.39948 -0.78017 177 16 29
1.50134 -2.44155 -0.79498 179 121 176
1.51220 -2.45436 -0.79093 208 215 230
1.51450 -2.46197 -0.77990 217 222 224
1.58337 -2.51674 -0.80947 189 185 176
1.56592 -2.51223 -0.78247 119 96 97
1.57430 -2.52365 -0.77617 68 68 58
1.58720 -2.53790 -0.77340 113 130 127
1.58574 -2.55769 -0.77167 136 137 132
1.18574 -2.05618 -0.97909 48 55 49
1.18711 -2.03763 -0.98071 53 58 53
1.18062 -2.04715 -0.98720 56 58 56
1.19224 -2.04666 -0.97260 52 54 52
1.19737 -2.05569 -0.96448 47 52 60
1.17638 -2.05751 -0.95655 43 47 53
1.18794 -2.05703 -0.94203 51 56 47
1.15984 -2.05495 -0.92706 45 49 45
1.17130 -2.05447 -0.91267 58 58 43
1.14574 -2.05357 -0.90020 61 64 40
1.15710 -2.05310 -0.88592 65 63 57
1.15075 -2.06241 -0.89227 61 66 61
1.17023 -2.08521 -0.88556 67 76 73
1.16519 -2.07634 -0.89352 55 70 53
1.17660 -2.07587 -0.87919 76 81 75
1.18164 -2.08473 -0.87123 71 75 74
1.17526 -2.09407 -0.87760 74 78 82
1.16888 -2.10341 -0.88396 75 79 81
1.25967 -2.17150 -0.89334 77 75 78
1.25452 -2.16242 -0.90149 72 73 62
1.26620 -2.16194 -0.88681 83 85 82
1.25314 -2.18106 -0.89986 72 75 79
1.27135 -2.17101 -0.87866 84 87 85
1.25829 -2.19014 -0.89170 70 64 82
1.31164 -2.22564 -0.88949 89 88 78
1.31304 -2.20677 -0.89114 88 88 81
1.30643 -2.21645 -0.89774 87 89 83
1.31825 -2.21595 -0.88289 82 81 71
1.31674 -2.23476 -0.88113 92 90 83
1.33196 -2.25589 -0.86894 70 62 62
1.33818 -2.26567 -0.86157 108 118 104
1.34709 -2.27702 -0.85658 119 126 105
1.35363 -2.28700 -0.84945 79 74 59
1.34768 -2.28968 -0.83129 39 35 28
1.34628 -2.30854 -0.82963 19 20 23
1.35231 -2.30464 -0.80973 17 29 60
1.32743 -2.29599 -0.77538 59 85 134
1.40378 -2.34737 -0.82869 149 176 207
1.42406 -2.36562 -0.83320 204 219 223
1.42264 -2.38485 -0.83151 220 227 225
1.44036 -2.38776 -0.82119 219 221 213
1.43361 -2.39764 -0.82793 222 226 225
1.46055 -2.40611 -0.82531 203 194 169
1.43631 -2.39762 -0.79200 164 132 93
1.43983 -2.40587 -0.78214 153 109 79
1.49125 -2.44953 -0.79908 201 205 209
1.50652 -2.46508 -0.79870 207 215 219
1.51341 -2.47550 -0.79139 200 208 212
1.52515 -2.48893 -0.78800 189 195 196
1.53269 -2.49978 -0.78116 149 141 145
1.56295 -2.52480 -0.79253 82 74 93
1.57023 -2.53556 -0.78534 106 120 102
1.57522 -2.54489 -0.77632 132 141 124
1.57376 -2.56464 -0.77459 140 144 128
1.18491 -2.06240 -1.00460 51 55 62
1.18628 -2.04376 -1.00623 57 56 54
1.17976 -2.05332 -1.01275 55 52 52
1.17323 -2.06288 -1.01927 54 53 47
1.18274 -2.06756 -0.98909 36 38 44
1.17742 -2.07100 -0.97050 21 24 36
1.17173 -2.07419 -0.95166 24 27 33
1.16187 -2.07506 -0.92881 33 35 35
1.15122 -2.07543 -0.90534 44 52 54
1.15280 -2.08239 -0.89400 50 69 45
1.28424 -2.21105 -0.90294 79 81 74
1.29082 -2.20140 -0.89636 83 87 86
1.28285 -2.22984 -0.90129 94 95 85
1.29287 -2.22216 -0.89790 89 92 85
1.29148 -2.24098 -0.89625 101 100 95
1.30080 -2.23289 -0.89219 97 102 96
1.30808 -2.24325 -0.88584 102 111 104
1.31781 -2.26122 -0.86873 54 53 83
1.33569 -2.27778 -0.87191 108 133 137
1.33659 -2.28447 -0.85973 102 116 108
1.34023 -2.29274 -0.85004 54 44 35
1.33919 -2.29825 -0.83622 28 20 15
1.34397 -2.31326 -0.81478 15 20 34
1.33738 -2.32291 -0.82136 17 19 30
1.34966 -2.32271 -0.80698 26 40 69
1.34423 -2.32550 -0.78952 105 131 158
1.41926 -2.37665 -0.84159 194 217 223
1.44178 -2.40875 -0.82192 219 223 217
1.45680 -2.42406 -0.82166 212 212 186
1.47925 -2.44397 -0.82754 208 208 174
1.48599 -2.45429 -0.82015 205 212 204
1.48283 -2.45850 -0.80454 197 208 209
1.50922 -2.48099 -0.81338 186 193 198
1.51541 -2.49101 -0.80546 168 167 177
1.52759 -2.50476 -0.80242 146 140 150
1.54196 -2.51993 -0.80109 104 99 111
1.54811 -2.52996 -0.79305 66 59 92
1.54999 -2.53730 -0.78158 116 125 110
1.55982 -2.54965 -0.77647 144 150 127
1.55836 -2.56935 -0.77474 153 152 140
1.18078 -2.07324 -1.01356 46 48 49
1.16909 -2.07373 -1.02824 58 56 42
1.17852 -2.07832 -0.99790 25 16 32
1.17714 -2.09692 -0.99627 12 10 14
1.17352 -2.08189 -0.97957 10 9 20
1.17216 -2.10041 -0.97795 12 11 16
1.17293 -2.08780 -0.96576 12 12 21
1.17157 -2.10627 -0.96414 9 10 19
1.16553 -2.08995 -0.94523 10 12 25
1.16417 -2.10833 -0.94362 10 9 21
1.14792 -2.08644 -0.91473 20 22 35
1.18070 -2.12289 -0.90806 66 74 66
1.19220 -2.12241 -0.89362 81 80 71
1.20119 -2.14044 -0.91497 74 80 63
1.20152 -2.14675 -0.90229 68 77 56
1.21936 -2.16291 -0.90645 48 51 57
1.22779 -2.17380 -0.90151 37 43 56
1.24094 -2.18740 -0.90101 58 56 65
1.26320 -2.20624 -0.90900 75 73 89
1.27708 -2.22036 -0.90897 84 95 87
1.30323 -2.26009 -0.88102 46 35 64
1.30631 -2.26802 -0.87085 24 33 67
1.32937 -2.29382 -0.86581 92 101 113
1.33504 -2.30329 -0.85794 65 58 44
1.33292 -2.30812 -0.84312 44 43 24
1.33387 -2.31476 -0.83108 31 35 29
1.34046 -2.33079 -0.81127 18 32 67
1.35304 -2.34441 -0.80948 91 121 155
1.40986 -2.38491 -0.84601 189 216 224
1.41707 -2.39542 -0.83925 217 227 225
1.43012 -2.40952 -0.83747 216 221 224
1.43628 -2.41942 -0.82974 211 215 222
1.46698 -2.45060 -0.82976 193 202 194
1.48154 -2.46576 -0.82896 178 183 187
1.49772 -2.48198 -0.82943 157 156 171
1.51873 -2.50126 -0.83381 136 135 155
1.52848 -2.51355 -0.82874 124 127 147
1.52961 -2.52043 -0.81658 115 121 135
1.52816 -2.54012 -0.81485 91 87 93
1.53714 -2.53134 -0.80967 99 99 109
1.55267 -2.54732 -0.80922 89 87 96
1.55121 -2.56709 -0.80749 131 147 138
1.53957 -2.54514 -0.78561 123 129 125
1.53812 -2.56479 -0.78389 143 153 141
1.55111 -2.55861 -0.78192 156 164 137
1.54966 -2.57830 -0.78019 152 158 145
1.17477 -2.08310 -1.02062 43 43 27
1.16308 -2.08358 -1.03530 49 48 41
1.17339 -2.10175 -1.01899 18 15 20
1.17245 -2.08811 -1.00486 22 13 24
1.17108 -2.10671 -1.00323 13 13 13
1.12889 -2.09480 -0.89563 15 10 23
