ply
format ascii 1.0
element face 0
property list uchar int vertex_indices
element vertex 1334
property float x
property float y
property float z
property uchar diffuse_red
property uchar diffuse_green
property uchar diffuse_blue
end_header
1.85338 -1.39964 -0.00694 15 10 7
1.85568 -1.38136 -0.00866 21 21 20
1.84844 -1.39042 -0.01477 26 21 19
1.84120 -1.39948 -0.02087 24 25 16
1.86063 -1.39058 -0.00084 11 11 10
1.86144 -1.40886 -0.00149 15 7 9
1.86865 -1.41810 0.00464 32 23 36
1.89148 -1.42746 -0.00097 65 54 67
1.88916 -1.44589 0.00077 101 95 83
1.90815 -1.43688 -0.00182 98 91 73
1.92238 -1.44633 -0.00076 117 115 82
1.94562 -1.45600 -0.00630 127 123 95
1.94920 -1.46539 0.00277 119 103 95
1.94686 -1.48406 0.00453 94 81 79
1.95963 -1.47493 0.00682 104 88 89
1.95728 -1.49363 0.00859 96 81 76
1.96982 -1.48449 0.01109 97 78 79
1.96746 -1.50323 0.01286 96 84 76
2.81210 -1.93302 -0.06614 73 44 43
2.82412 -1.94524 -0.05993 57 19 24
2.82127 -1.96785 -0.05780 42 6 14
2.82967 -1.95656 -0.04993 47 11 21
2.83758 -1.96822 -0.04130 48 19 34
2.83412 -1.97821 -0.02612 48 27 50
2.85232 -1.99142 -0.02337 46 20 36
2.84948 -2.01405 -0.02124 36 5 8
2.85730 -2.00265 -0.01304 42 12 20
2.85446 -2.02528 -0.01091 33 7 8
2.86318 -2.01402 -0.00321 35 8 13
2.86033 -2.03665 -0.00108 33 10 10
2.89474 -2.05043 0.01852 32 10 18
2.87961 -2.05024 0.00123 36 13 14
2.89099 -2.07060 0.04672 95 89 52
2.89960 -2.08243 0.05503 134 127 92
2.87866 -2.08909 0.07934 157 148 124
2.87331 -2.09839 0.09508 178 168 148
2.87426 -2.10876 0.10740 202 187 161
2.87321 -2.12888 0.13347 212 188 146
2.87301 -2.13895 0.14628 179 163 143
2.87645 -2.14968 0.15714 160 171 180
2.82390 -2.16929 0.22177 173 185 217
2.82410 -2.17915 0.23401 200 216 232
2.83181 -2.19052 0.24243 216 223 230
2.83309 -2.20057 0.25408 206 213 216
2.83762 -2.21128 0.26409 193 201 200
2.84005 -2.22153 0.27513 179 180 167
2.85650 -2.23477 0.27925 139 129 97
2.86511 -2.24637 0.28727 74 67 43
2.87085 -2.25735 0.29670 40 48 69
2.87663 -2.26833 0.30610 48 74 115
2.86372 -2.28476 0.33656 120 151 186
2.84989 -2.31023 0.37909 189 201 203
2.83441 -2.31604 0.39818 182 182 177
2.79508 -2.31605 0.42811 101 69 88
2.77946 -2.32157 0.44693 75 58 59
2.79670 -2.33500 0.45068 80 71 50
2.79709 -2.34433 0.46211 75 64 38
2.81113 -2.34451 0.47817 63 60 55
2.80337 -2.35510 0.47087 69 63 53
2.81741 -2.35528 0.48693 65 62 56
2.80906 -2.36573 0.47989 69 64 55
2.75386 -2.37893 0.53848 62 59 46
2.73198 -2.38220 0.55923 97 109 133
2.75023 -2.39589 0.56256 156 176 188
2.74764 -2.41649 0.56450 161 174 181
2.82585 -2.45198 0.57550 161 167 171
2.83927 -2.46465 0.58122 155 161 167
2.83283 -2.47185 0.59516 151 153 158
2.66299 -2.46726 0.71861 109 112 124
2.64164 -2.46947 0.73762 79 87 110
2.63841 -2.47687 0.74939 71 81 105
2.62777 -2.48204 0.76398 145 170 198
2.61814 -2.48744 0.77810 225 241 230
2.61854 -2.49579 0.78828 251 253 227
2.62474 -2.50587 0.79623 252 252 235
2.63768 -2.50604 0.81102 241 244 245
2.62999 -2.51566 0.80454 248 251 246
1.75094 -2.33301 1.24384 213 195 179
1.74132 -2.33289 1.23284 253 252 239
0.83508 -0.34923 -0.57151 63 54 60
0.83702 -0.33379 -0.57297 66 67 84
0.83090 -0.34144 -0.57812 60 56 70
0.84120 -0.34157 -0.56636 61 68 83
0.83925 -0.35702 -0.56490 65 58 78
0.84334 -0.38504 -0.53271 158 169 173
0.84945 -0.39173 -0.52897 151 166 166
0.86612 -0.39272 -0.54055 127 131 145
0.86417 -0.40821 -0.53909 50 27 41
0.87145 -0.39992 -0.53557 86 86 113
0.88530 -0.42271 -0.51747 39 32 50
0.89891 -0.42569 -0.52419 109 116 156
0.89770 -0.43631 -0.50987 222 239 249
0.89575 -0.45185 -0.50840 254 253 251
0.90253 -0.44384 -0.50408 252 248 240
0.90785 -0.45112 -0.49900 218 200 187
0.92614 -0.46199 -0.49935 72 41 41
0.92620 -0.47189 -0.48692 64 31 36
0.93011 -0.47991 -0.47980 70 45 66
0.93494 -0.50714 -0.44919 229 216 193
0.93299 -0.52268 -0.44773 254 254 253
0.95153 -0.50930 -0.45921 248 244 231
0.94956 -0.52494 -0.45774 254 254 254
0.95646 -0.51687 -0.45346 253 254 253
0.95449 -0.53252 -0.45199 254 254 254
1.06889 -0.91696 -0.03544 232 219 218
1.06700 -0.93195 -0.03403 216 203 182
1.07826 -0.92329 -0.03466 233 229 234
1.08827 -0.92342 -0.02321 253 253 254
1.09151 -0.92878 -0.03794 247 248 251
1.10157 -0.92891 -0.02644 254 254 254
1.09560 -0.93639 -0.03148 253 254 254
1.12248 -1.02337 0.05752 251 254 254
1.12436 -1.00840 0.05612 254 254 254
1.11843 -1.01582 0.05112 254 254 254
1.12841 -1.01595 0.06252 254 254 254
1.16256 -1.04964 0.05982 151 145 144
1.19133 -1.05330 0.04232 118 101 113
1.24438 -1.10410 0.06558 90 89 73
1.24020 -1.09630 0.05896 93 91 73
1.25453 -1.11112 0.06664 84 84 72
1.26720 -1.11787 0.06540 71 71 58
1.28362 -1.12422 0.06078 48 48 33
1.29186 -1.13163 0.06379 34 29 18
1.28989 -1.14732 0.06527 13 10 7
1.30410 -1.13861 0.06318 23 15 15
1.30212 -1.15435 0.06466 12 11 6
1.31594 -1.14570 0.06301 14 9 12
1.31396 -1.16149 0.06449 11 11 8
1.84441 -1.40870 -0.01172 27 27 13
1.83224 -1.40854 -0.02564 26 26 19
1.85651 -1.41794 -0.00937 50 50 31
1.87737 -1.42729 -0.01361 80 76 63
1.87505 -1.44571 -0.01188 94 89 69
1.89246 -1.43668 -0.01337 95 88 79
1.89013 -1.45517 -0.01163 95 89 72
1.91189 -1.45548 -0.00461 101 94 79
1.90454 -1.46467 -0.01080 92 86 70
1.90956 -1.47402 -0.00287 94 84 68
1.92545 -1.46500 -0.00303 98 90 78
1.92311 -1.48360 -0.00128 93 83 73
1.94081 -1.47462 -0.00272 94 82 82
1.93846 -1.49328 -0.00096 92 83 78
2.79474 -1.92195 -0.09526 83 72 67
2.79758 -1.89936 -0.09739 89 79 71
2.78863 -1.91056 -0.10493 86 76 68
2.77968 -1.92176 -0.11248 81 69 65
2.78578 -1.93316 -0.10281 79 66 58
2.80017 -1.93326 -0.08519 78 66 45
2.81029 -1.94522 -0.07789 62 23 37
2.81456 -1.95636 -0.06712 48 6 17
2.81171 -1.97896 -0.06500 41 4 8
2.82976 -1.97960 -0.04950 40 10 18
2.82080 -1.99082 -0.05706 37 6 8
2.82692 -2.00223 -0.04737 34 6 9
2.83341 -1.99064 -0.03840 39 10 25
2.83056 -2.01325 -0.03627 34 5 8
2.84326 -2.00262 -0.03086 37 6 16
2.84041 -2.02525 -0.02873 37 6 8
2.88409 -2.06141 0.01186 36 16 22
2.86897 -2.06121 -0.00542 33 13 14
2.88131 -2.07133 0.02651 58 43 26
2.89613 -2.09461 0.04448 103 94 59
2.90133 -2.10587 0.05468 110 100 79
2.89400 -2.11486 0.07163 130 122 104
2.86369 -2.11953 0.10084 172 163 144
2.85991 -2.12898 0.11565 203 191 162
2.85852 -2.13882 0.12913 214 192 149
2.84703 -2.14669 0.14789 168 143 118
2.84009 -2.15535 0.16415 102 96 113
2.85715 -2.16867 0.16783 113 122 164
2.85252 -2.17772 0.18280 126 135 188
2.84627 -2.18639 0.19853 110 131 192
2.81932 -2.19075 0.22476 155 190 226
2.82509 -2.20174 0.23417 203 227 236
2.82725 -2.21196 0.24540 208 220 226
2.82600 -2.22144 0.25832 195 205 208
2.83414 -2.23291 0.26651 188 194 188
2.83529 -2.24286 0.27818 171 171 151
2.84259 -2.25414 0.28679 119 109 77
2.85537 -2.26665 0.29274 63 54 50
2.85514 -2.27627 0.30504 42 48 61
2.85241 -2.29804 0.30709 55 53 48
2.86323 -2.28775 0.31329 42 59 78
2.86836 -2.29856 0.32298 50 69 118
2.81999 -2.29692 0.35811 87 123 168
2.82054 -2.30652 0.36978 164 191 206
2.81784 -2.32796 0.37180 195 205 208
2.82131 -2.31613 0.38132 191 202 202
2.83833 -2.32963 0.38525 180 180 167
2.80896 -2.33193 0.41074 108 93 81
2.81875 -2.34365 0.41799 98 92 91
2.81607 -2.36496 0.41999 105 103 87
2.80990 -2.36005 0.44547 95 88 64
2.80723 -2.38124 0.44747 102 97 86
2.80476 -2.36800 0.45944 88 81 64
2.78932 -2.37327 0.47796 86 75 64
2.80332 -2.37346 0.49397 76 67 59
2.77876 -2.37970 0.49418 89 75 64
2.76791 -2.38597 0.51043 79 65 51
2.75985 -2.39289 0.52536 76 68 58
2.71154 -2.38912 0.55774 119 132 148
2.70897 -2.40958 0.55967 166 175 181
2.74231 -2.40616 0.55558 159 175 184
2.73972 -2.42676 0.55752 160 172 180
2.77751 -2.44238 0.57419 172 180 180
2.78011 -2.42169 0.57224 165 177 182
2.77191 -2.43195 0.56533 165 174 184
2.81114 -2.46056 0.57124 162 164 168
2.79945 -2.46625 0.58741 164 168 179
2.76938 -2.46671 0.61111 174 179 183
2.75126 -2.47038 0.62967 175 177 178
2.74368 -2.47695 0.64378 173 173 171
2.74112 -2.49731 0.64570 184 190 176
2.64587 -2.47436 0.71571 114 109 114
2.64418 -2.48224 0.72696 109 100 115
2.62858 -2.48597 0.74366 152 148 152
2.62611 -2.50557 0.74550 252 254 165
2.60319 -2.48668 0.76407 224 238 200
2.60139 -2.49435 0.77513 251 254 161
2.59895 -2.51374 0.77696 254 250 118
2.59932 -2.50191 0.78625 254 253 145
2.59689 -2.52127 0.78807 254 253 130
2.59854 -2.50984 0.79684 254 254 165
2.58981 -2.52337 0.82062 254 253 235
2.60261 -2.52353 0.83526 250 252 252
1.74715 -2.34082 1.23836 187 156 162
1.73752 -2.34070 1.22736 248 241 234
1.74533 -2.35527 1.23972 73 51 54
1.76626 -2.35329 1.23939 87 54 52
1.76444 -2.36782 1.24076 53 55 43
0.81745 -0.35333 -0.57223 82 74 70
0.81330 -0.34557 -0.57881 63 52 52
0.82515 -0.35906 -0.57095 127 118 125
0.81429 -0.37534 -0.54191 154 170 161
0.81842 -0.38305 -0.53537 155 189 167
0.83365 -0.38460 -0.54524 145 153 165
0.82756 -0.39222 -0.55037 36 48 72
0.84233 -0.38987 -0.54533 101 100 135
0.84986 -0.39581 -0.54365 50 61 83
0.84792 -0.41126 -0.54220 63 35 31
0.86099 -0.39985 -0.54719 37 41 65
0.88242 -0.40860 -0.55278 57 21 22
0.87624 -0.41634 -0.55799 176 139 110
0.87730 -0.42135 -0.53266 73 45 68
0.87535 -0.43688 -0.53120 237 234 230
0.88740 -0.42613 -0.53447 128 118 147
0.87784 -0.44104 -0.50816 212 199 218
0.87589 -0.45651 -0.50671 254 254 254
0.89185 -0.44386 -0.51549 250 252 252
0.88989 -0.45941 -0.51402 254 254 254
0.90058 -0.45938 -0.50263 250 247 236
0.89442 -0.46709 -0.50782 254 254 253
0.90530 -0.46697 -0.49670 239 229 204
0.91429 -0.48238 -0.48418 230 210 175
0.91752 -0.49069 -0.47618 231 217 192
0.92879 -0.49521 -0.47922 241 234 214
0.92683 -0.51082 -0.47775 254 254 252
1.07144 -0.94788 -0.01732 248 250 251
1.08141 -0.94801 -0.00592 254 254 254
1.07548 -0.95543 -0.01091 253 254 254
1.10807 -1.01576 0.04010 249 254 252
1.10995 -1.00080 0.03869 254 254 254
1.10403 -1.00822 0.03369 254 254 254
1.11400 -1.00835 0.04510 254 254 254
1.11016 -1.02367 0.04847 239 247 243
1.10708 -1.03247 0.06200 221 222 225
1.12598 -1.03741 0.05357 178 184 197
1.17498 -1.05416 0.03669 82 68 72
1.18810 -1.06044 0.03445 77 70 71
1.18617 -1.07577 0.03589 96 89 84
1.19537 -1.06769 0.03796 89 83 79
1.19344 -1.08304 0.03941 94 89 78
1.22532 -1.09680 0.05152 89 89 69
1.22114 -1.08901 0.04492 94 90 72
1.24142 -1.10298 0.04683 83 82 56
1.24750 -1.11056 0.05170 67 66 46
1.25939 -1.11741 0.05112 48 48 42
1.26978 -1.12451 0.05203 29 29 23
1.26782 -1.14014 0.05350 9 10 7
1.27647 -1.13209 0.05644 15 15 11
1.27450 -1.14774 0.05791 11 11 8
1.28668 -1.13929 0.05760 12 9 8
1.28471 -1.15498 0.05908 11 11 7
1.83476 -1.41775 -0.01596 30 31 23
1.82260 -1.41759 -0.02986 24 25 23
1.82753 -1.42680 -0.02205 22 22 22
1.85555 -1.42706 -0.02032 51 59 42
1.87096 -1.43643 -0.02045 81 87 62
2.80618 -1.94657 -0.10168 74 62 40
2.79107 -1.94638 -0.11896 78 65 60
2.81338 -1.95817 -0.09261 58 17 31
2.81053 -1.98086 -0.09047 42 5 12
2.81487 -1.96893 -0.08015 45 5 12
2.81202 -1.99159 -0.07802 41 4 6
2.88505 -2.07436 -0.00128 33 15 20
2.86989 -2.07416 -0.01861 29 9 13
2.88531 -2.08480 0.01173 56 41 22
2.88628 -2.09535 0.02432 83 69 32
2.88342 -2.11803 0.02645 92 74 47
2.87892 -2.10436 0.04145 93 78 47
2.87607 -2.12697 0.04358 95 77 55
2.88433 -2.11564 0.05151 95 80 55
2.88290 -2.12564 0.06528 107 93 67
2.87113 -2.13367 0.08458 132 121 95
2.83247 -2.13650 0.11819 159 150 131
2.84307 -2.14858 0.12524 184 169 148
2.82894 -2.15585 0.14543 175 148 121
2.81885 -2.16382 0.16335 121 88 67
2.83256 -2.17648 0.16871 83 58 60
2.83016 -2.18591 0.18250 67 58 92
2.81987 -2.19367 0.20032 52 58 113
2.85298 -2.21038 0.19574 81 116 165
2.84850 -2.21931 0.21052 131 162 193
2.81875 -2.22280 0.23805 161 187 217
2.81977 -2.23275 0.24984 180 202 212
2.82616 -2.24384 0.25891 183 194 203
2.82856 -2.25406 0.26998 174 177 180
2.82445 -2.26280 0.28423 147 139 118
2.84501 -2.27707 0.28631 88 74 67
2.84612 -2.28697 0.29797 67 60 48
2.85314 -2.30781 0.31889 30 34 64
2.80356 -2.30570 0.35473 72 96 128
2.80887 -2.31639 0.36413 169 197 199
2.82359 -2.33876 0.38100 182 186 173
2.81419 -2.34584 0.39727 123 112 89
2.81907 -2.35639 0.40682 109 95 96
2.79798 -2.38807 0.46329 105 101 88
2.79569 -2.39663 0.47591 106 99 78
2.78150 -2.40203 0.49376 92 83 70
2.76095 -2.40565 0.51431 119 121 112
2.75834 -2.42646 0.51627 163 176 177
2.71875 -2.40336 0.54420 154 165 165
2.71617 -2.42390 0.54613 164 174 178
2.75385 -2.43950 0.56266 172 181 190
2.74699 -2.44647 0.57680 187 195 192
2.75594 -2.45779 0.58417 180 185 188
2.73059 -2.45947 0.60599 188 196 203
2.72802 -2.47990 0.60792 192 193 194
2.70802 -2.46180 0.62648 198 206 205
2.70547 -2.48207 0.62839 192 197 205
2.69473 -2.46665 0.64294 200 205 208
2.69220 -2.48682 0.64484 183 181 203
2.66315 -2.49156 0.69900 124 114 117
2.60178 -2.48171 0.73423 180 171 177
2.59933 -2.50124 0.73606 251 254 173
2.58996 -2.48643 0.74938 235 243 200
2.58752 -2.50586 0.75121 254 254 154
2.58486 -2.50127 0.77212 254 254 132
2.57720 -2.51086 0.76566 254 254 145
2.58243 -2.52061 0.77394 254 254 140
2.56379 -2.51909 0.81104 253 245 143
2.56404 -2.52720 0.82111 253 248 137
2.57620 -2.53905 0.82665 251 249 179
1.74143 -2.34798 1.23354 155 130 145
1.73180 -2.34786 1.22254 233 227 217
0.78976 -0.36332 -0.55740 156 155 151
0.78564 -0.35564 -0.56392 113 101 134
0.78785 -0.37855 -0.55596 99 105 168
0.79491 -0.37041 -0.55244 174 187 175
0.80007 -0.37751 -0.54748 166 168 186
0.83211 -0.36946 -0.58286 120 125 155
0.83016 -0.38494 -0.58140 46 24 31
0.81507 -0.38912 -0.54451 59 83 101
0.84894 -0.39055 -0.56929 41 29 53
0.85120 -0.39943 -0.55980 53 23 24
0.85657 -0.41667 -0.54212 105 77 58
0.85044 -0.42434 -0.54729 229 219 183
0.85462 -0.43215 -0.54066 244 237 214
0.88695 -0.42083 -0.56070 220 201 187
0.87766 -0.44568 -0.52185 251 248 250
0.87152 -0.45337 -0.52703 254 254 254
0.87571 -0.46119 -0.52039 254 254 254
0.90501 -0.48172 -0.49756 254 252 247
0.90305 -0.49729 -0.49610 254 254 254
0.91168 -0.49825 -0.48181 254 252 248
0.90972 -0.51380 -0.48035 254 254 254
0.92101 -0.50370 -0.48222 254 253 250
0.91905 -0.51929 -0.48076 254 254 254
1.03922 -0.93592 -0.02629 251 246 211
1.03736 -0.95078 -0.02489 254 246 199
1.05061 -0.94175 -0.02783 224 207 133
1.04838 -0.95066 -0.01477 214 205 174
1.05459 -0.95768 -0.01073 234 239 236
1.06327 -0.96419 -0.00927 249 253 253
1.07321 -0.96432 0.00210 254 254 254
1.06730 -0.97172 -0.00288 254 254 254
1.07366 -1.00371 0.03275 253 254 254
1.07552 -0.98886 0.03135 254 254 254
1.06964 -0.99622 0.02639 254 254 254
1.07954 -0.99635 0.03770 254 254 254
1.08355 -1.00384 0.04406 254 254 254
1.08369 -1.01005 0.03293 248 253 251
1.08513 -1.02628 0.05239 215 216 222
1.11956 -1.02835 0.02799 173 179 180
1.12167 -1.03629 0.03641 133 124 139
1.14423 -1.04073 0.02433 98 80 111
1.15185 -1.04780 0.02733 76 62 84
1.14994 -1.06300 0.02876 96 88 73
1.20955 -1.08906 0.03441 93 90 65
1.23019 -1.09455 0.02517 81 82 55
1.23432 -1.10240 0.03189 61 65 51
1.26106 -1.10726 0.01707 44 45 37
1.25908 -1.12297 0.01855 8 9 18
1.25827 -1.11609 0.03046 28 25 22
1.25630 -1.13174 0.03193 9 9 17
1.26378 -1.13223 0.04663 9 9 11
1.26182 -1.14786 0.04810 11 11 11
1.87443 -1.45495 -0.02313 91 85 69
1.87942 -1.46426 -0.01523 95 84 69
1.87211 -1.47341 -0.02139 96 82 72
2.79321 -1.95724 -0.10686 73 61 54
2.77811 -1.95704 -0.12412 77 65 57
2.80766 -1.96990 -0.10214 56 16 36
2.88961 -2.08801 -0.01652 31 12 20
2.87440 -2.08781 -0.03392 25 5 13
2.87847 -2.09645 0.00294 55 39 22
2.87733 -2.10660 0.01672 82 67 33
2.87448 -2.12928 0.01886 89 72 48
2.87316 -2.13667 0.05818 104 86 60
2.85813 -2.13648 0.04100 94 75 56
2.85858 -2.14410 0.07907 115 99 70
2.84513 -2.15165 0.09921 124 110 94
2.81313 -2.15545 0.12916 138 126 119
2.81565 -2.16591 0.14046 155 137 123
2.81354 -2.17542 0.15419 157 131 90
2.80654 -2.18389 0.17045 147 122 69
2.80850 -2.19415 0.18193 123 103 72
2.82198 -2.21662 0.19987 45 38 78
2.81146 -2.22416 0.21771 63 74 102
2.81245 -2.23412 0.22958 88 100 134
2.81037 -2.24338 0.24296 123 137 158
2.80301 -2.25142 0.25896 143 161 198
2.81972 -2.26480 0.26282 161 175 200
2.81512 -2.27340 0.27735 163 162 162
2.82169 -2.28450 0.28629 125 117 112
2.84199 -2.30841 0.30070 75 66 45
2.85130 -2.32019 0.30835 71 68 66
2.80080 -2.31769 0.34482 105 114 133
2.79903 -2.32668 0.35763 182 206 207
2.80561 -2.33767 0.36642 195 203 209
2.81631 -2.34969 0.37327 184 189 185
2.81787 -2.35945 0.38444 137 125 111
2.81150 -2.36719 0.39928 122 109 96
2.81418 -2.37718 0.40985 102 99 92
2.80535 -2.38420 0.42570 74 68 88
2.80673 -2.39379 0.43679 85 74 86
2.80615 -2.40285 0.44875 98 96 85
2.77476 -2.40375 0.47454 114 115 77
2.75853 -2.40852 0.49333 120 126 102
2.69992 -2.40180 0.53083 148 165 164
2.72172 -2.43426 0.55493 164 176 182
2.71464 -2.44111 0.56918 189 202 204
2.70373 -2.44683 0.58501 213 224 219
2.71584 -2.45897 0.59092 199 195 198
2.71810 -2.46834 0.60104 195 192 199
2.61620 -2.48974 0.70822 175 170 170
2.57809 -2.48658 0.73414 232 241 197
2.56204 -2.52237 0.79217 254 252 134
2.55963 -2.54157 0.79398 254 251 94
2.54911 -2.52635 0.80738 251 239 117
2.54092 -2.53175 0.82067 250 235 98
2.52866 -2.54370 0.84548 245 232 128
2.54127 -2.54387 0.85989 253 253 245
2.53377 -2.55324 0.85357 246 237 155
2.52628 -2.56262 0.84726 236 214 48
1.76474 -2.38309 1.24141 50 55 42
1.76081 -2.37576 1.23519 53 55 51
1.75505 -2.38297 1.23034 51 56 58
1.75898 -2.39030 1.23656 46 48 45
0.77785 -0.36422 -0.56630 168 189 189
0.77976 -0.34900 -0.56773 77 71 112
0.77374 -0.35654 -0.57281 163 181 183
0.76771 -0.36408 -0.57789 121 126 175
0.77594 -0.37943 -0.56486 45 47 90
0.78295 -0.37132 -0.56129 152 156 189
0.80528 -0.37868 -0.56963 51 61 123
0.79921 -0.38629 -0.57476 49 19 48
0.81466 -0.38349 -0.57095 39 34 75
0.81688 -0.40237 -0.54866 50 26 23
0.81081 -0.40997 -0.55378 188 148 136
0.81495 -0.41771 -0.54721 216 209 180
0.82649 -0.40713 -0.55021 82 63 62
0.82455 -0.42251 -0.54876 237 231 217
0.84602 -0.40659 -0.56640 153 125 119
0.85056 -0.41423 -0.56026 208 179 157
0.85498 -0.44194 -0.52847 252 249 244
0.84886 -0.44960 -0.53363 254 254 254
0.85304 -0.45739 -0.52702 254 254 254
1.03580 -0.95949 -0.01255 226 208 159
1.03896 -0.96715 -0.00531 218 218 196
1.05245 -0.97262 -0.00904 237 244 241
1.06776 -1.00280 0.01726 246 253 250
1.06626 -1.01136 0.02936 235 236 235
1.06267 -1.02026 0.04355 207 211 214
1.10336 -1.02101 0.01222 168 169 171
1.10981 -1.02817 0.01622 129 114 137
1.11653 -1.03530 0.01998 89 72 88
1.13040 -1.04124 0.01653 71 61 73
1.12849 -1.05639 0.01796 97 89 77
1.13935 -1.04807 0.01813 84 73 79
1.13744 -1.06325 0.01956 95 89 73
1.18762 -1.08225 0.02338 89 88 67
1.18153 -1.08988 0.01825 65 64 43
1.21195 -1.08711 0.01026 82 81 62
1.21000 -1.10263 0.01172 51 44 49
1.22274 -1.09401 0.01049 74 71 54
1.22079 -1.10957 0.01195 41 34 36
1.24462 -1.10792 0.01086 32 31 31
1.24265 -1.12358 0.01233 15 11 17
1.24635 -1.11614 0.01996 14 12 25
1.24438 -1.13179 0.02144 10 9 16
1.82723 -1.44508 -0.02188 22 24 19
1.81505 -1.44492 -0.03579 20 22 11
1.84121 -1.45444 -0.02104 52 52 48
1.86720 -1.46410 -0.02936 88 82 74
1.86488 -1.48256 -0.02762 95 83 75
2.80611 -1.97171 -0.12765 70 60 51
2.79092 -1.97151 -0.14501 75 66 52
2.80974 -1.98282 -0.11637 54 16 37
2.81458 -1.99410 -0.10584 39 7 13
2.82073 -2.00559 -0.09609 37 5 6
2.81172 -2.01687 -0.10370 42 12 5
2.88116 -2.10983 -0.01123 58 42 21
2.88024 -2.12002 0.00249 80 66 32
2.87738 -2.14278 0.00463 86 71 45
2.86583 -2.14816 0.04977 101 83 60
2.85079 -2.14797 0.03258 91 74 52
2.86299 -2.17072 0.05190 108 93 57
2.84576 -2.15446 0.07373 111 93 64
2.84295 -2.17687 0.07583 116 96 68
2.82944 -2.16137 0.09547 117 98 77
2.82664 -2.18365 0.09757 122 98 71
2.82373 -2.17026 0.11134 122 103 88
2.82094 -2.19248 0.11343 124 100 76
2.81358 -2.17820 0.12951 129 110 97
2.80612 -2.18661 0.14614 143 125 100
2.80786 -2.19685 0.15781 160 145 101
2.79652 -2.21413 0.18882 132 101 76
2.81071 -2.22694 0.19388 88 55 58
2.79903 -2.23417 0.21237 111 100 73
2.80374 -2.24492 0.22232 113 86 61
2.80813 -2.25559 0.23244 101 80 71
2.80829 -2.26530 0.24468 89 91 120
2.79340 -2.27156 0.26447 104 112 147
2.79138 -2.28067 0.27768 138 141 166
2.80777 -2.29403 0.28169 141 147 167
2.79456 -2.30048 0.30039 99 93 116
2.77146 -2.31389 0.33581 137 140 107
2.78477 -2.32650 0.34131 126 129 120
2.77958 -2.33461 0.35576 180 197 204
2.77690 -2.35596 0.35777 205 212 215
2.78324 -2.34486 0.36591 192 199 204
2.79632 -2.35744 0.37157 184 184 185
2.80977 -2.37016 0.37711 156 139 123
2.80787 -2.37901 0.38988 137 127 95
2.81421 -2.38994 0.39878 88 86 80
2.82311 -2.40153 0.40648 42 34 66
2.80942 -2.40722 0.42460 76 70 79
2.80158 -2.41437 0.43992 97 94 78
2.77704 -2.41699 0.46273 113 111 71
2.76534 -2.42292 0.47958 117 123 109
2.68651 -2.41053 0.52635 130 145 162
2.69331 -2.42121 0.53455 145 154 171
2.69819 -2.43136 0.54362 155 166 173
2.70253 -2.44136 0.55291 163 175 182
2.70159 -2.44987 0.56450 198 211 211
2.69902 -2.47032 0.56642 200 206 214
2.70170 -2.45865 0.57559 213 220 224
2.69995 -2.46686 0.58745 215 219 221
2.69739 -2.48724 0.58937 215 220 224
2.68817 -2.47216 0.60354 221 225 224
2.68562 -2.49244 0.60545 210 214 218
2.61976 -2.48619 0.67571 179 182 184
2.61059 -2.49182 0.69015 181 190 175
2.60811 -2.51153 0.69201 165 170 157
2.57450 -2.49747 0.72599 227 238 145
2.57402 -2.50552 0.73662 244 250 153
2.57927 -2.51532 0.74494 252 254 168
2.54870 -2.52203 0.77775 254 254 127
2.54351 -2.51235 0.76953 253 254 168
2.54629 -2.54123 0.77956 252 246 95
2.53895 -2.52700 0.79182 254 249 99
2.53654 -2.54612 0.79362 253 251 93
2.53020 -2.54017 0.81554 254 252 100
2.52781 -2.55919 0.81733 254 254 141
2.52064 -2.54502 0.82931 254 244 89
2.51826 -2.56396 0.83109 254 253 123
2.53592 -2.60493 0.89352 204 220 234
2.53829 -2.58610 0.89175 253 254 254
2.53083 -2.59544 0.88546 238 250 248
2.52337 -2.60477 0.87917 175 155 192
2.54847 -2.60510 0.90787 252 253 254
2.54101 -2.61443 0.90158 205 229 241
1.79354 -2.40858 1.23243 36 32 36
1.78375 -2.40846 1.22123 46 45 40
1.79170 -2.42328 1.23381 27 24 27
0.79676 -0.35726 -0.60991 70 86 119
0.78647 -0.35712 -0.62167 49 35 92
0.79130 -0.38070 -0.57557 43 26 74
0.78523 -0.38829 -0.58068 107 77 88
0.78937 -0.39601 -0.57412 169 132 117
0.80095 -0.39537 -0.56455 73 44 67
0.79488 -0.40297 -0.56966 207 188 176
0.79478 -0.40881 -0.54241 134 91 105
0.79286 -0.42405 -0.54097 248 239 230
0.83556 -0.42663 -0.55232 251 246 239
0.82944 -0.43429 -0.55747 254 254 253
0.83361 -0.44208 -0.55087 254 254 254
0.83838 -0.43514 -0.54371 254 253 246
0.83644 -0.45057 -0.54226 254 254 254
1.02741 -0.95904 -0.02545 254 254 248
1.02340 -0.95156 -0.03180 254 254 254
1.01753 -0.95891 -0.03675 254 254 254
1.02154 -0.96639 -0.03041 254 254 254
1.02821 -0.96721 -0.01565 253 248 210
1.04272 -0.97246 -0.02057 224 205 168
1.04100 -0.98115 -0.00808 223 218 209
1.04240 -0.98917 0.00106 239 245 247
1.04977 -0.99598 0.00384 242 251 251
1.05188 -1.00384 0.01220 229 230 238
1.04684 -1.01305 0.02803 197 205 209
1.07419 -1.01612 0.01002 159 154 157
1.07758 -1.02377 0.01709 120 102 125
1.09561 -1.02879 0.00904 80 67 84
1.10328 -1.03574 0.01177 73 63 77
1.10139 -1.05080 0.01319 98 88 73
1.11080 -1.04274 0.01469 88 77 72
1.10891 -1.05782 0.01611 95 90 78
1.12405 -1.04881 0.01183 96 87 74
1.12214 -1.06395 0.01326 93 90 75
1.16526 -1.07558 0.01302 89 87 68
1.18535 -1.08094 0.00375 79 79 58
1.22769 -1.09171 -0.01642 57 54 44
1.22148 -1.09948 -0.02165 40 36 40
1.22572 -1.10739 -0.01494 44 39 43
1.82339 -1.45419 -0.03063 20 22 12
1.81120 -1.45403 -0.04456 20 23 16
1.83400 -1.46353 -0.02720 45 47 44
1.86392 -1.47335 -0.03863 84 81 75
1.86159 -1.49183 -0.03689 93 84 75
2.81997 -1.98647 -0.14918 68 62 42
2.80469 -1.98627 -0.16665 75 65 53
2.80758 -1.99517 -0.12812 52 20 33
2.81206 -2.00641 -0.11735 48 14 11
2.80919 -2.02921 -0.11520 40 11 9
2.89783 -2.11541 -0.04676 38 19 20
2.88251 -2.11521 -0.06427 25 9 15
2.89725 -2.12575 -0.03307 60 47 22
2.89332 -2.13543 -0.01754 77 66 31
2.89044 -2.15831 -0.01539 82 69 44
2.78754 -2.19549 0.14406 125 103 80
2.77289 -2.19530 0.12731 123 101 71
2.77883 -2.20639 0.13672 124 102 75
2.78478 -2.21748 0.14613 125 101 71
2.78197 -2.20416 0.15961 132 113 83
2.79309 -2.21631 0.16624 138 120 90
2.79033 -2.23826 0.16831 112 93 65
2.78076 -2.22345 0.18525 125 102 75
2.78263 -2.23358 0.19671 118 100 78
2.76075 -2.23846 0.22048 173 165 118
2.74837 -2.24531 0.23917 187 160 95
2.74566 -2.26687 0.24120 190 174 135
2.78547 -2.26324 0.23234 165 134 75
2.79582 -2.27522 0.23937 126 101 68
2.78806 -2.28305 0.25559 109 86 68
2.78776 -2.29254 0.26797 111 94 78
2.78366 -2.30111 0.28222 107 99 127
2.78027 -2.30980 0.29604 101 100 141
2.75813 -2.31393 0.31908 133 137 145
2.74386 -2.32914 0.34997 157 169 165
2.77126 -2.34523 0.34856 192 215 219
2.77502 -2.36479 0.37057 199 201 204
2.77876 -2.37503 0.38065 194 189 172
2.79300 -2.38796 0.38576 173 159 100
2.81033 -2.40174 0.38948 90 64 37
2.79337 -2.40655 0.40924 39 24 36
2.80417 -2.41862 0.41601 77 73 75
2.79394 -2.42509 0.43249 100 96 83
2.78465 -2.43173 0.44843 103 93 76
2.78900 -2.44202 0.45809 78 73 73
2.68586 -2.43156 0.52741 126 139 160
2.69181 -2.44201 0.53600 134 149 162
2.68983 -2.45022 0.54809 156 169 178
2.69405 -2.46017 0.55742 193 207 211
2.69148 -2.48062 0.55935 204 208 207
2.69727 -2.47852 0.57832 206 213 217
2.68918 -2.48864 0.57151 207 210 211
2.69470 -2.49893 0.58024 204 208 211
2.62126 -2.49041 0.65446 213 213 205
2.60802 -2.49024 0.63932 217 218 228
2.60217 -2.50140 0.68383 172 177 169
2.59021 -2.51432 0.70993 181 183 162
2.57330 -2.51731 0.72731 215 228 191
2.56085 -2.52159 0.74277 235 245 191
2.55233 -2.52704 0.75656 245 250 153
2.53607 -2.52996 0.77333 251 250 97
2.50396 -2.54354 0.81645 254 254 114
2.49135 -2.54338 0.80204 246 247 114
2.50158 -2.56246 0.81823 254 254 150
2.50601 -2.60660 0.89543 69 49 129
2.49353 -2.60644 0.88118 108 79 87
2.50365 -2.62532 0.89720 35 37 63
2.53118 -2.62295 0.89615 66 84 163
2.54372 -2.62311 0.91049 229 246 251
2.53626 -2.63244 0.90421 125 154 218
2.52881 -2.64177 0.89792 27 35 72
0.76263 -0.38114 -0.57154 49 22 44
0.75250 -0.38101 -0.58311 87 62 70
0.78791 -0.37665 -0.59778 60 35 61
1.02250 -0.97452 -0.02076 254 254 248
1.01976 -0.98340 -0.00715 243 243 215
1.02956 -0.98965 -0.00707 206 192 185
1.02995 -0.99784 0.00313 197 198 214
1.02616 -1.00682 0.01773 176 199 210
1.07593 -1.02211 -0.00298 67 61 69
1.08598 -1.02859 -0.00282 70 68 75
1.08409 -1.04363 -0.00140 95 87 80
1.09310 -1.03563 0.00045 88 80 75
1.09121 -1.05069 0.00187 95 88 78
1.15198 -1.07592 0.00443 82 80 70
1.17743 -1.08045 -0.01037 74 69 59
1.17549 -1.09590 -0.00892 48 39 48
1.20668 -1.08459 -0.02876 58 50 51
1.20472 -1.10022 -0.02729 45 41 42
1.82508 -1.46343 -0.04374 18 19 15
1.81285 -1.46328 -0.05772 17 21 22
1.81781 -1.47253 -0.04987 11 15 19
1.82824 -1.47265 -0.03449 40 42 41
1.85994 -1.48260 -0.04740 81 79 74
1.85761 -1.50111 -0.04566 95 83 69
2.82298 -1.99971 -0.16423 67 61 39
2.80765 -1.99951 -0.18175 74 61 54
2.82031 -2.00991 -0.14898 52 22 34
2.81985 -2.02041 -0.13513 45 14 14
2.81697 -2.04332 -0.13297 32 5 7
2.91955 -2.13250 -0.07210 36 20 19
2.90411 -2.13230 -0.08975 21 8 12
2.90509 -2.14030 -0.05038 56 47 23
2.90914 -2.15150 -0.03928 73 65 32
2.90624 -2.17453 -0.03711 80 67 43
2.76881 -2.22382 0.16722 124 100 73
2.75424 -2.22363 0.15056 125 102 75
2.76015 -2.23466 0.15992 127 102 71
2.76551 -2.24252 0.19388 94 89 80
2.75689 -2.25331 0.18661 85 74 76
2.75430 -2.24967 0.21214 135 134 116
2.72451 -2.25252 0.23993 172 163 132
2.73439 -2.28324 0.27133 188 158 89
2.77306 -2.32080 0.28820 117 93 98
2.76503 -2.32828 0.30430 118 99 107
2.76350 -2.33730 0.31711 105 101 124
2.75809 -2.34531 0.33177 107 122 150
2.75602 -2.35411 0.34474 154 178 186
2.75681 -2.36359 0.35627 183 198 216
2.76212 -2.37421 0.36560 197 214 236
2.76629 -2.38454 0.37547 205 218 226
2.75392 -2.39053 0.39317 201 196 164
2.81000 -2.41450 0.37849 141 99 86
2.80701 -2.42298 0.39179 94 69 51
2.80680 -2.43216 0.40375 100 89 78
2.78932 -2.43664 0.42365 124 118 100
2.78321 -2.44411 0.43819 120 105 84
2.77557 -2.45110 0.45335 72 60 52
2.78125 -2.46173 0.46239 64 75 89
2.75575 -2.46362 0.48547 99 116 127
2.75057 -2.47110 0.49927 81 86 129
2.68547 -2.46143 0.53960 134 143 162
2.69394 -2.47260 0.54708 189 200 208
2.57859 -2.49805 0.67320 224 225 219
2.57612 -2.51770 0.67505 205 207 212
2.57694 -2.50583 0.68451 204 205 202
2.57823 -2.51448 0.69456 187 188 185
2.58968 -2.52628 0.70042 179 183 188
2.58721 -2.54590 0.70227 213 220 216
2.58242 -2.53223 0.71395 191 202 209
2.56282 -2.53424 0.73240 202 208 197
2.54585 -2.53697 0.74965 206 216 177
2.54343 -2.55627 0.75147 130 141 157
2.52059 -2.53694 0.77008 215 228 147
2.50062 -2.53848 0.78824 229 241 136
2.48298 -2.54851 0.81540 252 252 134
2.48061 -2.56736 0.81718 249 251 158
2.49012 -2.61296 0.89230 51 34 43
2.48777 -2.63162 0.89406 76 76 53
0.75865 -0.38749 -0.57979 147 117 101
0.74851 -0.38736 -0.59138 211 201 174
0.75673 -0.40270 -0.57836 250 245 228
0.75975 -0.39688 -0.56860 195 170 150
0.75784 -0.41207 -0.56717 254 253 245
1.01611 -0.97365 -0.03585 249 253 252
1.01210 -0.96617 -0.04220 253 254 254
1.04538 -1.00927 -0.01395 77 67 105
1.05347 -1.01602 -0.01188 56 52 80
1.05159 -1.03095 -0.01048 91 84 74
1.06296 -1.02253 -0.01126 71 65 75
1.06108 -1.03751 -0.00985 92 86 77
1.07268 -1.02905 -0.01082 86 81 72
1.07079 -1.04407 -0.00941 92 87 75
1.08252 -1.03560 -0.01045 93 87 79
1.13012 -1.06926 -0.00609 80 80 63
1.11996 -1.06912 -0.01771 69 68 59
1.12408 -1.07681 -0.01118 59 56 53
1.12820 -1.08450 -0.00465 53 46 34
1.15608 -1.07358 -0.02177 71 70 49
1.15414 -1.08899 -0.02032 49 43 37
1.19170 -1.08513 -0.03607 54 45 53
1.18974 -1.10072 -0.03460 45 45 42
1.83633 -1.48214 -0.05265 34 37 38
1.82404 -1.48198 -0.06670 12 15 19
1.86037 -1.49200 -0.05964 80 76 69
1.85804 -1.51056 -0.05789 93 83 65
2.82482 -2.01284 -0.17864 66 56 42
2.80945 -2.01264 -0.19622 71 60 51
2.82504 -2.02350 -0.16509 49 19 35
2.82214 -2.04653 -0.16292 31 5 13
2.82760 -2.03452 -0.15301 37 7 13
2.82471 -2.05752 -0.15084 26 4 6
2.92162 -2.14609 -0.08631 32 17 15
2.90613 -2.14589 -0.10401 18 5 8
2.91109 -2.15460 -0.06674 51 42 21
2.90430 -2.16375 -0.04941 69 62 31
2.90140 -2.18680 -0.04724 79 65 43
2.75507 -2.24324 0.17512 116 95 64
2.74055 -2.24305 0.15852 126 104 73
2.75028 -2.26145 0.20250 91 86 83
2.74605 -2.27007 0.21706 123 112 105
2.72962 -2.27581 0.23790 144 134 129
2.71247 -2.30005 0.28315 202 180 116
2.72040 -2.31132 0.29118 200 175 103
2.73251 -2.32363 0.29711 185 157 95
2.76075 -2.33997 0.29502 164 135 92
2.76041 -2.34926 0.30728 126 97 80
2.73368 -2.35187 0.33251 103 80 61
2.74346 -2.36362 0.33964 106 83 76
2.74156 -2.37239 0.35249 107 105 124
2.73439 -2.37975 0.36783 117 132 183
2.72722 -2.38705 0.38309 146 164 203
2.74905 -2.40196 0.38443 148 146 188
2.76695 -2.41590 0.38772 135 129 163
2.75938 -2.42303 0.40310 134 137 149
2.78137 -2.43814 0.40456 154 151 152
2.79301 -2.45049 0.41092 181 187 165
2.79220 -2.45942 0.42308 162 156 129
2.77109 -2.46264 0.44452 116 102 98
2.75380 -2.47579 0.47561 85 92 97
2.74695 -2.48278 0.49021 29 28 72
2.68762 -2.47454 0.52818 121 141 160
2.70137 -2.48729 0.53333 187 200 202
2.69879 -2.50787 0.53527 186 190 193
2.70632 -2.49749 0.54241 197 199 201
2.71188 -2.50786 0.55122 200 202 211
2.58473 -2.52865 0.68208 197 198 194
2.57694 -2.53839 0.67552 201 205 209
2.59423 -2.53988 0.68877 201 203 201
2.56604 -2.54735 0.72146 194 197 195
2.56359 -2.56683 0.72330 138 131 124
2.46948 -2.54020 0.79132 152 170 181
2.46272 -2.54582 0.80409 199 215 189
2.46559 -2.55457 0.81302 236 245 176
0.99071 -0.96856 -0.04072 248 253 251
0.99256 -0.95381 -0.04211 254 254 254
0.98672 -0.96112 -0.04704 253 254 254
0.99655 -0.96125 -0.03580 254 254 254
0.99050 -0.98517 -0.01909 214 227 221
0.99243 -0.99300 -0.01057 178 176 172
1.01252 -0.99713 -0.02185 134 116 141
1.02655 -1.00259 -0.02640 72 69 81
1.02469 -1.01746 -0.02500 85 79 72
1.03362 -1.00950 -0.02332 60 63 82
1.03174 -1.02439 -0.02192 82 80 75
1.04804 -1.02333 -0.01739 86 79 74
1.04212 -1.03073 -0.02237 83 81 76
1.04616 -1.03826 -0.01598 89 85 74
1.08552 -1.04982 -0.01416 92 86 67
1.08363 -1.06491 -0.01274 70 66 51
1.84359 -1.49171 -0.07030 32 35 30
1.83124 -1.49155 -0.08441 14 17 15
1.85700 -1.50134 -0.06896 78 75 54
1.85466 -1.51992 -0.06721 92 84 62
2.83293 -2.02706 -0.19701 63 55 43
2.81749 -2.02686 -0.21466 69 58 45
2.83726 -2.03842 -0.18591 45 18 35
2.83435 -2.06158 -0.18373 30 6 16
2.92315 -2.15967 -0.10029 31 15 12
2.90762 -2.15946 -0.11804 18 6 6
2.91509 -2.16863 -0.08205 51 39 18
2.91440 -2.17896 -0.06812 69 59 29
2.74375 -2.25343 0.16929 121 101 63
2.72924 -2.25325 0.15270 122 102 71
2.73513 -2.26423 0.16202 120 101 62
2.74056 -2.26235 0.18344 100 83 62
2.73783 -2.28407 0.18549 84 68 54
2.73981 -2.27177 0.19625 81 68 62
2.73309 -2.27978 0.21214 103 90 67
2.71694 -2.28549 0.23289 115 100 82
2.70669 -2.32060 0.28673 192 181 143
2.71330 -2.33155 0.29542 202 185 130
2.72454 -2.34366 0.30178 204 183 119
2.72185 -2.36500 0.30379 206 193 143
2.71585 -2.35076 0.31814 202 175 98
2.71631 -2.36012 0.32985 196 160 77
2.72954 -2.37276 0.33524 171 134 70
2.73763 -2.38409 0.34319 127 102 48
2.74473 -2.39518 0.35164 76 52 55
2.74974 -2.40571 0.36111 75 67 99
2.76216 -2.41823 0.36701 87 73 102
2.76870 -2.42919 0.37576 82 73 118
2.74832 -2.43281 0.39729 115 132 171
2.77880 -2.45031 0.39469 162 187 197
2.78457 -2.46105 0.40381 181 199 214
2.79033 -2.47180 0.41293 161 176 185
2.77794 -2.47742 0.43044 141 152 142
2.74979 -2.47845 0.45506 120 120 99
2.74780 -2.48685 0.46755 55 48 43
2.74073 -2.49373 0.48230 29 32 75
2.70553 -2.49234 0.50962 138 163 167
2.70293 -2.51302 0.51156 190 195 192
2.70736 -2.50166 0.52015 187 194 196
2.70477 -2.52232 0.52209 186 188 184
2.71198 -2.52053 0.54072 193 197 208
2.72572 -2.52071 0.55643 201 204 210
2.71755 -2.53093 0.54955 202 204 211
2.66012 -2.53924 0.60779 201 203 204
2.64665 -2.53907 0.59239 198 198 191
2.65212 -2.54926 0.60105 199 194 192
2.65758 -2.55946 0.60970 200 197 202
2.60258 -2.55477 0.67547 195 203 207
2.59021 -2.55908 0.69126 183 193 190
2.57549 -2.56254 0.70791 164 163 152
2.43352 -2.54793 0.80649 126 155 183
2.44785 -2.56045 0.81082 182 194 201
2.44006 -2.56558 0.82389 199 192 171
2.45250 -2.56574 0.83811 251 252 154
2.43771 -2.58425 0.82565 95 93 111
2.44143 -2.57375 0.83331 202 208 185
2.45386 -2.57392 0.84752 247 251 173
2.43909 -2.59240 0.83507 91 86 140
0.96793 -0.96301 -0.04817 248 251 251
0.96977 -0.94832 -0.04956 254 254 254
0.96396 -0.95560 -0.05446 253 254 254
0.97374 -0.95573 -0.04327 254 254 254
0.97785 -0.96910 -0.04856 235 241 245
0.98079 -0.97675 -0.04110 203 226 223
0.97644 -0.98594 -0.02555 169 154 156
1.00563 -0.99639 -0.03639 67 56 64
1.00377 -1.01121 -0.03500 92 85 66
1.01442 -1.00291 -0.03529 65 59 72
1.01255 -1.01776 -0.03389 91 83 66
1.02122 -1.00985 -0.03197 82 75 65
1.01935 -1.02472 -0.03057 86 81 73
1.06568 -1.04308 -0.02605 90 84 69
1.07677 -1.04946 -0.02704 86 82 61
2.02927 -1.29352 -0.50678 13 10 21
2.03185 -1.27297 -0.50871 11 7 10
2.02371 -1.28315 -0.51557 12 7 16
2.03741 -1.28333 -0.49992 9 9 7
2.04296 -1.29369 -0.49112 7 7 8
2.03441 -1.30389 -0.49761 12 9 12
2.04810 -1.30407 -0.48196 7 9 5
2.03996 -1.31425 -0.48882 13 8 11
1.84527 -1.50120 -0.08364 33 34 24
1.83289 -1.50104 -0.09781 13 18 13
1.86034 -1.51094 -0.08361 75 71 45
2.42851 -1.80634 -0.17547 87 79 66
2.43120 -1.78497 -0.17749 94 82 74
2.42274 -1.79556 -0.18462 91 83 68
2.43698 -1.79575 -0.16834 92 81 78
2.44276 -1.80653 -0.15919 93 81 81
2.43846 -1.81762 -0.16916 85 75 69
2.45272 -1.81780 -0.15286 92 80 76
2.43577 -1.83902 -0.16715 76 67 60
2.44915 -1.82901 -0.16333 84 73 68
2.45494 -1.83982 -0.15416 79 69 63
2.44645 -1.85044 -0.16131 79 67 61
2.83671 -2.04068 -0.21281 61 54 36
2.82122 -2.04048 -0.23052 67 54 42
2.84795 -2.05323 -0.20592 42 16 35
2.84502 -2.07651 -0.20373 28 7 15
2.91945 -2.17229 -0.11130 31 16 11
2.90390 -2.17209 -0.12907 17 7 6
2.91634 -2.18219 -0.09585 52 38 16
2.91167 -2.19174 -0.07958 69 57 27
2.90875 -2.21494 -0.07739 75 62 38
2.92244 -2.20435 -0.07222 77 64 40
2.93793 -2.20455 -0.05452 85 72 49
2.92873 -2.21607 -0.06228 83 70 50
2.91952 -2.22759 -0.07003 81 68 47
2.72263 -2.27095 0.18119 109 90 53
2.70818 -2.27077 0.16468 121 101 66
2.71404 -2.28170 0.17395 113 96 60
2.71990 -2.29263 0.18323 89 77 63
2.71214 -2.29703 0.22376 110 96 65
2.69040 -2.30121 0.24736 111 96 79
2.67188 -2.30604 0.26911 112 99 96
2.68336 -2.31816 0.27523 129 118 113
2.68825 -2.32866 0.28475 153 147 129
2.69690 -2.34010 0.29237 175 168 135
2.71636 -2.35431 0.29452 194 186 143
2.71880 -2.37347 0.31733 202 184 130
2.72969 -2.38554 0.32389 196 168 105
2.72400 -2.39327 0.33865 165 147 80
2.73112 -2.40435 0.34707 132 85 31
2.73933 -2.41573 0.35497 135 99 75
2.74160 -2.42551 0.36575 132 110 53
2.77249 -2.44312 0.36277 92 69 44
2.77504 -2.45301 0.37346 82 60 69
2.76334 -2.45891 0.39090 100 99 105
2.74549 -2.46300 0.41112 116 124 167
2.75735 -2.47540 0.41730 99 96 153
2.75362 -2.48338 0.43076 75 81 100
2.73763 -2.48777 0.44981 64 55 64
2.73293 -2.49534 0.46356 45 18 30
2.73193 -2.50394 0.47556 75 63 84
2.70784 -2.50569 0.49796 166 181 171
2.63923 -2.57050 0.63936 200 198 204
2.63381 -2.56039 0.63078 203 199 205
2.62587 -2.57033 0.62408 202 205 207
2.65376 -2.58354 0.64413 168 157 180
2.58869 -2.57086 0.68208 144 135 147
2.58621 -2.59058 0.68394 114 104 91
2.45949 -2.56837 0.78685 130 142 155
2.45202 -2.57773 0.78055 101 96 96
2.45100 -2.57331 0.80035 124 133 155
0.93797 -0.95094 -0.05787 252 254 253
0.93980 -0.93634 -0.05924 254 254 254
0.93402 -0.94358 -0.06411 254 254 254
0.94375 -0.94370 -0.05300 254 254 254
0.94769 -0.95106 -0.04675 254 254 254
0.95093 -0.96451 -0.05115 230 241 243
0.96107 -0.97052 -0.05190 197 218 219
0.97324 -0.97613 -0.05486 160 143 171
0.97139 -0.99087 -0.05347 77 69 71
0.98016 -0.98294 -0.05185 95 77 121
0.98686 -0.98982 -0.04856 60 53 76
1.05194 -1.04360 -0.03352 81 81 65
1.04787 -1.03603 -0.03995 78 79 72
1.07166 -1.04848 -0.04383 77 73 53
1.06976 -1.06362 -0.04241 57 49 48
1.08233 -1.05500 -0.04436 71 63 51
1.08043 -1.07019 -0.04293 53 50 49
1.09109 -1.06190 -0.04278 56 52 51
1.08917 -1.07711 -0.04135 51 50 40
2.01599 -1.29332 -0.52280 17 11 21
2.01857 -1.27277 -0.52474 10 7 10
2.01043 -1.28296 -0.53160 10 6 10
2.00229 -1.29315 -0.53846 9 6 9
2.02011 -1.30374 -0.51273 39 38 43
2.02300 -1.31418 -0.50159 38 37 34
2.03693 -1.32430 -0.50017 28 24 18
2.05065 -1.32448 -0.48450 11 7 10
2.04040 -1.33473 -0.48953 18 10 13
2.05410 -1.33491 -0.47386 9 9 10
2.04596 -1.34510 -0.48073 12 9 7
1.84848 -1.51080 -0.09828 29 29 22
1.83605 -1.51063 -0.11249 15 20 10
1.86064 -1.52049 -0.09593 70 66 47
1.86413 -1.52985 -0.08669 90 83 68
1.87659 -1.53001 -0.07245 95 85 70
1.86919 -1.53928 -0.07869 94 84 72
1.86178 -1.54855 -0.08493 94 82 71
2.38004 -1.79214 -0.18109 89 82 70
2.38271 -1.77095 -0.18308 94 82 81
2.37431 -1.78146 -0.19016 94 82 78
2.38844 -1.78164 -0.17401 93 83 76
2.40143 -1.80466 -0.18286 78 72 60
2.39876 -1.82595 -0.18086 51 32 50
2.42267 -1.81725 -0.18441 66 53 57
2.84844 -2.05572 -0.23367 59 51 31
2.83287 -2.05552 -0.25148 65 51 44
2.85666 -2.06784 -0.22485 40 16 30
2.85372 -2.09122 -0.22264 25 6 11
2.89611 -2.18106 -0.11081 31 17 10
2.88062 -2.18086 -0.12852 16 6 5
2.90258 -2.19282 -0.10097 52 39 15
2.90234 -2.20321 -0.08724 67 55 25
2.89942 -2.22642 -0.08506 74 60 40
2.70696 -2.29904 0.20251 82 73 72
2.69842 -2.30973 0.19531 51 47 94
2.70425 -2.32060 0.20454 45 48 115
2.69101 -2.30463 0.22325 85 81 76
2.68832 -2.32607 0.22527 32 34 118
2.67422 -2.30990 0.24429 78 72 85
2.65299 -2.31396 0.26751 67 67 94
2.64911 -2.32222 0.28154 94 88 93
2.64170 -2.32954 0.29733 110 102 77
2.64049 -2.33838 0.30986 123 119 92
2.68628 -2.35931 0.29841 142 146 124
2.69488 -2.37075 0.30604 160 158 131
2.68803 -2.37814 0.32145 141 145 126
2.69581 -2.38936 0.32947 152 123 104
2.70162 -2.40006 0.33849 140 129 102
2.70021 -2.40880 0.35107 166 151 68
2.67999 -2.41239 0.37281 190 168 81
2.72007 -2.44152 0.37687 163 130 70
2.74628 -2.45792 0.37608 149 112 58
2.75492 -2.46946 0.38380 138 109 51
2.76822 -2.48234 0.38932 112 82 85
2.75812 -2.48853 0.40592 84 51 57
2.74032 -2.49242 0.42601 70 40 35
2.73551 -2.49999 0.43992 69 48 36
2.73927 -2.51003 0.44982 94 72 68
2.77420 -2.52931 0.44541 144 119 113
2.71714 -2.52121 0.48306 188 180 158
2.71002 -2.52787 0.49775 194 191 185
2.71563 -2.53835 0.50664 189 189 187
2.64007 -2.58327 0.62894 194 195 197
2.62537 -2.58687 0.64604 143 127 151
2.60137 -2.58734 0.66691 121 107 102
2.59888 -2.60717 0.66878 118 105 70
2.44970 -2.58471 0.79161 110 106 103
2.43715 -2.58455 0.77726 100 82 64
2.44224 -2.59405 0.78532 93 80 56
2.44733 -2.60354 0.79338 90 76 63
2.42717 -2.58474 0.81067 115 108 100
2.42482 -2.60342 0.81243 91 78 70
0.67402 -0.48078 -0.46598 172 184 214
0.67585 -0.46620 -0.46735 225 248 254
0.67008 -0.47343 -0.47222 127 137 193
0.67979 -0.47355 -0.46111 233 249 254
0.68373 -0.48090 -0.45487 247 251 253
0.68314 -0.48531 -0.46785 219 213 239
0.69289 -0.48543 -0.45671 250 251 253
0.68710 -0.49268 -0.46159 228 211 241
0.69684 -0.49281 -0.45045 253 254 254
0.69581 -0.49751 -0.46272 247 252 254
0.70558 -0.49764 -0.45155 254 254 254
0.69977 -0.50491 -0.45644 254 254 254
0.69397 -0.51218 -0.46134 254 254 254
0.92306 -0.95203 -0.06296 248 249 249
0.92123 -0.96658 -0.06159 131 100 130
0.94134 -0.96435 -0.06248 197 201 185
0.95707 -0.96910 -0.06969 149 126 149
0.95881 -0.97701 -0.06084 75 67 75
0.96846 -0.98321 -0.06098 56 57 68
0.96661 -0.99796 -0.05960 90 84 68
0.99258 -1.00307 -0.05563 90 83 64
0.99071 -1.01790 -0.05423 92 88 74
1.03714 -1.03603 -0.05060 77 75 63
1.03308 -1.02846 -0.05703 83 82 67
1.04309 -1.02859 -0.04559 81 78 72
1.03525 -1.05105 -0.04919 60 57 61
1.04483 -1.04296 -0.04811 69 70 65
1.04294 -1.05800 -0.04670 57 57 59
1.05497 -1.04949 -0.04824 60 64 60
1.05307 -1.06458 -0.04682 55 54 51
2.50679 -1.03098 -1.31146 33 28 24
2.49022 -1.03077 -1.33041 40 38 37
2.51351 -1.04352 -1.30082 19 17 12
2.53009 -1.04374 -1.28187 10 10 7
2.52024 -1.05606 -1.29018 10 12 6
2.51039 -1.06839 -1.29848 12 13 7
2.00817 -1.30350 -0.52995 19 14 22
1.99447 -1.30332 -0.54561 7 7 10
2.01215 -1.31391 -0.51975 49 61 48
2.00957 -1.33446 -0.51781 51 58 55
2.01636 -1.32431 -0.50976 54 60 54
2.02239 -1.33465 -0.50139 43 45 30
2.02519 -1.34507 -0.49018 32 30 30
2.03271 -1.35538 -0.48313 24 16 7
2.04640 -1.35556 -0.46749 7 9 9
2.03756 -1.36575 -0.47372 14 9 10
2.05124 -1.36592 -0.45809 8 9 9
2.04311 -1.37610 -0.46494 10 8 9
1.84930 -1.52037 -0.11109 26 26 18
1.83683 -1.52021 -0.12534 18 23 8
1.86347 -1.53020 -0.11034 60 58 46
1.86360 -1.53944 -0.09839 88 81 73
1.86124 -1.55818 -0.09662 95 82 74
2.33168 -1.77810 -0.18611 93 83 68
2.33432 -1.75709 -0.18809 95 83 77
2.32599 -1.76751 -0.19511 96 84 74
2.34000 -1.76769 -0.17910 96 82 79
2.34917 -1.79005 -0.18543 87 78 60
2.37569 -1.80312 -0.19100 76 68 51
2.37302 -1.82434 -0.18900 42 24 40
2.38904 -1.81474 -0.18721 59 48 48
2.41905 -1.83852 -0.18176 62 48 51
2.41636 -1.85991 -0.17975 79 69 66
2.84539 -2.06837 -0.24538 57 48 31
2.82979 -2.06817 -0.26322 63 50 44
2.85071 -2.08001 -0.23473 40 17 25
2.84777 -2.10341 -0.23253 26 5 11
2.87580 -2.19034 -0.11202 30 17 9
2.86036 -2.19014 -0.12968 14 4 5
2.88256 -2.20213 -0.10239 50 39 15
2.88505 -2.21304 -0.09027 66 54 27
2.88214 -2.23619 -0.08809 73 58 42
2.69686 -2.28086 0.15893 117 100 73
2.69958 -2.25921 0.15689 121 100 70
2.69101 -2.26994 0.14966 120 100 74
2.69311 -2.28949 0.17341 99 86 65
2.69543 -2.29954 0.18455 67 66 70
2.64116 -2.32357 0.26226 23 37 117
2.62708 -2.32339 0.24616 24 39 142
2.63851 -2.34470 0.26425 56 73 107
2.64398 -2.33350 0.27281 70 80 95
2.64133 -2.35461 0.27480 77 69 72
2.62755 -2.33847 0.29333 90 83 69
2.62491 -2.35945 0.29531 92 76 69
2.63097 -2.34847 0.30348 96 93 68
2.63334 -2.35818 0.31414 97 95 77
2.64691 -2.37084 0.31908 93 72 56
2.65463 -2.38197 0.32704 49 43 61
2.68367 -2.39884 0.32430 106 98 107
2.67664 -2.40605 0.33971 171 169 129
2.65509 -2.40922 0.36224 197 188 121
2.64892 -2.41650 0.37702 199 181 116
2.64629 -2.43735 0.37899 207 191 139
2.64122 -2.42330 0.39247 200 177 110
2.63724 -2.43994 0.41761 207 180 98
2.64478 -2.45093 0.42553 208 178 103
2.66371 -2.46521 0.42802 203 170 96
2.70600 -2.48635 0.41954 194 158 81
2.72147 -2.49980 0.42391 187 153 78
2.73346 -2.51227 0.42997 184 156 75
2.71704 -2.51631 0.44925 193 170 85
2.72857 -2.52863 0.45551 198 172 90
2.72870 -2.53754 0.46703 194 169 106
2.72614 -2.54559 0.47974 191 172 135
2.72140 -2.55294 0.49338 188 176 166
2.73529 -2.55312 0.50926 188 188 187
2.72572 -2.56305 0.50289 180 176 178
2.73961 -2.56323 0.51877 188 188 189
2.73910 -2.57597 0.50835 173 179 185
2.75302 -2.57615 0.52426 188 192 192
2.74152 -2.58549 0.51872 174 182 191
2.75543 -2.58567 0.53461 189 191 191
2.73247 -2.59135 0.53411 180 187 191
2.74632 -2.59153 0.54994 191 191 193
2.73809 -2.60183 0.54300 184 187 193
2.72986 -2.61213 0.53607 169 185 192
2.67064 -2.59733 0.59468 193 197 194
2.66514 -2.58707 0.58597 188 191 197
2.65708 -2.59716 0.57918 179 192 194
2.61005 -2.58605 0.63166 180 172 153
2.60902 -2.59401 0.64294 130 112 91
2.60199 -2.59997 0.65672 113 102 78
2.59949 -2.61984 0.65859 119 106 67
0.66089 -0.47301 -0.48416 47 58 147
0.65694 -0.46565 -0.49040 72 82 165
0.65117 -0.47288 -0.49527 54 67 110
0.66666 -0.46578 -0.47929 156 155 220
0.66369 -0.48099 -0.47611 82 78 147
0.66710 -0.48863 -0.46903 173 169 193
0.67064 -0.49619 -0.46218 200 193 201
0.66881 -0.51076 -0.46080 219 203 194
0.67565 -0.50296 -0.45762 209 199 210
0.67382 -0.51754 -0.45625 247 253 254
0.69054 -0.50450 -0.46845 243 252 254
0.68869 -0.51916 -0.46707 254 254 254
0.89987 -0.94687 -0.06902 243 251 252
0.90710 -0.95339 -0.06671 214 243 231
0.92238 -0.95806 -0.07376 190 173 170
0.94678 -0.97738 -0.06948 64 64 74
0.94494 -0.99206 -0.06810 94 87 78
0.96597 -0.98981 -0.06972 89 84 64
0.96411 -1.00458 -0.06833 96 85 68
1.01327 -1.02185 -0.06851 89 88 66
1.02325 -1.02198 -0.05710 89 85 67
1.01825 -1.02923 -0.06313 83 83 68
1.01636 -1.04421 -0.06172 56 56 50
1.02835 -1.03568 -0.06339 72 72 62
1.02646 -1.05070 -0.06197 57 55 53
1.03344 -1.04307 -0.05808 64 61 60
1.03155 -1.05811 -0.05666 58 53 58
2.51757 -1.04117 -1.34035 35 32 26
2.50089 -1.04095 -1.35941 39 37 38
2.50766 -1.05357 -1.34870 35 34 24
2.52433 -1.05378 -1.32965 22 20 13
2.52118 -1.07880 -1.32729 14 13 6
1.98961 -1.31401 -0.52740 14 13 22
1.97595 -1.31383 -0.54301 7 7 10
1.99897 -1.32423 -0.52207 36 47 43
2.01460 -1.34483 -0.50855 50 50 46
2.01202 -1.36537 -0.50662 47 51 49
2.01412 -1.35529 -0.49443 43 49 45
2.01676 -1.36566 -0.48310 41 37 21
2.02087 -1.37601 -0.47309 29 26 19
2.02404 -1.38635 -0.46226 18 12 11
2.03767 -1.38652 -0.44668 8 7 8
2.02956 -1.39666 -0.45351 12 8 6
1.84821 -1.52992 -0.12243 24 23 12
1.83572 -1.52976 -0.13672 20 23 8
1.85838 -1.53961 -0.11849 52 50 43
1.86452 -1.54914 -0.11130 87 81 75
1.86216 -1.56793 -0.10953 94 83 74
2.26015 -1.76170 -0.17379 94 86 79
2.26275 -1.74101 -0.17574 95 85 73
2.25456 -1.75126 -0.18265 97 86 79
2.26834 -1.75144 -0.16689 96 85 76
2.28909 -1.77473 -0.18166 86 82 68
2.31409 -1.78746 -0.18654 78 72 48
2.31146 -1.80842 -0.18456 38 25 20
2.32618 -1.79878 -0.18211 65 57 32
2.35428 -1.81208 -0.18892 52 38 28
2.38132 -1.83537 -0.18170 47 34 53
2.40426 -1.84830 -0.18452 69 60 54
2.40157 -1.86965 -0.18251 83 69 70
2.83664 -2.08007 -0.25353 55 43 30
2.82104 -2.07987 -0.27137 60 49 41
2.84242 -2.09178 -0.24316 38 15 24
2.83948 -2.11519 -0.24096 30 7 22
2.86531 -2.20156 -0.11899 28 17 10
2.84987 -2.20136 -0.13664 13 6 7
2.87036 -2.21299 -0.10835 49 39 16
2.88246 -2.22590 -0.10186 65 53 28
2.68527 -2.28135 0.14087 112 95 81
2.68799 -2.25968 0.13883 119 98 71
2.67941 -2.27042 0.13159 117 97 71
2.68254 -2.30302 0.14291 56 35 103
2.68496 -2.29080 0.15353 93 76 83
2.68420 -2.30012 0.16639 64 47 76
2.68265 -2.30920 0.17964 42 44 98
2.67904 -2.31774 0.19395 34 42 118
2.68485 -2.32858 0.20315 26 42 139
2.63280 -2.33405 0.25520 29 45 136
2.61872 -2.33387 0.23910 24 42 150
2.62443 -2.34452 0.24815 26 43 138
2.62331 -2.36811 0.30804 98 82 61
2.60935 -2.36793 0.29208 108 94 64
2.64622 -2.38328 0.30817 92 72 34
2.65029 -2.39346 0.31800 72 50 31
2.67546 -2.40937 0.31715 121 116 87
2.67311 -2.41782 0.33026 152 146 118
2.64673 -2.41957 0.35530 181 169 150
2.63511 -2.42528 0.37282 197 183 145
2.62980 -2.45923 0.42189 217 192 139
2.65328 -2.48369 0.43371 213 184 126
2.65067 -2.50441 0.43566 209 182 130
2.66916 -2.49719 0.43771 212 186 124
2.66655 -2.51797 0.43967 207 182 123
2.68770 -2.51153 0.44053 211 185 121
2.68508 -2.53239 0.44249 206 183 125
2.70284 -2.52491 0.44502 210 185 120
