ply
format ascii 1.0
element face 0
property list uchar int vertex_indices
element vertex 1330
property float x
property float y
property float z
property uchar diffuse_red
property uchar diffuse_green
property uchar diffuse_blue
end_header
1.25973 0.17170 -0.35056 144 176 247
1.30958 0.17448 -0.35940 122 139 188
1.32048 0.16931 -0.35852 61 58 84
1.33088 0.16395 -0.35724 17 7 15
1.33210 0.15617 -0.34969 39 34 68
2.26067 0.38576 -0.96651 145 145 179
2.25697 0.36618 -0.96507 212 239 253
1.59059 -0.03679 -0.25600 252 254 250
1.58197 -0.03616 -0.26890 247 254 248
1.58485 -0.04409 -0.26189 254 253 252
1.57673 -0.04739 -0.23937 209 188 183
1.15163 -0.46767 0.36864 7 9 25
1.14479 -0.46717 0.35841 13 13 16
1.14763 -0.47396 0.37678 62 70 80
1.14536 -0.48599 0.37766 92 94 86
1.15465 -0.48649 0.38685 54 59 55
1.16545 -0.49281 0.38897 25 22 39
1.16317 -0.50490 0.38986 20 15 26
1.52248 -0.68574 0.44235 23 24 30
1.51991 -0.67866 0.43608 21 25 38
1.52805 -0.69307 0.44764 16 17 29
1.52735 -0.69989 0.45497 92 92 87
1.52780 -0.70679 0.46192 150 138 107
1.52523 -0.72039 0.46292 157 133 95
0.81578 0.48094 -0.48676 94 136 238
0.81478 0.47300 -0.47813 127 167 251
0.88661 0.40963 -0.44229 146 179 251
0.87960 0.41014 -0.45278 148 182 254
0.82206 0.33789 -0.34128 157 132 192
0.81756 0.32888 -0.33009 161 191 241
0.82068 0.31598 -0.31803 173 210 251
0.83273 0.30670 -0.31341 155 161 189
0.83076 0.29882 -0.30444 137 105 169
0.83384 0.29297 -0.29966 95 50 124
0.83160 0.28110 -0.29878 42 27 64
0.84460 0.29013 -0.30118 44 24 71
0.84235 0.27820 -0.30030 36 34 63
0.88751 0.27809 -0.30649 47 36 87
0.93667 0.28196 -0.33087 59 63 128
0.95559 0.25955 -0.31550 56 69 116
1.25744 0.16313 -0.34075 144 175 244
1.29167 0.16435 -0.35619 131 152 204
1.31217 0.16173 -0.36198 77 78 100
1.32829 0.15786 -0.36465 20 12 18
1.33572 0.15166 -0.36131 17 21 52
1.33401 0.14312 -0.35176 91 110 150
1.33132 0.12887 -0.35071 155 189 204
1.58354 -0.05267 -0.25246 244 225 193
1.57493 -0.05204 -0.26534 254 253 252
1.59823 -0.05875 -0.25226 61 18 9
1.59534 -0.07401 -0.25113 30 28 16
1.14666 -0.47345 0.36414 8 9 25
1.13982 -0.47296 0.35392 12 13 12
1.14762 -0.47973 0.37024 61 66 83
1.14534 -0.49178 0.37113 93 94 79
1.15485 -0.49229 0.38025 55 61 56
1.49740 -0.67698 0.42952 17 24 35
1.49996 -0.66345 0.42852 19 22 30
1.49484 -0.66994 0.42329 14 19 24
1.48973 -0.67643 0.41805 13 15 25
1.50251 -0.67049 0.43476 20 23 29
1.51105 -0.69176 0.43916 25 46 73
1.52996 -0.70019 0.44005 17 26 32
1.52687 -0.70681 0.44819 95 97 88
1.52809 -0.71379 0.45491 149 136 103
1.52551 -0.72741 0.45591 156 131 94
4.05368 -1.20019 -0.08795 175 174 176
0.82197 0.47296 -0.49375 101 127 212
0.82206 0.46554 -0.48609 144 185 254
0.82896 0.46504 -0.47576 143 179 254
0.82436 0.45920 -0.48048 144 182 254
0.81976 0.45336 -0.48519 148 183 254
0.87533 0.40078 -0.44129 150 182 254
0.86834 0.40129 -0.45175 149 183 254
0.87067 0.39486 -0.44606 150 184 254
0.87325 0.39243 -0.43175 104 134 253
0.87093 0.38012 -0.43084 88 68 208
0.81100 0.34369 -0.35506 110 25 107
0.81800 0.33237 -0.34625 173 201 238
0.81437 0.32373 -0.33577 141 149 243
0.82230 0.31989 -0.33512 154 160 222
0.81793 0.30392 -0.31672 178 217 252
0.82784 0.30083 -0.31768 159 172 218
0.82608 0.29305 -0.30887 112 51 119
0.82384 0.28118 -0.30800 46 28 71
0.93748 0.27071 -0.33247 48 42 88
0.94809 0.26723 -0.33331 55 44 85
0.95303 0.26167 -0.32962 61 53 91
0.94851 0.25273 -0.31845 61 71 123
0.95149 0.24648 -0.31321 87 106 169
0.94913 0.23403 -0.31230 107 133 206
1.22242 0.17205 -0.34977 153 184 253
1.22502 0.18580 -0.35078 154 183 254
1.21983 0.17921 -0.35610 155 186 254
1.22762 0.17864 -0.34445 153 181 252
1.23021 0.17148 -0.33812 149 178 249
1.23605 0.16792 -0.35121 145 179 248
1.25304 0.16464 -0.35494 134 168 242
1.29700 0.16042 -0.36903 115 132 192
1.32309 0.15919 -0.37870 73 69 105
1.33426 0.15396 -0.37796 24 16 33
1.33155 0.13965 -0.37691 19 13 14
1.33696 0.14651 -0.37137 12 16 35
1.35552 0.14305 -0.37558 53 73 99
1.94021 0.07289 -0.54829 240 244 246
1.94349 0.09027 -0.54957 254 254 254
1.93693 0.08194 -0.55629 254 253 253
1.95005 0.07217 -0.53355 213 226 222
1.94349 0.06384 -0.54028 149 200 221
1.93692 0.05551 -0.54701 189 197 201
1.60362 -0.05593 -0.27335 241 237 199
1.59493 -0.05530 -0.28635 237 251 249
1.59783 -0.06329 -0.27929 189 149 184
1.60072 -0.07127 -0.27222 49 14 31
1.60127 -0.06472 -0.26325 60 19 27
1.59837 -0.08003 -0.26212 31 31 19
1.14552 -0.47923 0.35804 10 12 23
1.13868 -0.47874 0.34780 12 13 13
1.14582 -0.48552 0.36443 61 69 77
1.14354 -0.49758 0.36532 91 95 76
1.15243 -0.49810 0.37470 55 60 61
1.16360 -0.50448 0.37664 24 23 40
1.16131 -0.51661 0.37753 15 15 14
1.48115 -0.68260 0.42806 16 18 36
1.51988 -0.71318 0.44352 98 100 87
1.52170 -0.72021 0.45004 149 135 103
1.51913 -0.73383 0.45104 154 129 96
4.16346 -1.22969 -0.13068 166 160 159
3.98706 -1.21739 -0.06937 187 190 196
3.99568 -1.23137 -0.05849 203 206 208
3.99080 -1.25719 -0.05659 207 209 210
0.83161 0.48917 -0.52745 34 23 76
0.82464 0.48968 -0.53789 37 37 75
0.82929 0.47686 -0.52654 36 45 101
0.81755 0.47469 -0.50642 27 24 93
0.79179 0.45462 -0.47460 64 69 138
0.82855 0.46507 -0.50111 138 182 253
0.86073 0.38310 -0.42960 138 166 249
0.85378 0.38360 -0.44000 148 185 254
0.85610 0.37722 -0.43435 150 180 244
0.85841 0.37083 -0.42870 95 107 184
0.81002 0.32521 -0.34787 176 213 253
0.80846 0.31745 -0.33915 144 151 232
0.81560 0.31329 -0.33785 149 130 185
0.81333 0.29819 -0.32120 168 197 243
0.82267 0.29486 -0.32171 128 97 177
0.82043 0.28297 -0.32084 50 28 73
0.91878 0.26695 -0.33360 45 35 65
0.91178 0.26746 -0.34406 49 32 57
0.91411 0.26103 -0.33838 57 29 57
0.93309 0.25756 -0.32993 71 42 81
0.93674 0.25157 -0.32525 74 58 101
0.93440 0.23915 -0.32434 97 118 181
1.22038 0.17422 -0.36553 144 181 250
1.22298 0.18800 -0.36655 156 188 254
1.21777 0.18139 -0.37188 151 190 254
1.21257 0.17478 -0.37721 127 153 229
1.22621 0.16794 -0.36149 134 165 239
1.22361 0.15414 -0.36047 108 119 196
1.25551 0.16803 -0.37405 119 142 220
1.27812 0.16614 -0.38171 102 124 204
1.29378 0.15421 -0.37596 109 124 181
1.32854 0.15517 -0.39175 86 94 127
1.34216 0.13417 -0.37573 26 32 36
1.33597 0.12451 -0.36305 72 99 110
1.34407 0.12392 -0.35093 227 247 254
1.33867 0.11707 -0.35646 149 185 205
1.33326 0.11021 -0.36200 66 96 126
1.93828 0.07504 -0.56788 248 251 251
1.94157 0.09247 -0.56917 254 254 254
1.93499 0.08411 -0.57591 254 254 254
1.14161 -0.48503 0.35309 10 11 23
1.13476 -0.48453 0.34285 12 13 16
1.14754 -0.49133 0.35712 57 64 64
1.15168 -0.50393 0.36845 58 66 64
1.16093 -0.51032 0.37116 23 25 24
1.15863 -0.52246 0.37205 19 16 13
1.47848 -0.68243 0.41493 16 15 27
1.48104 -0.66893 0.41393 11 14 17
1.47594 -0.67541 0.40871 13 16 16
1.47489 -0.68897 0.42325 21 23 72
1.49744 -0.70449 0.42978 30 37 98
1.50835 -0.71913 0.44036 100 102 87
3.99266 -1.24476 -0.07030 198 201 204
0.82272 0.48117 -0.52821 40 46 86
0.81576 0.48167 -0.53862 36 48 80
0.79516 0.45270 -0.48668 21 37 118
0.83078 0.46251 -0.51225 115 158 238
0.83773 0.45833 -0.51090 145 186 254
0.84472 0.45783 -0.50045 145 182 254
0.84006 0.45192 -0.50522 145 182 254
0.83541 0.44601 -0.50999 147 185 254
0.79893 0.31677 -0.34677 184 222 254
0.80280 0.31128 -0.34271 165 179 229
0.80273 0.29711 -0.32793 172 208 245
0.80049 0.28529 -0.32706 101 50 121
0.81416 0.29464 -0.33028 140 125 197
0.81192 0.28276 -0.32941 52 25 76
0.81887 0.28943 -0.32689 87 37 101
0.81662 0.27754 -0.32602 44 43 77
1.21834 0.16849 -0.37315 112 138 216
1.21052 0.16906 -0.38484 114 126 207
1.22992 0.16376 -0.37322 105 127 206
1.26991 0.15862 -0.38510 112 126 195
1.28377 0.15426 -0.38653 121 143 206
1.31314 0.15386 -0.39878 136 161 209
1.31740 0.14683 -0.39329 119 141 169
1.34232 0.13684 -0.39363 23 13 12
1.35378 0.13150 -0.39301 17 17 23
1.36853 0.12691 -0.39459 29 43 57
1.36579 0.11238 -0.39352 63 71 80
1.93721 0.07736 -0.58812 252 254 254
1.94051 0.09484 -0.58940 254 254 254
1.93391 0.08646 -0.59617 254 254 254
1.93825 0.06786 -0.57867 222 235 249
1.96116 0.06222 -0.58267 107 151 232
1.14701 -0.49717 0.35073 49 50 49
1.14500 -0.50343 0.35812 86 91 84
1.14814 -0.50974 0.36334 59 67 72
1.15796 -0.51617 0.36579 30 25 21
1.15567 -0.52831 0.36669 20 14 14
1.46299 -0.68127 0.40623 20 17 29
1.46553 -0.66781 0.40524 12 17 12
1.46045 -0.67426 0.40003 15 18 16
1.45791 -0.68772 0.40102 30 25 46
1.46045 -0.69473 0.40722 37 28 90
1.45360 -0.68731 0.41657 23 20 57
1.46464 -0.69499 0.41981 34 45 116
1.48586 -0.71042 0.42672 43 55 95
1.49772 -0.71831 0.42983 18 16 52
1.50052 -0.72540 0.43600 102 102 93
0.82674 0.47954 -0.54119 27 41 82
0.81974 0.48005 -0.55165 29 22 49
0.81319 0.46536 -0.52048 22 29 78
0.79361 0.44837 -0.49420 18 26 80
0.79981 0.44396 -0.49230 94 117 168
0.84169 0.45653 -0.52371 142 192 254
0.83935 0.44415 -0.52280 147 185 254
0.78608 0.31470 -0.35145 181 212 244
0.78385 0.30290 -0.35058 180 216 252
0.79840 0.30563 -0.34737 178 209 247
0.79191 0.29592 -0.33441 169 190 231
0.79856 0.29156 -0.33276 149 157 212
0.79633 0.27974 -0.33189 66 24 75
1.21313 0.16187 -0.37849 117 135 201
1.20791 0.15526 -0.38383 158 187 236
1.23829 0.15286 -0.38007 141 162 220
1.23566 0.13894 -0.37904 160 188 252
1.25619 0.14966 -0.38455 151 176 232
1.25354 0.13565 -0.38351 156 184 253
1.30269 0.14571 -0.40073 155 182 241
1.31506 0.14076 -0.40097 139 160 203
1.35592 0.13466 -0.41245 24 16 16
1.35866 0.12710 -0.40577 15 16 27
1.97231 0.10605 -0.65176 252 254 254
1.97567 0.12382 -0.65307 254 254 254
1.96895 0.11530 -0.65995 254 254 254
1.96224 0.10678 -0.66683 224 246 254
1.97902 0.11457 -0.64489 254 254 254
1.98238 0.10531 -0.63670 254 254 254
1.95317 0.09261 -0.62939 244 253 254
1.94884 0.08202 -0.61645 229 250 254
1.93876 0.06074 -0.58985 159 135 199
1.97659 0.05762 -0.60311 79 40 131
2.01789 0.05487 -0.61827 113 103 175
1.14348 -0.49669 0.33902 15 10 28
1.13660 -0.49620 0.32873 19 22 27
1.14861 -0.50304 0.34340 43 42 35
1.14586 -0.50931 0.35114 73 82 71
1.14895 -0.51563 0.35639 59 68 68
1.15597 -0.52204 0.36001 32 24 22
1.15367 -0.53420 0.36090 19 13 13
1.47641 -0.70289 0.40876 37 45 167
1.46875 -0.70233 0.39729 46 44 75
1.48290 -0.71710 0.42076 43 57 129
1.48034 -0.73064 0.42175 17 15 24
1.48175 -0.72380 0.42825 18 16 41
1.47920 -0.73732 0.42924 104 97 72
1.49057 -0.73144 0.43237 105 99 82
1.48801 -0.74499 0.43337 139 124 85
1.49694 -0.73887 0.43734 140 125 93
1.49438 -0.75244 0.43834 143 120 86
3.18904 -1.96488 0.97754 166 169 179
3.17755 -1.96405 0.96036 196 192 194
3.20053 -1.96571 0.99473 188 198 212
3.19287 -1.97543 0.98689 162 174 188
0.82630 0.47570 -0.55000 29 19 52
0.80628 0.45838 -0.52304 38 36 72
0.79880 0.44729 -0.50814 52 68 135
0.81007 0.44525 -0.51100 105 121 201
0.80776 0.43303 -0.51010 150 186 254
0.83640 0.45031 -0.52793 143 184 254
0.83407 0.43794 -0.52702 147 187 254
0.79432 0.30011 -0.35230 180 220 252
0.78761 0.30060 -0.36235 180 220 252
0.91822 0.25403 -0.35893 69 27 60
0.92057 0.26646 -0.35985 49 32 59
0.91587 0.26050 -0.36466 49 25 57
0.91118 0.25454 -0.36947 76 44 77
0.90097 0.22613 -0.32214 116 132 185
0.89865 0.21385 -0.32123 172 204 244
1.19463 0.14379 -0.36597 165 193 244
1.18687 0.14436 -0.37759 168 201 252
1.18946 0.13722 -0.37128 166 197 254
1.19204 0.13009 -0.36496 164 192 254
1.22260 0.14341 -0.37794 164 191 248
1.21998 0.12955 -0.37692 162 189 254
1.29924 0.13937 -0.40762 155 182 251
1.29116 0.13996 -0.41971 159 186 254
1.29385 0.13253 -0.41314 156 184 253
1.31668 0.13567 -0.41147 147 171 225
1.37740 0.14265 -0.44563 93 104 130
1.35646 0.12094 -0.41366 13 14 22
1.35898 0.11332 -0.40682 53 51 55
1.35624 0.09879 -0.40574 170 153 148
1.99248 0.09260 -0.66539 191 164 236
1.99280 0.08272 -0.65520 159 139 209
1.97470 0.06960 -0.63347 119 111 174
1.96656 0.05834 -0.61811 95 46 149
1.98796 0.05222 -0.62117 164 112 169
1.14589 -0.50259 0.33130 20 14 37
1.13899 -0.50209 0.32098 16 17 23
1.14505 -0.50889 0.33826 44 44 44
1.14835 -0.51523 0.34343 70 69 66
1.14982 -0.52155 0.34939 62 66 61
1.15761 -0.52800 0.35269 34 25 21
1.15530 -0.54019 0.35358 17 16 10
1.44578 -0.70711 0.41245 34 29 119
1.43819 -0.70656 0.40109 31 29 54
1.44072 -0.71354 0.40727 21 20 56
1.44325 -0.72051 0.41344 21 17 57
1.47134 -0.72298 0.41773 31 37 127
1.46879 -0.73649 0.41873 13 13 22
3.19541 -1.98872 0.97826 157 163 173
3.20692 -1.98956 0.99549 173 186 201
3.21523 -2.00493 0.98643 164 172 185
3.22679 -2.00577 1.00372 186 191 203
3.21908 -2.01555 0.99583 179 185 194
0.78868 0.45366 -0.52315 97 109 157
0.79452 0.44905 -0.52095 132 159 195
0.79222 0.43687 -0.52005 150 189 254
0.83588 0.46150 -0.55252 150 185 230
0.83354 0.44907 -0.55160 148 186 254
0.83741 0.45464 -0.54601 152 188 245
0.83506 0.44222 -0.54510 150 188 254
0.77108 0.28682 -0.34051 165 189 235
0.76443 0.28731 -0.35046 174 207 246
0.76665 0.28120 -0.34506 130 106 183
0.76886 0.27509 -0.33965 76 27 61
0.80393 0.29302 -0.36172 117 79 155
0.80168 0.28109 -0.36084 45 35 75
0.94060 0.27260 -0.40157 53 34 66
0.90598 0.24537 -0.35753 98 73 110
0.88299 0.22277 -0.32356 143 159 211
0.88068 0.21056 -0.32266 182 213 251
1.31364 0.12939 -0.41871 155 180 238
1.30550 0.12998 -0.43088 158 186 254
1.34369 0.12866 -0.43142 105 122 166
1.35689 0.12364 -0.43207 38 39 62
1.35413 0.10906 -0.43100 19 10 20
2.10299 0.13633 -0.77966 192 167 222
2.09947 0.14603 -0.78825 222 219 242
2.09243 0.13709 -0.79547 157 149 191
2.11003 0.14527 -0.77245 240 253 254
2.09595 0.12739 -0.78688 180 144 198
2.10380 0.12611 -0.76933 148 136 207
1.98204 0.07343 -0.65959 186 167 214
2.00845 0.06816 -0.66590 156 153 157
2.00505 0.05016 -0.66457 180 136 137
2.01481 0.05930 -0.65947 165 123 129
1.99072 0.04528 -0.63400 219 225 236
1.99892 0.03678 -0.62877 234 230 238
2.03978 0.03356 -0.64369 217 170 206
2.03636 0.01546 -0.64236 56 39 104
1.14142 -0.50843 0.32653 16 14 38
1.13452 -0.50793 0.31621 12 13 14
1.14689 -0.51482 0.33078 52 47 49
1.15222 -0.52122 0.33509 81 82 71
1.15444 -0.52758 0.34076 68 71 62
1.16365 -0.53410 0.34346 33 27 18
1.16134 -0.54635 0.34436 20 14 12
3.98705 -1.31245 -0.10633 182 183 183
4.00312 -1.32783 -0.09742 196 199 200
3.99820 -1.35389 -0.09550 200 201 203
2.96348 -1.89310 0.96049 235 243 234
3.22912 -2.03166 0.98661 167 174 184
3.24072 -2.03250 1.00398 185 188 195
3.23298 -2.04233 0.99605 180 185 191
0.83668 0.46580 -0.57058 153 193 249
0.83196 0.45982 -0.57541 150 189 254
0.83432 0.45332 -0.56966 152 189 254
0.93501 0.29613 -0.43713 36 30 65
0.93740 0.30880 -0.43806 36 42 69
0.93261 0.30273 -0.44297 36 34 62
0.92782 0.29665 -0.44787 62 45 80
0.93980 0.30220 -0.43222 37 38 60
0.94219 0.29560 -0.42638 34 36 61
0.94830 0.28607 -0.43261 59 46 74
0.94052 0.27572 -0.41821 75 73 88
0.93813 0.26305 -0.41728 179 212 233
0.89317 0.24380 -0.36322 139 148 181
0.94468 0.24743 -0.39041 179 209 240
0.94229 0.23480 -0.38948 179 213 252
0.95882 0.24495 -0.39423 182 213 246
0.95642 0.23224 -0.39329 178 210 251
1.31462 0.11593 -0.42028 124 142 191
1.33207 0.11199 -0.42407 58 56 79
1.99735 0.06874 -0.68059 207 217 229
1.99395 0.05075 -0.67926 118 60 123
1.99672 0.05868 -0.66974 141 148 172
2.02500 0.04354 -0.66669 200 138 191
2.02445 0.03348 -0.65587 194 101 194
2.02421 0.02348 -0.64527 176 125 180
1.14560 -0.51440 0.31798 6 9 28
1.13867 -0.51390 0.30761 11 11 10
1.14984 -0.52080 0.32277 54 53 38
1.15805 -0.52730 0.32586 91 92 83
1.15991 -0.53367 0.33171 69 76 68
1.16750 -0.54020 0.33511 37 27 20
1.16518 -0.55249 0.33601 19 12 13
4.12333 -1.32292 -0.18478 136 118 94
4.01282 -1.34361 -0.11292 191 193 197
2.96843 -1.88898 0.93342 193 203 228
2.97209 -1.86956 0.93199 153 156 176
2.96476 -1.87887 0.92447 169 175 198
2.95990 -1.89486 0.94346 213 224 243
2.96928 -1.90693 0.95187 208 219 227
2.99887 -1.93498 0.96788 118 114 141
3.03962 -1.95830 0.97386 107 115 137
3.25371 -2.06245 0.98601 175 183 188
3.26539 -2.06330 1.00349 185 186 192
3.25761 -2.07318 0.99551 182 185 190
3.24982 -2.08307 0.98753 180 184 190
0.84890 0.38442 -0.50391 164 200 253
0.85125 0.39684 -0.50482 149 187 253
0.84186 0.38493 -0.51444 174 212 253
0.85359 0.39038 -0.49910 150 184 252
0.85124 0.37795 -0.49818 170 207 253
0.96801 0.28140 -0.45031 168 190 212
0.96558 0.26854 -0.44937 181 216 251
0.95827 0.25529 -0.41838 183 217 251
0.95586 0.24253 -0.41744 177 211 252
1.06708 0.21578 -0.42684 139 167 239
1.06959 0.22906 -0.42782 170 205 253
1.06458 0.22269 -0.43295 148 180 243
1.07210 0.22215 -0.42170 165 201 253
1.07460 0.21524 -0.41558 154 192 251
1.31651 0.11898 -0.43967 158 186 250
1.30832 0.11958 -0.45192 163 192 254
1.30362 0.10768 -0.42187 140 162 210
1.32672 0.10508 -0.42975 79 80 98
1.35620 0.10385 -0.44200 22 15 23
1.35103 0.09439 -0.42968 25 26 52
1.43386 0.09666 -0.47013 227 240 242
1.43102 0.08162 -0.46903 253 254 253
2.02357 0.09613 -0.74060 226 232 247
1.98849 0.07970 -0.70720 226 224 245
2.02438 0.04590 -0.68815 164 116 169
2.02538 0.03605 -0.67825 203 154 206
2.05238 0.03040 -0.68472 200 175 194
2.05515 0.02078 -0.67587 154 127 140
1.14923 -0.52041 0.30961 6 9 22
1.14228 -0.51991 0.29921 12 12 14
1.15544 -0.52688 0.31356 54 52 30
1.15810 -0.53329 0.31907 88 93 80
1.16042 -0.53969 0.32474 68 76 71
1.16562 -0.54617 0.32917 37 24 22
1.16329 -0.55848 0.33007 20 14 14
4.09578 -1.34598 -0.17640 135 125 101
4.08067 -1.34489 -0.19902 148 127 92
4.14347 -1.36706 -0.17615 160 157 147
3.99909 -1.35549 -0.12196 183 185 187
3.99846 -1.36813 -0.10838 194 198 198
4.01325 -1.36920 -0.08625 205 206 207
4.00339 -1.38172 -0.09636 201 204 203
3.01807 -1.89115 0.89222 161 158 185
3.02925 -1.89196 0.90895 163 159 173
3.02180 -1.90143 0.90131 176 184 210
3.01434 -1.91089 0.89367 207 219 233
2.97060 -1.89273 0.91569 207 222 232
2.94516 -1.89275 0.92740 208 215 234
2.97770 -1.92176 0.94296 124 107 159
2.97403 -1.94122 0.94439 69 75 86
2.96251 -1.92521 0.95357 90 82 113
2.95885 -1.94458 0.95500 70 77 91
2.97456 -1.93829 0.96178 78 87 103
2.97090 -1.95769 0.96321 82 88 100
2.97589 -1.94755 0.97091 85 96 108
3.03819 -1.97879 0.97513 100 113 128
3.25107 -2.07421 0.97764 168 178 183
3.24716 -2.09485 0.97916 175 183 189
0.85101 0.37393 -0.50710 158 205 252
0.85807 0.37342 -0.49655 173 209 253
0.84803 0.36516 -0.49647 151 194 248
0.85506 0.36465 -0.48594 166 206 254
0.85037 0.35869 -0.49075 143 179 246
1.05764 0.21572 -0.43655 123 140 220
1.06015 0.22898 -0.43753 155 194 251
1.05513 0.22262 -0.44266 124 156 236
1.05012 0.21626 -0.44780 131 156 224
1.05263 0.20935 -0.44169 146 173 230
1.06611 0.21069 -0.43520 124 140 216
1.07265 0.18962 -0.41603 167 194 242
1.06762 0.18324 -0.42118 176 206 253
1.07013 0.17632 -0.41505 175 206 252
1.07456 0.18252 -0.40945 173 204 246
1.08209 0.18197 -0.39818 150 174 230
1.07205 0.16922 -0.40847 175 206 252
1.30597 0.10267 -0.43300 149 175 225
1.31659 0.09704 -0.43202 93 104 130
1.34035 0.09443 -0.44033 28 28 35
1.34335 0.08690 -0.43379 12 19 36
1.38477 0.08808 -0.45431 88 101 130
1.94320 0.06423 -0.68907 129 81 134
2.04267 0.05144 -0.72188 180 146 157
2.03844 0.03057 -0.69793 195 143 178
2.02361 0.01817 -0.67796 130 109 124
2.11570 0.02248 -0.72536 61 60 66
1.15222 -0.52645 0.30148 7 9 23
1.14524 -0.52595 0.29104 13 10 19
1.16109 -0.53302 0.30426 55 53 28
1.16069 -0.53937 0.31115 89 93 79
1.16302 -0.54579 0.31683 72 76 72
1.16647 -0.55225 0.32203 38 26 23
1.16413 -0.56459 0.32294 17 14 15
4.08247 -1.35823 -0.18580 143 125 93
4.07240 -1.37101 -0.19611 133 110 85
4.09273 -1.37300 -0.17500 150 141 127
4.01983 -1.37335 -0.14071 171 172 172
4.01637 -1.38555 -0.12625 189 193 195
4.02639 -1.40011 -0.11556 197 199 199
4.04128 -1.40119 -0.09329 205 207 208
4.03135 -1.41379 -0.10346 201 204 204
4.02143 -1.42639 -0.11362 197 199 199
2.97400 -1.90581 0.90710 191 197 212
2.97031 -1.92534 0.90854 88 86 107
3.02972 -1.94319 0.92055 96 92 126
2.98350 -1.93576 0.93423 76 79 98
2.97981 -1.95527 0.93567 58 62 56
0.93347 0.30534 -0.48687 167 195 221
0.93105 0.29253 -0.48593 180 213 251
0.94288 0.30132 -0.48707 178 215 236
0.94045 0.28847 -0.48612 178 212 252
1.04121 0.19808 -0.42440 163 192 240
1.03623 0.19176 -0.42950 173 205 253
1.03871 0.18490 -0.42343 172 205 253
1.04759 0.19243 -0.42144 172 203 246
1.04510 0.17923 -0.42047 173 205 252
1.05564 0.18726 -0.41977 175 206 250
1.05313 0.17402 -0.41880 173 206 252
1.28830 0.09286 -0.42974 156 183 238
1.28018 0.09344 -0.44188 162 191 254
1.29660 0.08671 -0.42716 103 120 163
1.34205 0.08911 -0.45111 40 42 59
1.33929 0.07450 -0.45004 28 17 21
1.34283 0.08105 -0.44298 19 17 24
1.37261 0.07951 -0.45538 84 88 110
1.40020 0.07731 -0.46606 203 207 214
1.39738 0.06240 -0.46496 241 251 254
1.90091 0.05922 -0.68291 153 111 83
1.93544 0.05551 -0.69527 94 52 72
1.98088 0.04352 -0.70403 160 135 144
2.03061 0.03173 -0.71501 203 132 170
2.11391 0.02462 -0.74676 100 79 87
2.13149 0.01703 -0.74703 36 23 26
1.15584 -0.53255 0.29302 7 8 26
1.14884 -0.53204 0.28254 13 11 17
1.16393 -0.53913 0.29616 55 53 31
1.15923 -0.54538 0.30496 90 91 81
1.16156 -0.55181 0.31065 82 78 74
1.16691 -0.55834 0.31503 37 27 24
1.16457 -0.57071 0.31595 16 13 13
4.05670 -1.38128 -0.17787 141 124 105
4.04166 -1.38019 -0.20038 140 115 95
4.06090 -1.39496 -0.16541 163 158 153
4.00720 -1.39826 -0.13661 183 184 186
4.01854 -1.41309 -0.12631 192 194 194
4.01357 -1.43937 -0.12437 193 195 196
3.01063 -1.90366 0.86665 192 209 229
3.14630 -2.05184 0.95916 116 133 133
3.21784 -2.09673 0.97285 166 177 191
3.22948 -2.09757 0.99026 180 183 190
3.21403 -2.10454 0.98289 174 182 195
3.22565 -2.10538 1.00027 181 184 187
3.21790 -2.11521 0.99234 177 183 189
0.85538 0.37545 -0.53755 92 108 208
0.84826 0.37596 -0.54819 112 132 208
0.85951 0.36967 -0.53341 101 114 200
0.84821 0.35732 -0.51494 118 131 210
0.84327 0.34775 -0.50247 131 154 227
0.90194 0.31159 -0.49220 164 197 219
0.90434 0.32427 -0.49314 69 39 71
0.89955 0.31819 -0.49805 138 156 189
0.89955 0.29891 -0.49127 179 216 252
0.92195 0.30422 -0.49396 184 219 246
0.91953 0.29145 -0.49302 178 213 252
1.27258 0.08356 -0.42780 159 186 245
1.30257 0.08247 -0.44095 120 138 188
1.33249 0.08118 -0.45386 62 58 75
1.33799 0.06599 -0.44042 65 62 84
1.33510 0.05716 -0.42970 174 178 193
1.88045 0.04834 -0.68057 168 128 101
1.92872 0.04698 -0.70216 106 60 84
1.92535 0.02919 -0.70085 221 200 174
1.98455 0.03662 -0.71784 206 184 169
2.10684 0.01565 -0.75400 77 81 76
2.15722 0.01295 -0.77518 25 18 24
1.15942 -0.53869 0.28453 7 8 29
1.15239 -0.53818 0.27401 13 12 16
1.16703 -0.54529 0.28789 54 49 41
1.15752 -0.55139 0.29887 90 93 89
1.15986 -0.55783 0.30457 88 82 77
1.16931 -0.56453 0.30715 40 27 23
1.16696 -0.57694 0.30807 15 13 12
4.00543 -1.39953 -0.16263 147 146 137
4.00728 -1.41267 -0.14962 168 172 171
4.01003 -1.42595 -0.13688 187 190 192
4.00506 -1.45224 -0.13494 188 192 193
3.07791 -1.89310 0.80210 195 197 182
3.08174 -1.87286 0.80061 188 185 186
3.07409 -1.88256 0.79278 198 201 184
3.06644 -1.89227 0.78494 194 193 188
3.08556 -1.88339 0.80994 192 191 186
3.08938 -1.89393 0.81926 195 198 189
3.05758 -1.90463 0.82401 157 159 186
3.03036 -1.90445 0.83680 173 184 214
3.00604 -1.92316 0.86820 143 135 169
2.98153 -1.95021 0.90852 72 70 67
2.97413 -1.95961 0.90093 57 52 63
2.97783 -1.96981 0.90996 53 55 61
2.93717 -1.94308 0.92214 65 57 62
2.93350 -1.96245 0.92356 50 54 55
3.16046 -2.07880 0.95918 107 129 146
3.17818 -2.09459 0.96744 129 145 168
3.18556 -2.10654 0.97656 148 159 185
3.17188 -2.11962 0.99692 162 176 183
3.18339 -2.12045 1.01413 181 185 188
3.17572 -2.13019 1.00627 173 182 190
3.16805 -2.13993 0.99842 148 159 177
0.83181 0.36132 -0.52472 130 153 225
0.82477 0.36183 -0.53526 170 208 243
0.83657 0.35588 -0.52125 156 182 237
0.83422 0.34343 -0.52033 175 215 253
0.85161 0.34725 -0.51937 180 214 249
0.84925 0.33474 -0.51845 179 213 251
0.89018 0.31031 -0.49883 183 220 247
0.88779 0.31690 -0.50466 181 215 237
0.88301 0.31083 -0.50956 177 214 252
0.88540 0.30424 -0.50373 177 213 251
0.88779 0.29766 -0.49790 177 211 251
1.24334 0.07914 -0.42436 162 196 254
1.24601 0.09328 -0.42540 167 195 254
1.24067 0.08650 -0.43087 164 198 254
1.25179 0.07313 -0.42207 157 188 245
1.28649 0.07311 -0.43881 128 149 196
1.34004 0.07714 -0.46895 73 69 86
1.34005 0.06889 -0.46021 31 23 30
1.34339 0.06139 -0.45387 38 38 68
1.36366 0.05755 -0.45959 130 139 167
1.39581 0.05612 -0.47361 230 242 248
1.40427 0.05551 -0.46095 254 254 254
1.39863 0.04835 -0.46673 254 254 254
1.79398 0.03553 -0.64412 193 150 151
1.79076 0.04443 -0.65199 230 225 224
1.87088 0.03943 -0.68539 147 96 98
1.90995 0.03640 -0.70105 163 120 135
2.12963 0.01119 -0.78044 121 76 82
2.15444 0.00450 -0.78534 52 18 14
1.15775 -0.54472 0.27836 7 9 28
1.15071 -0.54421 0.26784 13 13 13
1.16413 -0.55131 0.28227 52 44 41
1.15551 -0.55741 0.29290 87 93 87
1.15784 -0.56386 0.29860 86 82 75
1.17111 -0.57074 0.29949 40 27 23
1.16876 -0.58318 0.30040 17 14 17
1.50923 -0.78354 0.36176 112 104 125
1.51185 -0.76966 0.36074 10 14 36
1.50661 -0.77632 0.35537 9 12 36
1.50136 -0.78297 0.35000 11 9 42
1.51184 -0.79077 0.36816 224 239 225
1.50660 -0.79742 0.36279 230 248 251
3.99048 -1.41124 -0.17136 105 103 102
3.98945 -1.42382 -0.15753 139 149 152
4.02320 -1.44288 -0.15362 178 186 188
3.06697 -1.90169 0.79467 167 166 182
3.05551 -1.90085 0.77753 163 160 190
3.04309 -1.91190 0.81704 182 195 220
3.02321 -1.91415 0.82903 194 205 223
3.02697 -1.92454 0.83823 164 171 194
2.98805 -1.91997 0.85218 119 109 150
2.98431 -1.93972 0.85363 77 78 87
3.16729 -2.11230 0.96950 103 117 147
3.15071 -2.11508 0.98045 121 129 146
3.12822 -2.11550 0.99176 132 136 155
3.12442 -2.13563 0.99324 130 131 125
0.82981 0.40939 -0.58824 104 136 221
0.83693 0.40887 -0.57760 143 180 248
0.83218 0.40285 -0.58246 101 130 218
0.82744 0.39683 -0.58732 139 169 241
0.84660 0.35617 -0.53992 176 212 253
0.84423 0.34363 -0.53899 174 214 252
0.93580 0.28562 -0.50859 168 209 253
0.93336 0.29234 -0.51453 171 213 253
0.93093 0.27944 -0.51358 137 178 245
0.94310 0.28509 -0.49766 177 210 252
0.93651 0.27828 -0.50114 164 205 253
0.94381 0.27775 -0.49022 173 209 253
0.93408 0.26539 -0.50019 118 136 231
1.18815 0.08422 -0.41805 161 197 254
1.19077 0.09811 -0.41907 164 199 254
1.18553 0.09145 -0.42445 161 197 254
1.19339 0.09088 -0.41268 164 199 254
1.19601 0.08365 -0.40628 164 198 254
1.18552 0.07034 -0.41703 125 156 232
1.20650 0.08079 -0.42338 158 196 254
1.23437 0.07152 -0.42716 142 177 242
1.26708 0.07110 -0.44271 122 150 220
1.27065 0.06386 -0.43676 95 111 167
1.33533 0.07029 -0.47523 60 58 83
1.34431 0.06403 -0.47296 37 32 37
1.34751 0.05646 -0.46649 26 29 52
1.35606 0.05004 -0.46385 99 111 137
1.39187 0.04932 -0.48059 220 232 237
1.40019 0.04268 -0.47761 254 254 254
1.40867 0.04207 -0.46492 254 254 254
1.40302 0.03489 -0.47071 254 254 254
1.39736 0.02771 -0.47651 254 254 254
1.82982 0.05394 -0.69967 214 196 190
1.83310 0.07131 -0.70095 254 254 254
1.82654 0.06299 -0.70767 236 240 228
1.83638 0.06227 -0.69295 248 253 251
1.76049 0.03201 -0.64246 183 143 169
1.81885 0.02326 -0.66170 203 180 168
1.86120 0.02084 -0.67985 232 219 208
1.85790 0.00336 -0.67856 254 254 252
2.08663 -0.00319 -0.76455 212 179 164
2.20081 0.00317 -0.82715 143 117 99
2.14893 -0.01478 -0.78271 59 39 49
1.15550 -0.55075 0.27244 8 10 22
1.14846 -0.55024 0.26190 16 13 12
1.15889 -0.55726 0.27770 50 45 30
1.15817 -0.56362 0.28481 93 92 83
1.16051 -0.57008 0.29053 88 85 75
1.17349 -0.57700 0.29153 40 29 23
1.17113 -0.58948 0.29245 16 12 14
1.52509 -0.79269 0.34873 128 112 172
1.52245 -0.80668 0.34976 236 250 252
4.03700 -1.46006 -0.17067 163 176 180
4.04103 -1.47369 -0.15817 182 188 191
4.05606 -1.47478 -0.13568 190 194 197
4.04604 -1.48750 -0.14595 186 191 192
4.03602 -1.50021 -0.15622 183 187 191
3.04803 -1.90751 0.78826 168 177 206
3.02474 -1.91779 0.81057 184 192 215
3.00222 -1.91903 0.82290 147 146 176
2.98983 -1.92371 0.83393 97 97 126
2.98608 -1.94353 0.83539 78 78 85
3.02286 -1.94438 0.83974 75 75 100
2.95597 -1.94740 0.87565 55 57 59
2.92799 -1.96365 0.90660 56 51 67
2.93165 -1.97375 0.91554 58 58 64
2.92432 -1.98305 0.90803 94 97 98
3.13771 -2.11366 0.96340 136 142 147
3.13057 -2.11998 0.97360 162 171 167
3.12296 -2.12606 0.98378 162 157 143
3.11915 -2.14621 0.98527 153 153 127
0.83253 0.40675 -0.60040 123 150 229
0.87302 0.40182 -0.61519 171 208 242
0.87060 0.38900 -0.61424 174 213 253
0.94784 0.27803 -0.52046 126 160 243
0.94048 0.27857 -0.53147 106 125 215
0.94539 0.26505 -0.51950 135 163 234
1.17289 0.09084 -0.43259 156 193 254
1.17551 0.10469 -0.43361 163 197 254
1.17028 0.09805 -0.43898 160 195 254
1.17813 0.09748 -0.42723 161 197 254
1.17022 0.08233 -0.42221 151 188 251
1.18225 0.07741 -0.42293 141 176 243
1.25985 0.07189 -0.45547 83 108 181
1.31871 0.07727 -0.49033 67 79 151
1.31594 0.06263 -0.48925 51 43 65
1.32682 0.07085 -0.48751 57 58 112
1.34178 0.05764 -0.48085 46 39 41
1.34516 0.05010 -0.47451 31 28 43
1.35415 0.04375 -0.47219 95 96 117
1.39666 0.04433 -0.49386 210 213 218
1.39182 0.03495 -0.48148 251 253 254
1.77177 0.05539 -0.69130 204 188 209
1.71659 0.03587 -0.64321 173 139 168
1.74193 0.03110 -0.65068 171 115 149
1.78185 0.02874 -0.66793 198 151 175
1.79755 0.02198 -0.66851 225 214 216
1.79430 0.00480 -0.66724 254 254 254
1.84717 0.01123 -0.68162 254 254 248
1.84387 -0.00620 -0.68034 254 254 254
2.15584 -0.01147 -0.81025 168 136 118
2.15174 -0.02249 -0.79648 90 47 28
1.15163 -0.55674 0.26725 9 10 21
1.14458 -0.55623 0.25671 16 13 13
1.15833 -0.56337 0.27099 50 44 31
1.15858 -0.56978 0.27769 92 90 87
1.16093 -0.57626 0.28342 88 85 80
1.17861 -0.58343 0.28231 39 29 23
1.17625 -0.59596 0.28323 17 14 8
1.57682 -0.79919 0.31486 7 4 43
1.57952 -0.78488 0.31381 23 19 17
1.57412 -0.79174 0.30827 23 21 15
1.56872 -0.79860 0.30273 23 22 16
1.57412 -0.81349 0.31591 150 149 202
1.54305 -0.80222 0.33480 144 127 189
1.54039 -0.81633 0.33584 237 248 251
4.04767 -1.46387 -0.20067 86 98 116
4.03257 -1.46277 -0.22328 55 47 57
4.04815 -1.47687 -0.18707 144 160 173
4.05134 -1.49038 -0.17427 176 184 189
4.04631 -1.51701 -0.17231 180 185 189
3.07195 -1.90954 0.75671 153 162 191
3.05734 -1.91380 0.76848 175 188 216
3.04407 -1.91845 0.77999 190 202 219
3.03612 -1.92487 0.79076 170 175 198
3.03251 -1.93275 0.80094 129 124 160
3.01689 -1.93638 0.81253 87 87 115
3.01311 -1.95638 0.81401 74 77 71
3.01212 -1.96184 0.84200 74 77 79
3.00836 -1.98177 0.84347 59 54 71
2.98651 -1.96161 0.85443 63 62 66
2.96441 -1.97141 0.87580 50 58 64
2.93646 -1.97001 0.88814 70 72 86
2.94320 -1.98128 0.89681 84 84 91
2.93951 -2.00078 0.89824 100 102 109
3.14566 -2.11118 0.93486 125 134 133
3.13412 -2.11034 0.91760 96 101 110
3.14181 -2.13154 0.93636 142 147 147
3.13597 -2.13473 0.96473 136 150 164
0.94666 0.27316 -0.52880 115 139 231
0.93929 0.27370 -0.53982 155 187 241
1.14210 0.07789 -0.41844 127 161 233
1.14480 0.07079 -0.41220 106 138 208
1.21156 0.07107 -0.44595 65 77 157
1.29768 0.07495 -0.49324 38 49 96
1.33063 0.05763 -0.49127 52 45 51
1.33634 0.05060 -0.48664 50 43 43
1.34193 0.04353 -0.48190 33 29 43
1.36935 0.04101 -0.49295 84 76 96
1.38387 0.03567 -0.49452 197 194 201
1.39374 0.02931 -0.49269 247 253 254
1.40798 0.02377 -0.49392 250 253 252
1.41652 0.02315 -0.48114 254 254 254
1.41083 0.01593 -0.48697 248 244 241
1.40513 0.00870 -0.49281 217 211 219
1.69965 0.04449 -0.66215 182 169 189
1.69017 0.04517 -0.67633 187 162 169
1.69333 0.03646 -0.66862 156 125 161
1.69500 0.02510 -0.63913 158 117 155
1.69185 0.00843 -0.63790 239 233 232
1.78711 0.02257 -0.68258 240 223 224
1.80120 0.01547 -0.68207 253 254 249
2.08579 -0.03969 -0.76582 196 172 118
1.15066 -0.56284 0.26072 8 10 21
1.14360 -0.56233 0.25016 14 15 13
1.15721 -0.56949 0.26453 47 42 32
1.16241 -0.57611 0.26898 89 92 92
1.16477 -0.58261 0.27474 92 87 82
1.18124 -0.58979 0.27414 41 30 22
1.17886 -0.60236 0.27507 16 16 12
1.58001 -0.80709 0.30613 7 6 49
1.57187 -0.80650 0.29397 24 22 17
3.97896 -1.46532 -0.19370 73 78 97
3.96402 -1.46423 -0.21605 53 48 54
3.93197 -1.46886 -0.16637 127 142 155
4.04812 -1.50450 -0.18656 169 179 184
4.04308 -1.53117 -0.18459 179 183 185
3.06268 -1.90018 0.72922 154 157 182
3.06654 -1.87979 0.72772 155 160 173
3.05883 -1.88956 0.71982 152 159 175
3.05883 -1.92057 0.73072 181 201 219
3.04859 -1.90466 0.74106 163 172 196
3.04479 -1.91260 0.75144 183 199 215
3.04597 -1.92224 0.76112 186 197 214
3.04890 -1.93247 0.77057 155 155 181
3.01774 -1.93074 0.78434 110 103 135
3.01394 -1.95082 0.78582 73 73 82
3.00593 -1.93569 0.79553 81 78 101
3.01544 -1.94814 0.80404 70 76 82
3.01165 -1.96817 0.80552 74 84 81
2.99869 -1.96926 0.83497 68 71 77
2.97034 -1.97685 0.85727 61 53 71
2.94860 -1.97774 0.86911 71 75 81
2.94490 -1.99734 0.87055 92 97 101
2.93346 -1.98096 0.88014 85 92 94
2.92977 -2.00047 0.88157 95 98 106
2.94450 -1.99386 0.88836 93 98 101
2.94080 -2.01341 0.88980 99 104 108
3.14138 -2.12226 0.92667 123 130 135
3.12983 -2.12142 0.90940 98 106 111
3.13752 -2.14264 0.92818 137 147 148
1.17698 0.08110 -0.45450 70 86 160
1.17434 0.06716 -0.45347 38 36 62
1.21187 0.08160 -0.47272 50 63 121
1.27258 0.07983 -0.50162 37 39 77
1.26984 0.06535 -0.50055 48 41 44
1.29537 0.06869 -0.50127 41 42 59
1.32769 0.05942 -0.50774 57 74 86
1.34975 0.05592 -0.51519 58 71 92
1.33479 0.04440 -0.49529 56 46 55
1.33455 0.03609 -0.48628 38 30 36
1.35639 0.03236 -0.49337 72 66 77
1.39070 0.03104 -0.50936 163 168 178
1.38786 0.01600 -0.50825 122 129 154
1.40177 0.02486 -0.50837 212 220 239
1.39892 0.00977 -0.50726 136 143 167
1.41039 0.01814 -0.50556 215 215 232
1.40754 0.00302 -0.50445 155 154 175
1.66723 0.02248 -0.64044 172 152 170
1.66410 0.00592 -0.63922 229 225 235
1.73767 0.02577 -0.67967 209 197 196
1.73447 0.00881 -0.67842 225 220 229
1.78146 0.00499 -0.67967 239 246 248
1.80352 -0.00086 -0.68461 239 245 248
1.83912 -0.00466 -0.69859 239 242 245
1.84242 -0.01375 -0.69055 240 238 241
2.12020 -0.04307 -0.80007 204 168 159
1.15381 -0.56912 0.25224 7 15 23
1.14673 -0.56861 0.24165 14 15 12
1.15704 -0.57566 0.25760 46 46 35
1.16548 -0.58245 0.26057 90 95 88
1.16784 -0.58897 0.26635 93 85 78
1.18124 -0.59606 0.26712 42 29 23
1.17886 -0.60866 0.26805 15 13 12
1.57889 -0.81450 0.29897 7 11 50
1.57075 -0.81391 0.28678 24 23 21
2.01548 -0.95899 0.23201 137 117 147
2.02483 -0.95967 0.24601 151 135 169
2.01859 -0.96759 0.23962 140 127 161
3.98530 -1.48115 -0.20875 73 77 91
3.97032 -1.48007 -0.23117 54 51 55
3.97531 -1.49383 -0.21898 76 84 89
4.03494 -1.51666 -0.19597 164 174 178
4.02991 -1.54332 -0.19401 177 182 183
3.04221 -1.90558 0.72313 168 180 208
3.02297 -1.91740 0.74552 174 183 204
3.04773 -1.93523 0.75202 134 133 165
3.01089 -1.93151 0.76672 95 94 118
3.00356 -1.93804 0.77742 74 78 88
3.03142 -1.96617 0.79336 72 77 85
3.02381 -1.97583 0.78557 87 97 91
3.00561 -1.98406 0.82557 64 62 66
2.98304 -1.98479 0.83780 61 60 78
2.97360 -1.99026 0.84843 77 82 92
2.96987 -2.01003 0.84988 90 97 104
2.94613 -1.98897 0.86098 88 96 98
2.94242 -2.00859 0.86243 92 98 105
0.85501 0.32831 -0.56931 161 205 254
0.85741 0.34100 -0.57024 170 209 252
0.85262 0.33492 -0.57515 164 206 254
0.85981 0.33440 -0.56439 172 208 251
0.86220 0.32779 -0.55855 169 209 252
0.88240 0.30891 -0.56257 122 156 241
0.88965 0.30838 -0.55172 150 194 250
0.87261 0.29748 -0.54531 112 130 221
0.87982 0.29696 -0.53453 137 179 247
0.87501 0.29086 -0.53945 106 115 209
1.17001 0.10571 -0.49253 97 123 203
1.17265 0.11970 -0.49356 154 193 253
1.16737 0.11299 -0.49898 122 154 230
1.16472 0.09899 -0.49795 44 48 112
1.16736 0.09171 -0.49150 37 39 91
1.15042 0.09282 -0.46868 73 94 175
1.22511 0.10352 -0.51847 57 63 144
1.30139 0.05605 -0.50677 51 40 59
1.29310 0.05665 -0.51918 72 45 59
1.35542 0.05960 -0.53831 72 102 148
1.37559 0.05555 -0.54431 92 112 163
1.36368 0.04460 -0.52647 99 77 85
1.34349 0.03204 -0.50266 84 53 41
1.34848 0.02477 -0.49743 80 57 53
1.34568 0.00994 -0.49634 154 136 110
1.37277 0.02136 -0.50625 105 104 109
1.36994 0.00640 -0.50515 149 149 129
1.71853 0.02477 -0.68734 213 207 219
1.71534 0.00787 -0.68610 240 237 249
1.73395 -0.00065 -0.66803 212 210 207
1.72435 0.00005 -0.68239 236 233 236
1.72755 -0.00877 -0.67459 231 227 212
1.75937 -0.00580 -0.67556 203 203 199
1.77457 -0.01276 -0.67591 200 200 205
1.82247 -0.01462 -0.69849 201 196 199
1.81918 -0.03203 -0.69721 229 223 204
1.85350 -0.01939 -0.70931 204 195 191
1.86345 -0.02011 -0.69442 242 230 236
1.85682 -0.02853 -0.70122 209 193 188
1.64956 -0.19236 -0.41938 57 29 21
1.65260 -0.17629 -0.42057 77 55 49
1.64652 -0.18399 -0.42679 122 104 85
1.65867 -0.19302 -0.40576 51 49 38
1.64652 -0.20844 -0.41820 48 40 37
1.65506 -0.20048 -0.41351 49 44 44
1.66417 -0.20115 -0.39987 49 47 32
1.65810 -0.20886 -0.40610 49 46 40
1.65202 -0.21657 -0.41232 50 45 41
1.15667 -0.57543 0.24386 7 14 22
1.14956 -0.57492 0.23322 15 15 9
1.15958 -0.58199 0.24938 46 47 37
1.16839 -0.58882 0.25219 93 98 89
1.17076 -0.59537 0.25798 94 86 78
1.18133 -0.60236 0.26004 42 27 23
1.17894 -0.61498 0.26097 17 12 13
1.57503 -0.82159 0.29281 7 14 53
1.56688 -0.82100 0.28062 25 19 21
2.01632 -0.96801 0.22316 133 126 149
2.00545 -0.97441 0.23560 112 90 133
2.01479 -0.97509 0.24957 128 118 129
1.98524 -0.97924 0.25114 75 58 94
1.99451 -0.97991 0.26501 105 98 96
2.00671 -0.99076 0.25246 78 79 92
2.01603 -0.99144 0.26641 111 84 83
2.00981 -0.99933 0.26004 89 93 90
4.01094 -1.52660 -0.20218 161 171 174
4.00592 -1.55318 -0.20022 176 183 182
3.04546 -1.90981 0.70375 177 190 205
3.03382 -1.91508 0.71536 181 194 208
2.99678 -1.92059 0.74027 116 116 144
2.99298 -1.94070 0.74176 71 59 75
2.97773 -1.92301 0.75264 78 84 100
2.97453 -1.93095 0.76278 71 73 89
2.98763 -1.94466 0.77076 75 77 86
3.01493 -1.96352 0.77694 81 87 89
3.03327 -1.99748 0.80390 68 64 75
2.99652 -2.00206 0.82767 76 77 87
2.99275 -2.02200 0.82914 88 95 98
0.84224 0.34171 -0.59098 162 204 254
0.84464 0.35440 -0.59192 167 210 253
0.83985 0.34831 -0.59683 162 205 254
0.84703 0.34779 -0.58608 167 210 253
0.84943 0.34119 -0.58023 167 207 253
0.83639 0.33169 -0.57719 159 202 253
0.84698 0.32849 -0.57925 149 196 252
0.84458 0.31580 -0.57831 96 111 207
0.85631 0.32471 -0.58003 136 180 249
0.86702 0.32143 -0.58208 122 156 242
0.88039 0.30387 -0.57019 98 128 215
0.88131 0.28902 -0.55472 151 178 240
0.88856 0.28850 -0.54387 111 128 224
0.87889 0.27623 -0.55378 162 203 254
1.11495 0.14132 -0.51753 150 186 254
1.11756 0.15512 -0.51854 157 190 254
1.11235 0.14850 -0.52389 154 187 254
1.12017 0.14794 -0.51218 156 192 254
1.12277 0.14075 -0.50582 156 192 254
1.11756 0.13413 -0.51117 147 183 251
1.22840 0.13974 -0.57475 104 132 211
1.22567 0.12530 -0.57369 36 38 92
1.17527 0.11769 -0.52349 82 101 184
1.17260 0.10359 -0.52245 42 33 69
1.21407 0.11963 -0.54573 63 67 150
1.27153 0.06821 -0.52038 48 32 42
1.26330 0.06881 -0.53270 76 47 44
1.27427 0.06065 -0.51369 65 41 54
1.32223 0.05481 -0.53232 90 61 86
1.37303 0.05745 -0.56154 134 125 165
1.37747 0.04994 -0.55578 157 141 160
1.37307 0.04057 -0.54344 149 113 101
1.37758 0.03307 -0.53774 146 102 79
1.38025 0.02520 -0.53068 154 115 89
1.82518 -0.02152 -0.71160 227 222 209
1.82188 -0.03898 -0.71031 254 253 242
1.64647 -0.19107 -0.43681 133 121 111
1.64952 -0.17496 -0.43800 196 184 156
1.63735 -0.19041 -0.45047 203 182 149
1.63478 -0.20095 -0.42014 64 39 41
1.16527 -0.58850 0.23964 45 44 39
1.16844 -0.59510 0.24508 89 102 93
1.17082 -0.60166 0.25089 95 89 79
1.18279 -0.60876 0.25229 44 28 23
1.18039 -0.62142 0.25323 19 13 15
1.57583 -0.82930 0.28488 9 15 57
1.56766 -0.82871 0.27266 24 18 21
1.54498 -0.83236 0.30418 185 211 229
1.54229 -0.84660 0.30523 248 252 254
1.59191 -0.84574 0.29417 250 252 253
1.58918 -0.86022 0.29524 254 254 254
2.01701 -0.95255 0.18805 247 249 235
2.02015 -0.93591 0.18682 254 254 254
2.01387 -0.94389 0.18038 254 254 254
1.98819 -0.96441 0.21573 147 135 143
1.95500 -0.96722 0.23599 79 82 108
1.95192 -0.98348 0.23718 43 31 35
1.96492 -0.97679 0.24111 44 39 64
1.96815 -0.98530 0.24856 49 44 64
1.97094 -0.99373 0.25617 61 65 82
1.99295 -1.00542 0.25727 73 81 94
2.00224 -1.00609 0.27118 112 76 83
1.99605 -1.01395 0.26483 89 95 100
1.98985 -1.02181 0.25848 76 80 100
3.76359 -1.47802 -0.15503 124 135 144
3.74922 -1.47698 -0.17654 124 93 99
3.75880 -1.50339 -0.15316 160 164 166
2.97039 -1.92360 0.73513 80 77 92
2.97984 -1.94511 0.75332 81 73 90
2.97606 -1.96514 0.75479 109 113 114
3.03417 -2.01938 0.80482 71 74 79
3.03036 -2.03956 0.80630 87 93 94
3.00780 -2.01864 0.81771 83 92 93
3.00401 -2.03867 0.81918 89 94 100
0.83713 0.34310 -0.60376 147 196 252
0.85094 0.33361 -0.60080 122 156 240
0.85975 0.32958 -0.60110 105 130 218
0.86829 0.31775 -0.59287 95 119 216
0.87009 0.31083 -0.58636 118 145 224
0.86915 0.29524 -0.56911 161 197 243
0.86674 0.28246 -0.56816 161 198 254
1.06218 0.14489 -0.50884 151 185 253
1.06475 0.15845 -0.50984 157 188 254
1.05962 0.15194 -0.51508 154 188 254
1.06731 0.15139 -0.50359 156 187 254
1.06987 0.14433 -0.49735 155 187 254
1.07776 0.14151 -0.51339 147 181 250
1.09244 0.13778 -0.51710 138 173 245
1.08306 0.11955 -0.49256 104 137 215
1.08049 0.10592 -0.49155 38 39 100
1.17626 0.13678 -0.56007 86 108 193
1.17358 0.12260 -0.55902 44 37 80
1.31456 0.06390 -0.55436 143 115 115
1.31177 0.04908 -0.55327 224 207 178
1.32929 0.05881 -0.55663 159 135 133
1.34825 0.05456 -0.56202 162 132 123
1.63778 -0.20774 -0.43206 90 75 81
1.64121 -0.21608 -0.42490 48 31 28
1.64424 -0.22445 -0.41749 48 43 45
1.16783 -0.58844 0.22436 13 12 20
1.16066 -0.58792 0.21363 17 17 15
1.16443 -0.59474 0.23292 40 41 36
1.17351 -0.60167 0.23560 86 96 89
1.17590 -0.60826 0.24143 97 89 78
1.18778 -0.61541 0.24288 45 29 23
1.18537 -0.62812 0.24381 18 14 13
1.57404 -0.83669 0.27790 8 17 62
1.56586 -0.83610 0.26566 25 19 16
1.55678 -0.84151 0.29214 180 218 238
1.55407 -0.85584 0.29320 248 252 254
1.96539 -0.94550 0.18926 252 254 249
1.96849 -0.92908 0.18805 254 254 254
1.96229 -0.93695 0.18170 254 254 254
1.93704 -0.94922 0.20815 217 189 226
1.97869 -0.96370 0.20185 168 146 178
1.94595 -0.97455 0.23071 58 43 46
1.95533 -0.99200 0.24456 51 39 53
1.95311 -0.99957 0.25387 55 50 72
1.96863 -1.01016 0.25711 55 60 88
3.11895 -1.91284 0.62346 153 160 178
3.11500 -1.90194 0.61381 155 158 168
3.12686 -1.90281 0.63156 154 158 173
3.13081 -1.91370 0.64120 152 159 175
3.10981 -1.92880 0.64542 170 184 213
3.07427 -1.93544 0.67124 161 170 191
2.96980 -1.92658 0.71661 83 81 88
2.97711 -1.94737 0.73513 94 81 96
2.97332 -1.96744 0.73661 115 123 120
2.98993 -1.96107 0.74313 111 112 114
3.05190 -2.01105 0.76431 85 84 82
3.06538 -2.02520 0.77245 58 58 57
3.05264 -2.02966 0.78394 61 69 66
3.04880 -2.04998 0.78544 88 91 92
0.82758 0.35789 -0.62864 153 197 253
0.83284 0.35249 -0.62562 140 184 251
0.81641 0.33791 -0.60117 117 159 244
0.83632 0.33869 -0.61259 105 127 225
0.82927 0.32815 -0.59749 96 109 205
0.83550 0.32313 -0.59539 92 118 206
0.84761 0.31287 -0.59077 139 173 236
0.84520 0.30014 -0.58983 157 196 254
0.85029 0.30636 -0.58518 158 193 243
0.84789 0.29362 -0.58424 156 196 254
0.84988 0.29861 -0.57661 164 202 247
0.84748 0.28590 -0.57567 156 198 254
1.03926 0.15658 -0.52423 152 187 254
1.04181 0.17007 -0.52522 156 192 254
1.03672 0.16360 -0.53045 153 190 254
1.04436 0.16305 -0.51901 156 190 254
1.04691 0.15602 -0.51279 155 188 254
1.04636 0.15088 -0.52186 150 184 252
1.05186 0.14468 -0.51811 142 177 248
1.05745 0.13850 -0.51441 129 165 239
1.07305 0.13509 -0.51903 113 143 216
1.17567 0.14751 -0.58699 60 77 164
1.63387 -0.21524 -0.43965 129 118 122
1.62475 -0.21458 -0.45329 189 174 144
1.63323 -0.22396 -0.42992 47 26 15
1.63019 -0.24003 -0.42873 52 38 22
1.16766 -0.59474 0.21726 20 12 20
1.16048 -0.59422 0.20651 18 19 14
1.16287 -0.60082 0.21235 23 15 17
1.16830 -0.60125 0.22393 37 39 34
1.17722 -0.60821 0.22670 87 100 88
1.17962 -0.61483 0.23255 100 92 79
1.19335 -0.62214 0.23313 46 31 24
1.19094 -0.63491 0.23407 18 17 14
1.57924 -0.84506 0.26820 8 18 63
1.57103 -0.84446 0.25591 25 16 5
1.56874 -0.85078 0.27994 180 221 242
1.56601 -0.86520 0.28101 248 252 254
1.90700 -0.94534 0.20201 223 206 231
1.92326 -0.95581 0.20464 154 135 143
1.90880 -0.96146 0.21842 88 77 80
1.90575 -0.97758 0.21961 32 18 28
1.93130 -0.98094 0.22744 32 21 35
1.94271 -0.99077 0.23197 41 31 47
1.94428 -0.99897 0.23998 55 41 61
1.94666 -1.00730 0.24770 62 42 59
1.95336 -1.01639 0.25393 51 38 56
3.10764 -1.91217 0.60562 156 159 177
3.11160 -1.89123 0.60408 155 156 163
3.10369 -1.90127 0.59597 154 158 168
3.09578 -1.91131 0.58787 156 160 179
3.10878 -1.92211 0.61573 161 172 196
3.10064 -1.93835 0.63756 178 189 209
3.11681 -1.95345 0.64524 147 151 174
3.11286 -1.97436 0.64678 85 89 105
2.98680 -1.92664 0.68546 90 91 111
2.97682 -1.93227 0.69685 86 89 97
2.98864 -1.94562 0.70495 75 61 89
2.98482 -1.96582 0.70644 103 108 102
2.98888 -1.96398 0.72461 111 123 116
2.98507 -1.98414 0.72610 108 111 114
3.03597 -2.00859 0.74765 90 93 95
3.03212 -2.02893 0.74915 74 58 86
3.06340 -2.02791 0.75389 72 65 81
0.81623 0.37962 -0.66009 155 204 254
0.81864 0.39235 -0.66103 162 207 254
0.81383 0.38625 -0.66596 158 203 254
0.82104 0.38572 -0.65516 161 205 254
0.82344 0.37910 -0.64930 161 204 254
0.82530 0.37592 -0.66097 149 200 254
0.81393 0.36327 -0.64119 138 188 252
0.82543 0.35293 -0.63621 111 128 214
0.82816 0.34645 -0.63068 93 103 193
0.82438 0.32962 -0.61047 108 136 222
0.82756 0.32334 -0.60540 137 168 230
0.82516 0.31066 -0.60447 156 195 254
0.83552 0.31901 -0.60501 156 193 239
0.83311 0.30629 -0.60407 155 194 254
0.83912 0.30529 -0.59213 159 197 253
0.83672 0.29259 -0.59120 157 195 254
1.02452 0.16279 -0.53796 147 186 253
1.02706 0.17626 -0.53896 156 191 254
1.02198 0.16980 -0.54417 151 187 254
1.01689 0.16335 -0.54938 135 175 247
1.02961 0.16925 -0.53275 154 192 254
1.03487 0.15031 -0.53005 133 173 244
1.07147 0.14524 -0.54426 93 122 205
1.13749 0.15597 -0.59137 69 84 173
1.13483 0.14188 -0.59033 35 24 72
1.14070 0.14878 -0.58533 52 58 130
1.16180 0.14651 -0.59423 30 40 104
1.17622 0.14229 -0.59743 22 29 83
1.29709 0.10690 -0.62423 50 33 40
1.29990 0.12179 -0.62533 48 45 46
1.30272 0.11404 -0.61847 50 41 46
1.29146 0.09976 -0.62999 92 71 56
1.30553 0.10629 -0.61160 51 33 37
1.29427 0.09200 -0.62313 106 93 84
1.49893 -0.04888 -0.56456 162 202 208
1.50783 -0.04953 -0.55124 249 254 254
1.50190 -0.05707 -0.55732 229 247 251
1.59662 -0.20010 -0.45380 239 234 224
1.59964 -0.20841 -0.44645 201 201 189
1.63062 -0.22269 -0.44769 138 133 140
1.64343 -0.23020 -0.44647 65 48 61
1.16593 -0.60746 0.21788 37 37 32
1.15874 -0.60694 0.20712 24 17 7
1.18135 -0.61483 0.21754 90 103 87
1.18376 -0.62147 0.22341 103 96 80
1.20092 -0.62906 0.22238 46 32 25
1.19849 -0.64190 0.22333 19 16 19
1.58398 -0.85342 0.25862 8 17 63
1.57574 -0.85282 0.24629 14 13 20
1.59015 -0.86147 0.26400 180 224 242
1.58740 -0.87604 0.26507 245 253 254
1.87721 -0.94150 0.19600 231 239 224
1.86706 -0.94778 0.20824 126 116 120
1.88742 -0.95885 0.20924 54 41 66
1.88439 -0.97490 0.21042 42 21 26
1.89496 -0.96793 0.21500 31 22 37
1.91915 -0.98770 0.22333 40 21 22
1.93229 -0.99783 0.22720 47 32 31
1.93650 -1.00647 0.23427 84 66 64
1.91885 -1.01130 0.24898 113 91 73
1.91581 -1.02742 0.25017 134 111 81
1.93802 -1.02255 0.25082 117 94 72
1.95285 -1.03311 0.25424 123 110 92
3.10484 -1.93350 0.60697 177 194 212
2.99028 -1.92185 0.65602 96 99 120
2.98766 -1.93935 0.67633 96 97 102
2.98070 -1.94605 0.68730 90 89 86
3.04910 -2.05361 0.76668 89 92 96
3.04524 -2.07399 0.76818 88 92 96
0.82219 0.37827 -0.67603 125 162 245
0.82004 0.36191 -0.65715 93 106 194
0.81496 0.33680 -0.62721 133 164 222
0.81257 0.32412 -0.62627 155 194 254
0.80311 0.32425 -0.60717 155 187 238
0.80073 0.31167 -0.60625 153 194 254
0.82629 0.31871 -0.61379 158 196 252
0.82389 0.30600 -0.61285 154 193 254
1.01859 0.15609 -0.54244 119 159 233
1.07907 0.15814 -0.57758 74 99 185
1.07646 0.14433 -0.57656 28 21 73
1.17013 0.13525 -0.60238 44 49 76
1.20010 0.13504 -0.61846 87 88 102
1.24983 0.13981 -0.65069 125 129 125
1.22852 0.12592 -0.62406 121 123 114
1.22576 0.11133 -0.62299 98 47 63
1.32504 0.11638 -0.66626 111 75 51
1.32790 0.13150 -0.66738 45 33 41
1.32219 0.12425 -0.67323 91 51 40
1.31648 0.11700 -0.67908 201 175 133
1.32219 0.10126 -0.66515 185 160 124
1.66567 0.06496 -0.79600 163 129 142
1.65563 0.05359 -0.77824 157 131 135
1.65244 0.03672 -0.77700 190 165 173
1.52374 -0.05144 -0.59277 161 176 152
1.50464 -0.06323 -0.56962 197 211 211
1.51358 -0.06387 -0.55626 252 254 254
1.51181 -0.07078 -0.56534 240 250 251
1.52075 -0.07143 -0.55195 254 254 253
1.51479 -0.07901 -0.55806 252 249 239
1.61418 -0.16171 -0.52265 249 249 249
1.61724 -0.14552 -0.52384 254 254 253
1.61113 -0.15329 -0.53011 254 254 254
1.62030 -0.15395 -0.51638 254 254 254
