ply
format ascii 1.0
element face 0
property list uchar int vertex_indices
element vertex 1344
property float x
property float y
property float z
property uchar diffuse_red
property uchar diffuse_green
property uchar diffuse_blue
end_header
1.64647 -2.61220 1.34623 218 196 132
1.66044 -2.61761 1.35882 120 77 5
1.64733 -2.63061 1.37768 85 57 50
1.64639 -2.66607 1.40794 63 53 51
1.64664 -2.67511 1.41536 56 54 50
1.65462 -2.67826 1.42964 40 19 10
1.64443 -2.68317 1.42345 52 51 40
1.65241 -2.68632 1.43771 37 19 15
1.64503 -2.69234 1.43077 49 41 40
1.44849 -0.97865 0.09937 43 40 52
1.44073 -0.97558 0.08548 37 33 50
1.46804 -0.99332 0.09966 56 40 56
1.48642 -0.99929 0.09337 69 49 57
1.51596 -1.00351 0.07877 85 67 77
1.53197 -1.01012 0.07448 98 83 91
1.53155 -1.01947 0.08257 110 95 101
1.53607 -1.02803 0.08697 125 109 108
1.54639 -1.03573 0.08708 138 125 122
1.55565 -1.04365 0.08803 154 137 137
1.56733 -1.05127 0.08724 163 151 155
1.55578 -1.06231 0.10358 177 162 153
1.50126 -1.09764 0.16665 196 181 175
1.48461 -1.11806 0.19398 205 187 186
1.49244 -1.12116 0.20800 198 182 174
1.47794 -1.13299 0.19434 217 201 191
1.48125 -1.15477 0.22680 201 192 188
1.48066 -1.14578 0.21962 213 202 186
1.53961 -1.18500 0.21629 95 75 76
1.53283 -1.20020 0.21666 98 84 79
1.58199 -1.21810 0.21799 95 85 75
1.58138 -1.20880 0.21057 98 84 78
1.58947 -1.21199 0.22504 99 83 79
1.60492 -1.22546 0.21008 79 78 70
1.65314 -1.23085 0.18500 62 56 52
1.67335 -1.24843 0.18731 27 25 42
1.66627 -1.26430 0.18770 28 28 41
1.74790 -1.28210 0.16975 62 77 91
1.74065 -1.29835 0.17014 39 47 54
1.76024 -1.29119 0.16978 85 106 126
1.75296 -1.30750 0.17018 18 18 51
2.04489 -1.35989 0.05258 58 55 74
2.03556 -1.35621 0.03590 54 59 79
2.04496 -1.37064 0.06153 64 68 87
2.06570 -1.39157 0.06634 71 72 110
2.07501 -1.40215 0.06949 86 86 123
2.08499 -1.41278 0.07226 110 110 139
2.08683 -1.42360 0.08020 117 114 135
2.08294 -1.43451 0.09172 106 106 122
2.10045 -1.44516 0.08990 76 85 95
2.10673 -1.45600 0.09512 37 45 57
2.09867 -1.47406 0.09556 9 5 20
2.11965 -1.46685 0.09627 14 15 36
2.12279 -1.47778 0.10351 10 9 29
2.15297 -1.51085 0.11268 62 39 36
2.20730 -1.52249 0.08907 123 95 77
2.19676 -1.53353 0.10479 170 149 114
2.20304 -1.54480 0.11037 156 141 119
2.22580 -1.55644 0.10615 113 99 88
2.21748 -1.57508 0.10661 80 67 65
2.24192 -1.56806 0.10599 84 64 69
2.23356 -1.58678 0.10645 83 72 68
2.26299 -1.61393 0.13148 86 75 65
2.26225 -1.60257 0.12242 89 75 73
2.27544 -1.62575 0.13374 75 67 42
2.29439 -1.64934 0.14187 68 53 62
2.30555 -1.66130 0.14504 92 79 71
2.29706 -1.68033 0.14550 94 81 78
2.82082 -1.89472 0.02422 99 76 59
2.80947 -1.89024 0.00391 94 77 71
2.81032 -1.90329 0.01433 93 77 56
2.83410 -1.90904 0.02807 83 58 46
2.87141 -1.95219 0.04131 65 44 52
2.87056 -1.93899 0.03077 61 32 46
2.85994 -1.94766 0.02077 56 33 41
2.86165 -1.97407 0.04184 62 32 54
2.91159 -1.99633 0.05362 74 41 18
2.92328 -2.01099 0.05872 57 16 12
2.93134 -2.03852 0.07683 39 3 19
2.92416 -2.05083 0.09155 114 73 74
2.91429 -2.07294 0.09209 177 152 130
2.91121 -2.06230 0.10911 181 168 122
2.90093 -2.12663 0.16931 204 190 155
2.86686 -2.13450 0.19681 228 228 199
2.87594 -2.14894 0.20334 190 191 204
2.85643 -2.15885 0.22362 175 187 206
2.84673 -2.18058 0.22415 199 207 215
2.85133 -2.18395 0.24777 185 189 201
2.85153 -2.19693 0.25853 188 191 197
2.85271 -2.21008 0.26882 172 167 157
2.84636 -2.22191 0.28262 115 101 90
2.84052 -2.23378 0.29616 56 45 48
2.84771 -2.24798 0.30364 29 27 50
2.83962 -2.25940 0.31817 30 36 77
2.84605 -2.27349 0.32603 49 62 118
2.81717 -2.28086 0.34993 79 95 164
2.76962 -2.28443 0.38211 129 151 201
2.80603 -2.30427 0.37638 180 195 215
2.77966 -2.31174 0.39882 185 187 184
2.76803 -2.32204 0.41460 145 126 119
2.77800 -2.33673 0.42079 106 81 81
2.77556 -2.36153 0.44305 83 85 65
2.77905 -2.37492 0.45212 86 87 70
2.78808 -2.38954 0.45883 100 105 91
2.73585 -2.39062 0.49180 127 128 117
2.75219 -2.40680 0.49532 134 148 160
2.72840 -2.41392 0.51589 141 155 184
2.72585 -2.42580 0.52741 156 163 186
2.72030 -2.43696 0.54017 166 172 189
2.71056 -2.44709 0.55463 203 215 223
2.70125 -2.46795 0.55514 205 208 214
2.70714 -2.45867 0.56643 207 207 216
2.69784 -2.47951 0.56693 210 215 219
2.67342 -2.49967 0.62147 235 233 229
2.64427 -2.50448 0.64341 231 230 222
2.63512 -2.52499 0.64391 210 211 222
2.57964 -2.49995 0.67929 209 206 193
2.56605 -2.50836 0.69468 192 190 190
2.57157 -2.52175 0.70250 207 208 218
2.56728 -2.53253 0.71417 212 216 224
2.54406 -2.53817 0.73314 165 168 186
2.53515 -2.55814 0.73363 136 117 125
2.47858 -2.55536 0.78775 153 161 171
2.45077 -2.55912 0.80797 188 184 202
2.43309 -2.56561 0.82427 189 168 187
1.71795 -2.53760 1.23985 167 147 142
1.70973 -2.53435 1.22514 170 149 128
1.71035 -2.54381 1.23269 172 151 131
1.71096 -2.55327 1.24023 174 153 132
1.70167 -2.55040 1.26057 171 153 145
1.69472 -2.56598 1.26095 174 152 141
1.69483 -2.55718 1.27045 175 158 146
1.68790 -2.57272 1.27083 172 152 143
1.69121 -2.56506 1.27927 182 168 149
1.68428 -2.58058 1.27965 171 150 140
1.68587 -2.57230 1.28861 191 177 151
1.67896 -2.58779 1.28899 173 150 142
1.69335 -2.58413 1.29393 201 182 176
1.68642 -2.59965 1.29431 173 157 141
1.63113 -2.61538 1.35831 218 188 120
1.62316 -2.61223 1.34405 197 173 166
1.62376 -2.62140 1.35136 202 180 172
1.63900 -2.65420 1.38599 161 121 65
1.63925 -2.68113 1.40841 76 52 51
1.63706 -2.68919 1.41650 70 47 36
1.63363 -2.70564 1.43239 72 57 50
1.64159 -2.70879 1.44663 48 20 33
1.43941 -0.98485 0.09407 47 36 41
1.43223 -0.99071 0.08731 67 62 56
1.45300 -0.99150 0.09122 57 44 63
1.46486 -0.99853 0.08976 74 56 73
1.49005 -1.00339 0.07823 87 66 86
1.48334 -1.01843 0.07859 125 110 98
1.50588 -1.00995 0.07392 102 88 94
1.51554 -1.02686 0.08211 129 111 108
1.52507 -1.04390 0.09048 147 129 123
1.53498 -1.05170 0.09087 170 148 143
1.51886 -1.08182 0.12610 199 178 178
1.51209 -1.09698 0.12647 209 192 186
1.50122 -1.09345 0.14678 201 182 182
1.47623 -1.11504 0.18035 209 194 189
1.46898 -1.12095 0.17353 220 204 196
1.47252 -1.12459 0.19066 216 198 191
1.46972 -1.15212 0.21546 181 177 170
1.49807 -1.15795 0.20278 143 121 133
1.49137 -1.17297 0.20315 95 78 70
1.49983 -1.16689 0.20919 97 73 85
1.49312 -1.18192 0.20955 97 85 72
1.51517 -1.17438 0.20596 88 64 76
1.50842 -1.18949 0.20633 97 84 70
1.52099 -1.18296 0.20954 95 79 64
1.51424 -1.19810 0.20991 97 85 74
1.55430 -1.21669 0.21718 92 81 69
1.55370 -1.20746 0.20981 96 84 81
1.62519 -1.23876 0.19175 21 15 34
1.61819 -1.25443 0.19213 15 14 25
1.64389 -1.24680 0.18690 18 11 32
1.63685 -1.26256 0.18728 19 18 32
1.65794 -1.25530 0.18532 23 20 37
1.65087 -1.27113 0.18570 25 25 34
1.75166 -1.28781 0.15449 41 49 39
1.74310 -1.28443 0.13918 29 30 34
1.74374 -1.29428 0.14703 28 29 34
1.74438 -1.30412 0.15489 24 21 29
2.03411 -1.36700 0.04584 65 65 86
2.04436 -1.37743 0.04823 79 82 107
2.06213 -1.38771 0.04583 86 92 118
2.05848 -1.39862 0.05724 96 98 122
2.05315 -1.40953 0.06969 118 124 143
2.05850 -1.42022 0.07533 140 151 163
2.05939 -1.43100 0.08382 132 140 149
2.07480 -1.44161 0.08316 89 96 107
2.08462 -1.45237 0.08608 35 44 55
2.07659 -1.47036 0.08652 12 3 21
2.10029 -1.46314 0.08541 11 13 31
2.11854 -1.49593 0.10158 38 18 29
2.13867 -1.50703 0.09841 78 53 46
2.16895 -1.51835 0.08913 132 109 83
2.17433 -1.54064 0.10448 142 121 106
2.20398 -1.55233 0.09591 101 86 82
2.21976 -1.56389 0.09582 80 70 65
2.24863 -1.60987 0.11646 80 73 65
2.24790 -1.59852 0.10741 83 75 65
2.24025 -1.62866 0.11691 40 33 43
2.25542 -1.62145 0.12196 68 63 57
2.26874 -1.63334 0.12367 50 43 36
2.26953 -1.64474 0.13274 48 37 36
2.28032 -1.65663 0.13601 77 61 66
2.27186 -1.67557 0.13647 92 80 78
2.28531 -1.66828 0.14268 93 80 78
2.27684 -1.68725 0.14315 92 79 78
2.83338 -1.91866 0.01293 84 64 42
2.82196 -1.91415 -0.00749 93 76 64
2.85335 -1.93384 0.01327 58 17 54
2.86699 -1.96156 0.02805 58 43 44
2.88414 -1.98986 0.04114 67 45 46
2.89126 -2.00390 0.04849 66 53 50
2.90848 -2.01925 0.05069 51 22 14
2.91358 -2.03314 0.05917 40 10 5
2.90668 -2.04547 0.07377 105 66 36
2.90798 -2.05886 0.08419 166 145 115
2.89812 -2.08094 0.08473 184 164 138
2.89491 -2.08343 0.11289 191 162 128
2.88874 -2.09570 0.12699 204 177 138
2.90027 -2.10026 0.14762 208 185 148
2.88960 -2.10897 0.13758 211 185 147
2.88461 -2.12135 0.15104 196 179 158
2.86988 -2.13220 0.16927 199 199 201
2.84361 -2.14115 0.19304 229 239 239
2.85903 -2.15659 0.19643 206 214 237
2.85039 -2.16820 0.21151 190 199 221
2.84484 -2.19323 0.23593 202 207 211
2.84172 -2.20565 0.24827 196 202 206
2.83616 -2.21762 0.26175 192 198 198
2.83651 -2.23061 0.27241 181 182 169
2.83442 -2.25605 0.29503 76 66 52
2.82913 -2.26796 0.30829 61 49 56
2.82932 -2.28088 0.31900 46 41 60
2.83315 -2.29450 0.32804 26 37 64
2.80646 -2.30212 0.35097 72 100 126
2.78080 -2.30979 0.37329 171 191 201
2.78647 -2.32365 0.38139 194 199 198
2.81447 -2.34214 0.37954 164 160 152
2.76723 -2.34507 0.41126 126 110 94
2.78120 -2.36068 0.41570 109 102 79
2.77740 -2.37256 0.42800 74 75 55
2.79600 -2.38929 0.43050 68 62 60
2.77415 -2.39718 0.45065 94 92 78
2.76902 -2.40869 0.46347 100 97 91
2.76843 -2.42119 0.47431 90 88 108
2.75018 -2.42960 0.49268 92 105 154
2.72356 -2.43595 0.51449 137 146 184
2.71389 -2.44614 0.52902 139 154 194
2.70009 -2.45528 0.54523 190 196 217
2.66883 -2.49696 0.59953 207 206 217
2.66802 -2.48447 0.58956 207 205 216
2.65798 -2.49267 0.58010 209 211 218
2.65879 -2.50516 0.59007 209 210 213
2.66399 -2.50801 0.61179 221 225 236
2.65477 -2.52867 0.61229 204 203 211
2.63877 -2.51376 0.63224 217 215 229
2.62961 -2.53429 0.63274 202 201 215
2.57733 -2.52189 0.67712 202 205 222
2.56752 -2.52989 0.66788 211 209 214
2.57624 -2.53358 0.68759 208 212 226
2.56099 -2.54143 0.70362 192 194 210
2.56088 -2.55333 0.71366 159 152 164
2.52560 -2.57911 0.75712 133 135 149
2.47448 -2.57631 0.78645 124 132 158
2.45141 -2.58129 0.80492 105 102 138
2.44545 -2.60266 0.82652 119 119 143
2.45852 -2.61809 0.83135 131 128 150
2.46878 -2.62214 0.84970 153 145 150
2.45929 -2.62989 0.84077 135 135 148
1.62430 -2.63055 1.35869 205 186 162
1.61534 -2.64491 1.37628 214 191 146
1.61381 -2.65321 1.38419 215 189 135
1.61141 -2.66115 1.39233 212 182 116
1.61878 -2.67298 1.39768 206 172 113
1.61202 -2.68813 1.39805 209 189 149
1.64080 -2.70869 1.41396 158 126 63
1.40457 -0.96876 0.08621 39 41 55
1.41110 -0.95412 0.08585 49 52 63
1.40399 -0.95992 0.07916 45 49 58
1.41168 -0.96296 0.09290 43 47 58
1.41225 -0.97180 0.09996 43 41 53
1.41543 -0.97572 0.08525 53 36 56
1.41573 -0.98464 0.09255 59 50 65
1.44959 -0.99673 0.08150 77 62 69
1.47299 -1.00183 0.07115 93 79 87
1.46630 -1.01682 0.07151 125 116 96
1.47554 -1.01055 0.07686 112 96 94
1.46885 -1.02555 0.07723 134 118 109
1.48850 -1.02678 0.08236 131 115 107
1.49332 -1.03520 0.08641 138 119 116
1.50068 -1.04327 0.08857 151 127 117
1.50357 -1.05205 0.09414 164 141 127
1.51170 -1.06008 0.09578 180 158 150
1.49559 -1.08083 0.12325 197 180 172
1.48949 -1.09086 0.13547 203 185 183
1.46664 -1.11217 0.16763 214 198 192
1.45940 -1.11808 0.16081 218 205 200
1.46394 -1.13067 0.18483 216 203 201
1.46133 -1.14005 0.19432 199 191 188
1.46424 -1.14876 0.19981 160 150 152
1.45759 -1.16365 0.20017 90 69 81
1.48242 -1.15572 0.19428 109 87 113
1.48789 -1.16422 0.19799 92 72 65
1.48119 -1.17924 0.19835 97 85 77
1.52120 -1.20663 0.21271 94 85 75
1.57649 -1.22011 0.18944 60 53 46
1.56959 -1.23557 0.18981 12 9 24
1.59249 -1.22811 0.18614 28 24 38
1.58556 -1.24365 0.18652 13 11 25
1.60442 -1.23656 0.18576 16 11 35
1.59745 -1.25215 0.18614 14 13 21
2.00323 -1.33204 0.01643 31 34 53
1.99396 -1.32838 -0.00015 27 24 30
2.01064 -1.34241 0.02049 38 43 63
2.01993 -1.34608 0.03710 49 55 75
2.02219 -1.35268 0.02188 41 48 72
2.02318 -1.36338 0.03023 46 51 78
2.02609 -1.37402 0.03733 58 62 87
2.03776 -1.38443 0.03876 72 80 108
2.04575 -1.39500 0.04262 85 95 126
2.03985 -1.40592 0.05548 114 121 150
2.05465 -1.41641 0.05501 143 155 178
2.05535 -1.42721 0.06363 146 161 177
2.06520 -1.43790 0.06643 104 120 125
2.06887 -1.44870 0.07319 45 56 56
2.08025 -1.45947 0.07510 11 13 24
2.09378 -1.48121 0.08488 30 15 25
2.12139 -1.50320 0.08604 115 91 79
2.15235 -1.52555 0.08543 151 130 99
2.15734 -1.53671 0.09166 123 98 95
2.14913 -1.55510 0.09211 93 75 78
2.16686 -1.54797 0.09515 98 76 83
2.18948 -1.55958 0.09074 84 72 70
2.20570 -1.57117 0.09031 74 68 63
2.21428 -1.58263 0.09456 69 66 58
2.20595 -1.60131 0.09501 43 36 52
2.23476 -1.60583 0.10120 63 56 58
2.24012 -1.61734 0.10750 52 43 51
2.25821 -1.64076 0.11583 44 36 43
2.26019 -1.65222 0.12419 69 58 47
2.25176 -1.67111 0.12465 93 80 67
2.26750 -1.66396 0.12946 89 76 67
2.25906 -1.68288 0.12992 92 79 74
2.81048 -1.92597 0.00960 88 74 61
2.84070 -1.94227 0.00437 68 46 53
2.86352 -1.95793 0.00323 58 24 39
2.85372 -1.97987 0.00376 70 52 48
2.87052 -1.97189 0.01055 56 30 24
2.87589 -1.98569 0.01877 60 48 41
2.87984 -1.99935 0.02775 68 54 34
2.89643 -2.01461 0.03017 54 29 35
2.90534 -2.02898 0.03665 36 9 18
2.89462 -2.04083 0.05328 77 56 38
2.89666 -2.05432 0.06332 152 140 100
2.89198 -2.06689 0.07678 175 162 133
2.87280 -2.09051 0.10859 202 180 128
2.86368 -2.10230 0.12417 211 185 138
2.86359 -2.11538 0.13519 217 188 140
2.84247 -2.12523 0.15666 171 147 135
2.85357 -2.13998 0.16208 162 172 172
2.84570 -2.15177 0.17689 183 213 235
2.84558 -2.16476 0.18786 171 201 232
2.83601 -2.17619 0.20342 149 156 176
2.84402 -2.20350 0.22132 202 221 229
2.83346 -2.21465 0.23726 196 209 215
2.82294 -2.22572 0.25313 188 195 202
2.82193 -2.23845 0.26444 186 183 192
2.82191 -2.25136 0.27526 171 161 162
2.81746 -2.26342 0.28817 126 107 108
2.82534 -2.27780 0.29529 78 65 74
2.81883 -2.28944 0.30912 56 48 49
2.82266 -2.30306 0.31815 59 42 39
2.79603 -2.31063 0.34115 105 106 105
2.78499 -2.32119 0.35691 184 195 190
2.79054 -2.33508 0.36508 200 200 200
2.79278 -2.34832 0.37478 177 168 161
2.77242 -2.35677 0.39460 149 119 106
2.78904 -2.37304 0.39785 129 103 74
2.77986 -2.38379 0.41259 62 45 25
2.78070 -2.39669 0.42288 49 38 39
2.77423 -2.40795 0.43637 95 93 79
2.77247 -2.42023 0.44777 100 92 80
2.76686 -2.43161 0.46082 73 67 67
2.71155 -2.43136 0.49520 41 36 71
2.74354 -2.45140 0.49200 89 106 135
2.74813 -2.46507 0.50058 70 78 157
2.69202 -2.46404 0.53482 167 179 209
2.69139 -2.47629 0.54548 201 207 211
2.68706 -2.48761 0.55767 204 208 214
2.65443 -2.51632 0.60215 204 206 213
2.64359 -2.51203 0.58275 213 215 210
2.64521 -2.53698 0.60265 206 202 205
2.58067 -2.54542 0.67268 195 189 196
2.60386 -2.56377 0.67356 155 140 167
2.47802 -2.59954 0.78224 109 101 106
2.46922 -2.61925 0.78272 94 77 69
2.47333 -2.60983 0.79380 108 101 99
2.46454 -2.62952 0.79428 96 80 61
1.61969 -2.62869 1.34342 183 154 151
1.61909 -2.61951 1.33610 203 179 155
1.60411 -2.63159 1.35559 179 144 119
1.60257 -2.65766 1.37841 193 167 153
1.60176 -2.66622 1.38609 198 178 156
1.59926 -2.69181 1.40911 212 190 138
1.60000 -2.70097 1.41633 211 187 125
1.59247 -2.70670 1.42585 206 176 111
1.58733 -2.71338 1.43466 198 165 105
1.58064 -2.72839 1.43503 207 186 143
1.57682 -2.71777 1.44491 185 153 99
1.58466 -2.72087 1.45895 72 50 49
1.57105 -2.72410 1.45383 166 135 80
1.57888 -2.72719 1.46783 67 46 46
1.57581 -2.73489 1.45990 151 117 57
1.58365 -2.73798 1.47392 70 54 50
1.66462 -2.78184 1.44373 134 98 46
1.67270 -2.78503 1.45817 69 57 55
1.66522 -2.79113 1.45114 106 78 49
1.33304 -0.90767 0.06405 35 28 52
1.33944 -0.89334 0.06370 28 29 49
1.33248 -0.89902 0.05715 31 28 49
1.34000 -0.90199 0.07060 27 28 41
1.34056 -0.91064 0.07750 31 28 37
1.33163 -0.91673 0.07254 45 36 59
1.33914 -0.91970 0.08598 38 27 45
1.33219 -0.92537 0.07944 55 56 63
1.32524 -0.93105 0.07289 60 71 77
1.38601 -0.97667 0.08850 65 62 79
1.39832 -0.98335 0.08634 81 80 88
1.40317 -0.99143 0.09005 99 97 99
1.42183 -0.99713 0.08306 109 106 87
1.44127 -1.00281 0.07555 111 90 79
1.45727 -1.00919 0.07081 119 101 82
1.46879 -1.03471 0.08495 142 121 123
1.47022 -1.04363 0.09153 150 132 131
1.47210 -1.05249 0.09777 162 143 140
1.48125 -1.06028 0.09853 176 154 146
1.47874 -1.06982 0.10812 187 166 161
1.47299 -1.08893 0.12778 202 186 176
1.46629 -1.10393 0.12814 218 201 194
1.46976 -1.09851 0.13785 210 193 191
1.46183 -1.10868 0.15139 217 201 193
1.46322 -1.12668 0.16561 212 201 192
1.45183 -1.13717 0.18159 176 173 173
1.46193 -1.14501 0.18180 131 103 139
1.45527 -1.15993 0.18216 92 79 80
1.47010 -1.15314 0.18346 88 75 84
1.46342 -1.16810 0.18382 98 85 80
1.51637 -1.21240 0.20397 70 70 65
1.55460 -1.21816 0.18467 34 40 51
1.54774 -1.23354 0.18504 14 11 19
1.57146 -1.22602 0.18062 14 13 29
1.56456 -1.24149 0.18100 14 12 16
1.98768 -1.33933 0.01300 23 26 34
1.97844 -1.33568 -0.00354 22 22 29
1.97913 -1.34631 0.00495 15 18 21
1.97982 -1.35695 0.01343 14 15 33
1.99929 -1.34953 0.01424 23 27 48
1.99141 -1.36721 0.01467 17 15 40
2.00712 -1.35995 0.01803 23 27 59
1.99921 -1.37766 0.01846 19 16 32
2.00701 -1.37066 0.02709 28 27 59
2.02334 -1.38089 0.02536 39 40 64
2.03286 -1.39139 0.02816 47 60 86
2.02780 -1.40229 0.04050 69 82 104
2.02523 -1.41311 0.05119 103 115 147
2.04010 -1.42360 0.05061 126 140 177
2.03376 -1.43449 0.06374 106 121 142
2.05432 -1.44503 0.05961 47 60 67
2.06175 -1.45580 0.06396 12 16 19
2.06923 -1.46662 0.06831 14 9 10
2.07815 -1.47747 0.07179 48 28 25
2.08275 -1.48837 0.07803 104 80 66
2.12517 -1.49949 0.06058 149 133 104
2.13442 -1.52165 0.07333 148 132 108
2.12624 -1.53998 0.07378 93 75 80
2.12752 -1.53260 0.08687 115 91 85
2.11936 -1.55089 0.08732 95 78 82
2.15150 -1.54405 0.08135 94 70 79
2.14328 -1.56246 0.08179 95 80 76
2.17881 -1.56689 0.08327 83 67 67
2.19662 -1.57855 0.08181 61 47 51
2.20473 -1.59002 0.08631 46 37 41
2.24376 -1.64801 0.11032 77 67 62
2.23534 -1.66686 0.11078 96 82 70
2.25041 -1.65968 0.11591 92 79 61
2.24198 -1.67857 0.11637 96 79 69
2.79823 -1.92138 -0.01028 93 76 54
2.80790 -1.89970 -0.01081 93 78 69
2.79738 -1.90829 -0.02072 91 76 63
2.81388 -1.93608 -0.00784 84 66 45
2.84259 -1.95232 -0.01232 66 36 47
2.83282 -1.97422 -0.01179 60 50 49
2.85144 -1.96646 -0.00605 62 30 51
2.86931 -1.99491 0.00653 59 51 30
2.88506 -2.01005 0.00930 49 20 29
2.87519 -2.03216 0.00984 34 6 8
2.89240 -2.02422 0.01655 38 6 19
2.89374 -2.03765 0.02697 31 7 21
2.89191 -2.05065 0.03903 54 37 25
2.87539 -2.06163 0.05866 108 98 73
2.88632 -2.07634 0.06410 147 140 125
2.87918 -2.08852 0.07883 160 150 139
2.84912 -2.09731 0.10517 185 178 157
2.83414 -2.10816 0.12372 209 196 155
2.84010 -2.12209 0.13165 223 203 151
2.83054 -2.13365 0.14738 201 173 116
2.83430 -2.14725 0.15642 106 71 66
2.83437 -2.16028 0.16730 58 43 92
2.83821 -2.17392 0.17632 55 58 118
2.83955 -2.18716 0.18658 53 51 106
2.79737 -2.19297 0.21806 82 97 152
2.81697 -2.20926 0.21936 112 136 187
2.81246 -2.22139 0.23239 125 153 196
2.81221 -2.23426 0.24334 147 179 206
2.81002 -2.24677 0.25521 163 192 207
2.81384 -2.26038 0.26422 165 184 198
2.78583 -2.26797 0.28827 155 162 160
2.80202 -2.28390 0.29141 105 102 87
2.79117 -2.29464 0.30726 93 87 68
2.78406 -2.30604 0.32131 132 136 123
2.78355 -2.31873 0.33228 141 153 159
2.79344 -2.33354 0.33846 164 170 180
2.78151 -2.34387 0.35465 184 190 199
2.77960 -2.35623 0.36623 198 192 187
2.77907 -2.36887 0.37717 206 183 168
2.79284 -2.38462 0.38168 169 151 133
2.77025 -2.39242 0.40249 90 76 70
2.77002 -2.40508 0.41325 78 62 31
2.76728 -2.41717 0.42512 103 88 67
2.75682 -2.42746 0.44035 121 113 99
2.75647 -2.44003 0.45112 100 83 67
2.72496 -2.44525 0.47538 84 70 45
2.74018 -2.46143 0.47935 96 107 95
2.72957 -2.47146 0.49445 31 25 86
2.70009 -2.47678 0.51752 146 171 192
2.69194 -2.48722 0.53142 194 203 200
2.68260 -2.50814 0.53192 192 185 187
2.68922 -2.49896 0.54298 195 194 198
2.68920 -2.51137 0.55340 205 207 215
2.60615 -2.55096 0.63903 214 213 209
2.60535 -2.53861 0.62918 209 206 213
2.61869 -2.56651 0.64415 182 176 168
2.61100 -2.57655 0.65743 137 111 94
2.60187 -2.59702 0.65793 117 95 70
2.59468 -2.58413 0.67409 117 96 86
2.58559 -2.60451 0.67458 122 113 86
2.52878 -2.60138 0.73014 105 84 78
2.50421 -2.60609 0.74960 95 80 71
2.49353 -2.64995 0.79313 97 82 64
2.48312 -2.64584 0.77452 107 86 70
1.53422 -2.57827 1.33840 218 196 192
1.54083 -2.56345 1.33803 171 144 125
1.53364 -2.56933 1.33126 174 145 140
1.54141 -2.57240 1.34517 179 152 119
1.54200 -2.58134 1.35230 205 194 172
1.52761 -2.59308 1.33876 249 250 248
1.49925 -2.57363 1.35658 246 241 229
1.49271 -2.58826 1.35693 249 249 246
1.51403 -2.58793 1.35924 251 247 223
1.50747 -2.60264 1.35960 249 248 246
1.53866 -2.61486 1.36629 244 231 204
1.59016 -2.64388 1.35813 230 214 175
1.59884 -2.65619 1.36298 209 187 137
1.59266 -2.66261 1.37227 183 154 132
1.60073 -2.67474 1.37735 169 135 123
1.60440 -2.68512 1.38374 172 138 114
1.60585 -2.69462 1.39078 183 147 122
1.59473 -2.69893 1.40143 189 156 137
1.58563 -2.71285 1.41884 197 178 153
1.58077 -2.71964 1.42760 202 182 149
1.56990 -2.73261 1.44535 207 187 133
1.57369 -2.75180 1.45904 201 172 111
1.56702 -2.76676 1.45941 201 181 150
1.58322 -2.78232 1.47864 163 133 97
1.59109 -2.78543 1.49272 76 61 69
1.61991 -2.80745 1.47655 150 116 91
1.62788 -2.81059 1.49081 74 62 63
1.62051 -2.81661 1.48387 133 101 78
2.24744 -3.26931 1.46795 39 28 9
2.25562 -3.25099 1.46751 37 26 12
2.23783 -3.26551 1.45075 72 74 48
2.25634 -3.26205 1.47633 36 28 13
2.25706 -3.27311 1.48516 40 29 15
2.27141 -3.30274 1.48086 38 29 17
2.28108 -3.30656 1.49818 44 33 14
2.27213 -3.31387 1.48974 43 30 9
1.32054 -0.90577 0.05467 43 32 65
1.31416 -0.92007 0.05502 69 72 71
1.32520 -0.91353 0.05822 54 53 67
1.31881 -0.92786 0.05857 62 65 74
1.33164 -0.92095 0.06034 59 70 69
1.36865 -0.96658 0.07506 61 64 71
1.37513 -0.95205 0.07471 53 51 53
1.36808 -0.95781 0.06807 56 53 71
1.36102 -0.96357 0.06142 72 76 81
1.37063 -0.97509 0.08094 69 74 77
1.37675 -0.98285 0.08356 84 85 76
1.39151 -0.98910 0.07941 105 109 86
1.39605 -0.99724 0.08335 135 133 127
1.39616 -1.00618 0.09077 147 148 139
1.41819 -1.01139 0.08112 146 141 116
1.43538 -1.01755 0.07534 135 119 76
1.44147 -1.02562 0.07824 135 119 111
1.43849 -1.03519 0.08816 144 126 125
1.44167 -1.04376 0.09333 155 134 132
1.44550 -1.05225 0.09802 167 146 135
1.44625 -1.06123 0.10507 175 156 147
1.45042 -1.07880 0.11716 195 174 166
1.44872 -1.08813 0.12607 202 184 176
1.45128 -1.11503 0.14701 217 204 197
1.44841 -1.12447 0.15677 196 191 188
1.45742 -1.13242 0.15770 154 140 139
1.45075 -1.14736 0.15806 91 79 84
1.44830 -1.14262 0.17207 99 80 103
1.44165 -1.15751 0.17243 98 84 84
1.48853 -1.19282 0.18858 94 85 68
1.48794 -1.18371 0.18131 95 87 74
1.49585 -1.18684 0.19548 97 86 72
1.49912 -1.20094 0.18865 74 77 61
1.49641 -1.21040 0.19831 58 55 44
1.48966 -1.22552 0.19868 9 9 14
1.54477 -1.22446 0.17931 13 11 34
1.53791 -1.23984 0.17969 14 12 15
2.00481 -1.38821 0.02376 24 18 40
1.99550 -1.38454 0.00710 21 18 25
1.99619 -1.39524 0.01565 20 18 29
1.99689 -1.40595 0.02419 17 17 31
2.00466 -1.39894 0.03285 20 22 48
2.01113 -1.40952 0.03762 34 42 49
2.02983 -1.41992 0.03443 55 63 90
2.04986 -1.43040 0.03047 61 66 112
2.04496 -1.44131 0.04275 36 42 68
2.04406 -1.45215 0.05241 14 14 29
2.04821 -1.46295 0.05883 25 16 18
2.05119 -1.47378 0.06602 67 52 35
2.06209 -1.48462 0.06818 125 104 70
2.10453 -1.51764 0.06886 135 116 103
2.09640 -1.53586 0.06931 94 76 73
2.16556 -1.57413 0.07740 86 70 64
2.15584 -1.57029 0.06002 95 81 78
2.18768 -1.58594 0.07322 70 49 48
2.19317 -1.59734 0.07929 62 43 42
2.20160 -1.60888 0.08361 64 50 54
2.22113 -1.62089 0.08125 71 56 68
2.21274 -1.63969 0.08171 93 80 76
2.22866 -1.63253 0.08622 81 68 76
2.22025 -1.65136 0.08668 92 81 77
2.23731 -1.64425 0.09055 88 77 74
2.22888 -1.66313 0.09101 93 81 75
2.79159 -1.91738 -0.03324 86 76 46
2.80128 -1.89568 -0.03376 91 78 68
2.79074 -1.90428 -0.04369 91 79 61
2.80308 -1.93163 -0.02860 76 57 33
2.84065 -1.94884 -0.03807 63 28 42
2.84581 -1.96258 -0.02983 58 26 45
2.85276 -1.98974 -0.01147 55 35 48
2.84295 -2.01174 -0.01093 34 4 19
2.86970 -2.00501 -0.00944 44 11 29
2.85984 -2.02709 -0.00890 30 5 12
2.87684 -2.01913 -0.00214 36 6 16
2.86697 -2.04125 -0.00160 33 5 15
2.88150 -2.04622 0.01763 39 7 20
2.87949 -2.05919 0.02979 52 32 31
2.86994 -2.07109 0.04586 87 74 50
2.87552 -2.08508 0.05405 103 93 70
2.87731 -2.09855 0.06420 89 82 77
2.88177 -2.11241 0.07300 113 101 98
2.85068 -2.12091 0.09993 151 138 142
2.81771 -2.12892 0.12765 182 166 167
2.81720 -2.14184 0.13882 201 179 156
2.81068 -2.15379 0.15300 178 143 100
2.83107 -2.17011 0.15371 137 93 38
2.82750 -2.18254 0.16641 103 74 25
2.82744 -2.19555 0.17737 72 60 26
2.82352 -2.20788 0.19020 40 26 42
2.81900 -2.22007 0.20332 39 18 50
2.81730 -2.23273 0.21503 45 21 56
2.79868 -2.24229 0.23490 53 36 82
2.77111 -2.25006 0.25898 67 60 115
2.77859 -2.26428 0.26616 94 86 140
2.77339 -2.27611 0.27939 125 114 157
2.76670 -2.28761 0.29330 127 129 158
2.75713 -2.30905 0.29382 66 58 64
2.77323 -2.30168 0.30095 119 139 157
2.77220 -2.31426 0.31217 134 164 175
2.77447 -2.32751 0.32184 154 184 185
2.77810 -2.34105 0.33089 176 199 203
2.76934 -2.35200 0.34566 199 222 231
2.78469 -2.36804 0.34934 211 227 232
2.77235 -2.37817 0.36570 213 223 226
2.79070 -2.39496 0.36811 195 201 198
2.78067 -2.40553 0.38337 146 145 151
2.76599 -2.41499 0.40065 126 122 108
2.77534 -2.42985 0.40717 155 134 93
2.70086 -2.42530 0.45078 187 191 156
2.75944 -2.45160 0.43554 157 154 106
2.73379 -2.45817 0.45739 136 135 103
2.73601 -2.47131 0.46701 92 92 84
2.74660 -2.48651 0.47301 29 17 62
2.69263 -2.48577 0.50677 140 163 170
2.68978 -2.49751 0.51844 194 201 196
2.68849 -2.52207 0.53987 194 193 196
2.67832 -2.53038 0.53029 194 192 192
2.69167 -2.53533 0.54897 197 201 199
2.69249 -2.54799 0.55907 197 197 197
2.64153 -2.55914 0.60087 197 198 206
2.64072 -2.54664 0.59091 195 193 201
2.63149 -2.56734 0.59141 191 193 198
2.62671 -2.56737 0.61722 206 207 202
2.63178 -2.58098 0.62542 183 169 159
2.60331 -2.58529 0.64716 140 107 80
2.59417 -2.60577 0.64766 108 86 68
2.55902 -2.60894 0.69522 126 113 87
2.54920 -2.61697 0.68596 133 119 96
2.53054 -2.61265 0.71647 120 98 77
2.50352 -2.61661 0.73700 113 90 69
2.49443 -2.67279 0.78993 109 92 84
2.48556 -2.69267 0.79042 149 140 111
1.45445 -2.53941 1.34031 173 143 128
1.46090 -2.52496 1.33995 179 155 143
1.45389 -2.53069 1.33335 176 156 132
1.44687 -2.53642 1.32674 171 146 122
1.46147 -2.53369 1.34691 177 149 136
1.46616 -2.55235 1.34371 207 180 166
1.46076 -2.55883 1.35258 241 238 233
1.45430 -2.57330 1.35294 243 242 243
1.52525 -2.61829 1.36142 252 251 248
1.51748 -2.61522 1.34753 236 236 236
1.51864 -2.63308 1.36178 253 253 253
1.54196 -2.63363 1.36364 252 251 239
1.53533 -2.64850 1.36400 254 254 251
1.55017 -2.64566 1.36851 249 245 216
1.56499 -2.66921 1.37883 243 231 203
1.58124 -2.68466 1.38145 233 215 189
1.59377 -2.69867 1.38523 218 196 163
1.58379 -2.70342 1.39557 197 171 115
1.57529 -2.70871 1.40543 179 148 113
1.56659 -2.71387 1.41530 170 133 118
1.56317 -2.72121 1.42363 171 134 106
1.56068 -2.72892 1.43169 179 148 119
1.55847 -2.74550 1.44701 187 170 147
1.55427 -2.75242 1.45549 195 177 151
1.54762 -2.76732 1.45586 170 136 117
1.55794 -2.78899 1.48385 202 177 130
1.54494 -2.80056 1.50183 186 156 115
1.55272 -2.80363 1.51576 89 72 61
1.53262 -2.80361 1.51224 175 145 103
1.54037 -2.80668 1.52610 80 66 49
1.51816 -2.80561 1.52312 158 128 76
1.52587 -2.80866 1.53692 74 56 43
1.51511 -2.81280 1.53110 144 105 47
1.52280 -2.81584 1.54487 68 49 44
1.51568 -2.82165 1.53817 123 78 31
1.57144 -2.86515 1.53916 65 57 29
1.57811 -2.85020 1.53879 62 49 48
1.57085 -2.85612 1.53195 92 59 23
1.56716 -2.88059 1.55484 75 58 47
2.23017 -3.27240 1.46140 73 67 46
2.22058 -3.26861 1.44424 91 80 56
2.22129 -3.27964 1.45304 99 94 77
2.22201 -3.29068 1.46185 109 106 92
2.24111 -3.28856 1.46800 71 59 42
2.23292 -3.30690 1.46845 105 101 80
2.27084 -3.31428 1.47065 65 52 32
2.27459 -3.32697 1.47891 60 47 23
2.28429 -3.33080 1.49628 45 31 13
2.32938 -3.37670 1.48575 48 36 16
2.33923 -3.38060 1.50337 44 33 29
2.33561 -3.39088 1.49368 46 32 18
2.34548 -3.39477 1.51132 48 35 30
2.33663 -3.40237 1.50267 50 29 17
2.34650 -3.40626 1.52032 52 40 23
2.33737 -3.41371 1.51172 54 32 12
1.31151 -0.90314 0.04251 52 46 64
1.30401 -0.90017 0.02909 61 62 69
1.30513 -0.91743 0.04285 63 72 74
1.36369 -0.97195 0.06674 78 79 86
1.36622 -0.98036 0.07218 88 87 97
1.36824 -0.98889 0.07804 118 116 124
1.37823 -0.99600 0.07760 147 143 141
1.38335 -1.00403 0.08105 160 158 165
1.38581 -1.01254 0.08661 168 167 176
1.38548 -1.02154 0.09438 172 169 171
1.40482 -1.02729 0.08677 160 151 142
1.42323 -1.03331 0.07999 151 130 112
1.42245 -1.04248 0.08820 157 139 130
1.41819 -1.05218 0.09908 167 149 147
1.42016 -1.06091 0.10514 181 159 154
1.42210 -1.06965 0.11123 190 164 151
1.42563 -1.07816 0.11611 196 176 150
1.41901 -1.09300 0.11647 210 191 173
1.42945 -1.08666 0.12079 203 183 167
1.43107 -1.09548 0.12716 212 191 184
1.43240 -1.10435 0.13375 215 201 187
1.43399 -1.11319 0.14015 210 202 192
1.44645 -1.12063 0.13838 169 165 163
1.42392 -1.13255 0.16287 122 96 121
1.43247 -1.14051 0.16406 86 70 74
1.42585 -1.15536 0.16442 96 87 78
1.48690 -1.19823 0.17754 68 68 53
1.51031 -1.21441 0.17608 11 12 21
1.50351 -1.22964 0.17645 15 11 12
1.98863 -1.41684 0.03863 10 13 27
1.97935 -1.41317 0.02202 13 14 20
1.98004 -1.42385 0.03054 11 11 19
1.98073 -1.43453 0.03906 11 9 18
1.99492 -1.42742 0.04348 6 9 30
2.00460 -1.43800 0.04614 7 7 33
2.01983 -1.44858 0.04524 13 4 22
2.03347 -1.45927 0.04544 40 21 30
2.04469 -1.47004 0.04728 87 66 49
2.05024 -1.48089 0.05282 143 126 89
2.08726 -1.50283 0.04744 155 138 107
2.06549 -1.51360 0.07047 118 99 89
2.05743 -1.53166 0.07091 94 79 72
2.07243 -1.52458 0.07523 97 75 75
2.06436 -1.54268 0.07568 97 82 77
2.14894 -1.58126 0.07365 93 78 71
2.13925 -1.57743 0.05630 96 81 80
2.13997 -1.58858 0.06520 95 80 77
2.14070 -1.59974 0.07410 95 80 73
2.17090 -1.59308 0.06946 89 73 64
2.16261 -1.61167 0.06992 94 80 73
2.19407 -1.60508 0.06465 89 73 60
2.18572 -1.62379 0.06511 94 79 73
2.20857 -1.61690 0.06525 91 78 63
2.20019 -1.63568 0.06571 94 79 75
2.78680 -1.91357 -0.05727 84 74 64
2.79650 -1.89183 -0.05780 90 79 61
2.78594 -1.90045 -0.06774 89 78 66
2.79798 -1.92780 -0.05251 71 44 43
2.83025 -1.94442 -0.05929 57 14 30
2.82045 -1.96637 -0.05876 43 4 12
2.83629 -1.95826 -0.05156 48 8 29
2.83728 -1.97154 -0.04104 50 26 30
2.84375 -1.98548 -0.03350 47 31 32
2.83393 -2.00750 -0.03296 30 4 11
2.85411 -1.99994 -0.02802 38 7 31
2.84426 -2.02200 -0.02748 32 5 9
2.87301 -2.05530 0.00632 39 9 27
2.86139 -2.05071 -0.01447 33 10 13
2.86226 -2.06408 -0.00381 35 14 22
2.87369 -2.06864 0.01708 49 23 39
2.86964 -2.08131 0.03032 79 66 41
2.86792 -2.09428 0.04232 93 78 46
2.85805 -2.11639 0.04286 92 74 50
2.87014 -2.10783 0.05226 91 74 56
2.86028 -2.12994 0.05280 101 79 60
2.87445 -2.12169 0.06113 105 80 66
2.86557 -2.13355 0.07679 117 95 81
2.84863 -2.14407 0.09651 124 106 101
2.83460 -2.15495 0.11466 128 112 109
2.81297 -2.16450 0.13658 148 128 118
2.81500 -2.17785 0.14648 170 148 113
2.81054 -2.19010 0.15964 184 163 123
2.81717 -2.20424 0.16724 180 158 115
2.80744 -2.22604 0.16777 110 92 85
2.80346 -2.21483 0.18495 126 91 61
2.78316 -2.22415 0.20582 142 119 84
2.77576 -2.23570 0.22027 171 143 75
2.76613 -2.25726 0.22079 199 188 131
2.76844 -2.24720 0.23463 169 133 46
2.76630 -2.25963 0.24644 154 112 35
2.76617 -2.27243 0.25727 124 86 35
2.76451 -2.28492 0.26882 90 72 46
2.76333 -2.29750 0.28014 73 68 60
2.76410 -2.32324 0.30126 67 55 75
2.76277 -2.33576 0.31262 70 60 98
2.73143 -2.34195 0.33796 84 66 116
2.73935 -2.35631 0.34493 101 80 143
2.74765 -2.37081 0.35177 117 95 171
2.75897 -2.38601 0.35726 122 107 197
2.74940 -2.40744 0.35778 55 49 55
2.76588 -2.40030 0.36481 122 113 182
2.75630 -2.42175 0.36533 58 50 59
2.76498 -2.41286 0.37593 119 121 156
2.77422 -2.42773 0.38247 126 147 161
2.66917 -2.41615 0.44026 161 196 191
2.66999 -2.42879 0.45035 175 200 202
2.74325 -2.45867 0.42836 157 166 155
2.70743 -2.46270 0.45476 110 112 103
2.73321 -2.48155 0.45402 59 52 59
2.73486 -2.49459 0.46390 43 21 49
2.68866 -2.49564 0.49448 146 154 150
2.68772 -2.50788 0.50536 195 200 200
2.69083 -2.52115 0.51450 196 194 190
2.69237 -2.54650 0.53479 187 190 197
2.67513 -2.55439 0.55250 186 189 195
2.66044 -2.56285 0.56904 189 191 194
2.64371 -2.58297 0.59668 194 196 198
2.65328 -2.59793 0.60309 185 177 171
2.61330 -2.59901 0.62969 142 116 95
2.57853 -2.61340 0.66413 119 106 87
2.56942 -2.63380 0.66462 138 121 102
2.55252 -2.62993 0.69471 132 113 89
2.54269 -2.63796 0.68545 139 122 96
2.53119 -2.63559 0.71317 127 105 80
2.52881 -2.64680 0.72411 124 100 80
2.51903 -2.65575 0.73791 122 97 82
2.50891 -2.66452 0.75178 122 98 83
2.50724 -2.68767 0.77229 122 107 84
2.49831 -2.70767 0.77278 172 164 130
1.43648 -2.54098 1.33726 194 168 139
1.44305 -2.55197 1.34225 233 234 214
1.43662 -2.56639 1.34260 254 254 253
1.45406 -2.56469 1.34586 251 252 247
1.55286 -2.66437 1.36605 254 254 250
1.54501 -2.66127 1.35200 254 254 254
1.54560 -2.67030 1.35921 254 254 254
1.54618 -2.67933 1.36642 254 254 254
1.55637 -2.67459 1.37238 254 253 247
1.54968 -2.68957 1.37275 254 254 253
1.55905 -2.68450 1.37898 253 250 243
1.55236 -2.69949 1.37934 254 254 251
1.56268 -2.70362 1.39270 244 238 199
1.55055 -2.70732 1.40360 240 229 192
1.55492 -2.73549 1.42444 207 182 132
1.54849 -2.74147 1.43360 186 158 114
1.55221 -2.75185 1.43991 169 140 122
1.54814 -2.79375 1.47771 189 170 152
1.54149 -2.80864 1.47807 171 136 115
1.52924 -2.81121 1.50452 207 184 141
1.52151 -2.81629 1.51374 204 179 128
1.51384 -2.82995 1.53014 188 153 85
1.50728 -2.84465 1.53050 202 181 133
1.50883 -2.83618 1.53860 174 140 76
1.50187 -2.84146 1.54750 155 130 69
1.51469 -2.85615 1.55159 145 119 56
1.54623 -2.88860 1.55857 117 83 42
1.55402 -2.89168 1.57252 75 65 69
1.54761 -2.89796 1.56554 112 80 48
1.55540 -2.90104 1.57949 81 75 77
1.54819 -2.90692 1.57269 101 81 72
2.30505 -3.39807 1.49865 81 59 44
2.31176 -3.41249 1.50644 80 52 31
2.32158 -3.41637 1.52401 56 35 13
2.30361 -3.41909 1.51722 73 41 19
2.31341 -3.42296 1.53474 57 41 21
2.29542 -3.42562 1.52796 66 44 18
2.30520 -3.42948 1.54544 57 45 32
2.27017 -3.43373 1.55100 61 43 24
2.27987 -3.43756 1.56835 62 51 31
2.27089 -3.44489 1.55990 62 44 24
1.30471 -0.90877 0.03586 64 75 73
1.29721 -0.90581 0.02244 73 78 88
1.29777 -0.91444 0.02932 66 70 78
1.36740 -0.96678 0.04393 84 87 81
1.36030 -0.97703 0.05714 97 100 93
1.35101 -0.98762 0.07205 129 126 133
1.37340 -0.99247 0.06161 152 152 162
1.38239 -0.99981 0.06195 165 160 173
1.37973 -1.00923 0.07159 169 168 185
1.37680 -1.01867 0.08141 177 179 203
1.37023 -1.02870 0.09409 190 189 205
1.37631 -1.03661 0.09680 196 191 196
1.38679 -1.04386 0.09609 183 171 162
1.40116 -1.05056 0.09240 179 154 131
1.40297 -1.05928 0.09855 188 163 143
1.39727 -1.06913 0.11052 195 169 162
1.40132 -1.07751 0.11494 199 177 165
1.39474 -1.09226 0.11530 207 193 177
1.40526 -1.08593 0.11946 204 185 169
1.40851 -1.10347 0.13208 210 195 187
1.40624 -1.12176 0.14891 148 115 137
1.39965 -1.13652 0.14927 95 77 74
1.42563 -1.14635 0.15699 95 80 75
1.41900 -1.16120 0.15736 94 86 77
1.45504 -1.17930 0.16559 98 84 77
1.45445 -1.17024 0.15837 96 88 86
1.46232 -1.17335 0.17245 100 86 82
1.46409 -1.18746 0.16658 80 75 71
1.50176 -1.20205 0.15441 20 18 34
1.49496 -1.21728 0.15478 10 10 16
1.49303 -1.21213 0.16853 8 8 29
1.48625 -1.22731 0.16890 11 12 11
1.99550 -1.44505 0.03833 21 14 21
2.01291 -1.45564 0.03594 52 32 37
2.03725 -1.46631 0.02911 111 87 74
2.04942 -1.47715 0.03032 156 137 103
2.04365 -1.49889 0.05233 136 115 97
2.03562 -1.51689 0.05276 94 80 73
2.04641 -1.50977 0.05968 107 88 77
2.03837 -1.52779 0.06012 96 82 77
2.05378 -1.52072 0.06409 93 77 67
2.04573 -1.53877 0.06453 97 82 80
2.78270 -1.90982 -0.08178 85 73 69
2.79242 -1.88804 -0.08231 89 76 70
2.78185 -1.89667 -0.09227 88 76 73
2.78537 -1.92316 -0.07231 77 62 61
2.81616 -1.93958 -0.07848 62 23 41
2.82528 -1.95376 -0.07249 50 4 19
2.81547 -1.97574 -0.07195 41 4 8
2.83318 -1.98104 -0.05470 41 9 13
2.82249 -1.98976 -0.06477 38 4 12
2.82336 -2.00305 -0.05416 33 5 17
2.83568 -1.99453 -0.04499 35 7 15
2.82585 -2.01655 -0.04445 28 5 7
2.87077 -2.07852 0.00280 34 13 35
2.85913 -2.07392 -0.01802 31 9 21
2.86618 -2.09112 0.01637 72 53 31
2.86832 -2.10468 0.02637 88 70 39
2.86354 -2.14366 0.06221 112 89 56
2.85280 -2.15243 0.05209 108 86 54
2.85367 -2.16578 0.06274 116 93 61
2.85559 -2.15560 0.07739 120 97 64
2.84574 -2.17768 0.07793 120 97 69
2.84484 -2.16704 0.09397 124 101 75
2.83502 -2.18905 0.09450 124 100 66
2.83438 -2.17845 0.11034 123 102 79
2.82458 -2.20040 0.11087 126 100 72
2.82067 -2.18923 0.12829 125 103 87
2.81090 -2.21111 0.12882 125 99 78
2.80712 -2.19996 0.14608 131 109 98
2.79336 -2.21056 0.16391 137 113 97
2.76382 -2.23111 0.20033 134 128 105
2.74914 -2.24126 0.21837 179 171 128
2.74597 -2.26627 0.24143 203 188 125
2.74240 -2.27837 0.25391 207 184 119
2.73797 -2.29026 0.26678 208 179 110
2.73484 -2.30239 0.27899 205 173 100
2.72529 -2.32378 0.27951 207 191 144
2.74414 -2.31702 0.28525 197 162 88
2.73069 -2.32701 0.30236 187 149 80
2.71276 -2.33596 0.32151 173 137 71
2.71917 -2.34998 0.32912 156 122 54
2.71934 -2.36269 0.33969 143 100 47
2.74237 -2.39313 0.35032 49 41 70
2.79130 -2.44261 0.36015 51 36 74
2.79800 -2.45705 0.36793 67 61 92
2.72791 -2.45327 0.41021 89 73 112
2.77653 -2.47763 0.39914 87 58 93
2.73658 -2.48069 0.42762 57 22 44
2.73742 -2.49357 0.43789 60 23 39
2.69863 -2.49654 0.46554 106 77 96
2.67959 -2.50426 0.48438 168 148 138
2.67020 -2.52528 0.48489 204 177 125
2.68854 -2.51903 0.49098 191 174 146
2.69339 -2.53279 0.49939 192 171 157
2.68912 -2.54418 0.51173 189 176 171
2.69385 -2.55794 0.52021 163 166 178
2.69210 -2.56997 0.53145 154 165 184
2.68139 -2.57955 0.54645 156 171 188
2.65121 -2.58372 0.56952 169 183 198
2.64469 -2.59426 0.58260 176 188 202
2.63339 -2.60342 0.59762 185 189 183
2.61547 -2.61062 0.61529 148 134 102
2.57575 -2.61145 0.64175 117 87 65
2.57155 -2.62234 0.65361 127 104 87
2.54824 -2.65160 0.69331 137 120 87
2.53760 -2.64740 0.67428 142 128 98
2.53839 -2.65964 0.68404 144 129 94
2.53919 -2.67188 0.69381 145 126 91
2.54128 -2.66150 0.70614 136 115 86
2.53225 -2.68174 0.70663 145 124 92
2.52533 -2.68052 0.73246 136 112 90
2.53022 -2.69396 0.74057 138 113 91
1.41919 -2.53431 1.32696 181 158 153
1.42559 -2.51997 1.32661 179 158 127
1.41863 -2.52565 1.32006 174 149 134
1.42016 -2.54312 1.33374 226 227 211
1.41376 -2.55746 1.33409 254 254 254
1.43355 -2.55672 1.33647 250 251 246
1.42712 -2.57113 1.33682 254 254 254
1.55031 -2.70742 1.38734 254 254 247
1.54245 -2.70432 1.37328 254 254 254
1.54304 -2.71336 1.38049 254 254 254
1.54362 -2.72240 1.38770 254 254 254
1.54698 -2.71480 1.39569 254 253 246
1.54031 -2.72976 1.39606 254 254 254
1.54531 -2.72287 1.40355 253 251 244
1.53864 -2.73781 1.40391 254 254 252
1.54331 -2.73077 1.41149 251 247 233
1.54434 -2.74874 1.42591 238 228 190
1.54147 -2.75623 1.43406 231 218 190
1.55151 -2.78695 1.45335 194 164 121
1.55562 -2.79757 1.45961 177 144 118
1.52626 -2.81035 1.48938 174 142 119
1.51967 -2.81597 1.49837 180 155 126
1.51472 -2.82231 1.50691 183 160 142
1.50814 -2.83705 1.50727 167 136 122
1.51379 -2.83050 1.51439 190 171 146
1.50722 -2.84524 1.51475 171 141 112
1.50572 -2.85250 1.53811 205 179 130
1.49578 -2.85630 1.54775 202 177 118
1.49298 -2.86350 1.55561 194 168 102
1.48646 -2.87812 1.55596 196 178 143
1.48883 -2.87002 1.56378 184 156 88
1.48232 -2.88462 1.56413 200 179 138
1.48092 -2.87467 1.57281 179 144 79
1.48013 -2.88278 1.58014 166 134 93
1.48776 -2.88580 1.59379 96 76 69
1.48070 -2.89156 1.58714 150 115 82
2.30564 -3.41056 1.48811 124 119 107
2.29581 -3.40668 1.47052 139 138 112
2.29654 -3.41799 1.47954 139 137 124
2.29728 -3.42929 1.48857 142 141 135
2.27085 -3.42468 1.52253 105 92 63
2.26257 -3.44323 1.52298 144 140 130
2.26911 -3.43455 1.53194 101 79 56
2.26084 -3.45308 1.53240 142 138 114
2.24678 -3.44397 1.55435 90 67 34
2.25644 -3.44779 1.57163 66 45 27
2.23002 -3.46685 1.58442 74 50 28
2.23963 -3.47064 1.60161 71 50 34
1.33813 -3.09326 1.84901 109 74 44
1.34533 -3.09610 1.86189 93 73 55
1.34436 -0.94005 0.02035 60 58 72
1.35085 -0.92551 0.02000 53 61 71
1.34379 -0.93127 0.01335 51 54 69
1.35142 -0.93429 0.02699 50 56 72
1.35662 -0.94651 0.01776 70 70 91
1.36732 -0.95335 0.01651 80 82 101
1.34568 -0.97532 0.04912 106 115 110
1.33920 -0.98984 0.04948 155 155 155
1.35919 -0.98170 0.04565 132 138 125
1.35267 -0.99630 0.04601 163 161 171
1.36746 -0.99806 0.05398 160 164 186
1.37780 -1.00519 0.05321 171 174 185
1.36846 -1.01575 0.06820 180 186 197
1.35776 -1.02648 0.08421 199 203 216
1.33978 -1.03833 0.10594 219 219 223
1.34408 -1.04646 0.10996 226 226 228
1.34924 -1.05449 0.11333 224 220 213
1.36737 -1.06053 0.10654 204 190 170
1.38050 -1.06745 0.10377 197 177 148
1.37394 -1.08213 0.10412 211 192 167
1.38036 -1.07642 0.11139 202 181 163
1.38529 -1.08464 0.11508 208 186 174
1.39434 -1.10130 0.12315 197 189 169
1.39207 -1.11058 0.13244 157 153 138
1.38550 -1.12531 0.13280 89 73 85
1.38527 -1.12044 0.14517 106 83 107
1.37872 -1.13513 0.14553 97 82 74
1.39422 -1.12823 0.14586 89 61 77
1.38765 -1.14296 0.14622 98 83 77
1.48652 -1.19961 0.14544 7 11 20
1.47974 -1.21480 0.14581 10 11 13
1.96220 -1.43100 0.02863 15 6 12
1.96151 -1.42035 0.02013 12 10 13
1.97173 -1.44154 0.03125 33 19 16
2.01397 -1.45185 0.01227 71 57 45
2.00598 -1.46976 0.01271 162 146 116
2.02119 -1.46262 0.01660 127 108 90
2.02531 -1.47344 0.02300 162 144 119
2.04002 -1.48430 0.02249 152 136 111
2.03165 -1.49515 0.03708 123 100 89
2.02363 -1.51314 0.03752 96 80 75
2.03135 -1.50600 0.04640 102 80 75
2.02333 -1.52398 0.04684 98 83 78
2.79222 -1.92057 -0.10311 83 67 53
2.78074 -1.91603 -0.12365 82 65 61
2.78160 -1.92924 -0.11311 81 63 50
2.78246 -1.94245 -0.10257 77 62 47
2.79367 -1.93384 -0.09290 76 60 51
2.81230 -1.94904 -0.09232 63 35 34
2.81942 -1.96303 -0.08522 49 5 20
2.80959 -1.98504 -0.08468 41 4 8
2.86520 -2.08806 -0.01011 23 7 29
2.85354 -2.08345 -0.03096 24 5 12
2.86992 -2.10203 -0.00146 68 51 23
2.86595 -2.11472 0.01180 86 63 35
2.85604 -2.13693 0.01234 86 66 44
2.86456 -2.12778 0.02369 90 71 45
2.77812 -2.21833 0.15634 129 99 78
2.76673 -2.21383 0.13596 125 101 74
2.76758 -2.22693 0.14642 129 102 79
2.76707 -2.22928 0.17277 116 88 65
2.75794 -2.24050 0.18817 85 62 55
2.75275 -2.25241 0.20157 95 84 95
2.74401 -2.26359 0.21669 122 110 116
2.72858 -2.27342 0.23505 146 132 131
2.73269 -2.29977 0.25450 191 176 158
2.72262 -2.31049 0.27010 202 187 149
2.69056 -2.34186 0.31744 214 192 129
2.69139 -2.35466 0.32765 212 191 120
2.68712 -2.36634 0.34025 202 178 100
2.70688 -2.38331 0.34159 159 129 72
2.70981 -2.39662 0.35086 126 99 56
2.70541 -2.40828 0.36353 171 153 87
2.72446 -2.42531 0.36538 181 137 73
2.68277 -2.42824 0.39512 159 107 53
2.68989 -2.44249 0.40243 159 116 40
2.67186 -2.45072 0.42115 163 130 64
2.69046 -2.46776 0.42330 159 120 61
2.69127 -2.48053 0.43349 159 118 56
2.67692 -2.48951 0.45043 177 147 55
2.66752 -2.51058 0.45094 215 188 136
2.67886 -2.50251 0.46008 202 179 125
2.66945 -2.52358 0.46060 214 188 130
2.68199 -2.51582 0.46922 208 182 129
2.68812 -2.54245 0.48759 195 166 133
2.67955 -2.55271 0.50182 167 140 123
2.70523 -2.57209 0.50130 97 73 94
2.70915 -2.58572 0.51019 68 39 91
2.69961 -2.59568 0.52480 65 56 101
2.67040 -2.60011 0.54764 85 86 139
2.64344 -2.60499 0.56938 102 115 165
2.63555 -2.61511 0.58305 124 136 164
2.59580 -2.61604 0.60984 112 105 109
2.58661 -2.63664 0.61034 29 24 28
2.57891 -2.62334 0.62703 97 87 83
2.56976 -2.64385 0.62753 51 56 57
2.57058 -2.63305 0.64063 114 108 94
2.54736 -2.63828 0.66023 134 123 101
2.53343 -2.71801 0.73633 165 147 110
1.40596 -2.52918 1.31542 175 148 140
1.41234 -2.51487 1.31507 176 156 134
1.40540 -2.52054 1.30853 175 152 131
1.40325 -2.53657 1.32340 217 201 207
1.41551 -2.54970 1.32641 247 245 246
1.40910 -2.56405 1.32676 254 254 254
1.52738 -2.75038 1.42185 254 253 245
1.52074 -2.76526 1.42221 254 254 254
1.53267 -2.76145 1.42769 254 252 244
1.52602 -2.77635 1.42805 254 254 253
1.53225 -2.77000 1.43514 252 249 237
1.53914 -2.78182 1.44057 247 242 218
1.54146 -2.80037 1.45464 231 216 183
1.53637 -2.80679 1.46336 224 205 172
1.51750 -2.80682 1.47574 214 190 148
1.51885 -2.81612 1.48267 196 169 123
1.51263 -2.82188 1.49158 182 149 112
1.50727 -2.82802 1.50024 170 133 121
1.49997 -2.85039 1.52382 174 146 118
1.49134 -2.85483 1.53320 180 155 133
1.48433 -2.86000 1.54213 185 164 142
1.47781 -2.87461 1.54248 169 139 114
1.48413 -2.86844 1.54936 190 171 141
1.46563 -2.89332 1.58237 198 171 122
1.47324 -2.89633 1.59598 140 110 56
1.46620 -2.90208 1.58935 191 163 106
2.26810 -3.46784 1.54005 138 133 98
2.25835 -3.46399 1.52262 151 145 147
2.25908 -3.47520 1.53156 153 154 142
2.25981 -3.48640 1.54050 152 157 140
2.27122 -3.48036 1.54853 131 125 87
2.25707 -3.48334 1.56030 123 107 74
2.23274 -3.48056 1.57388 112 94 56
2.25603 -3.50429 1.57857 108 86 56
2.23428 -3.50280 1.59156 101 74 49
2.21620 -3.51389 1.61270 95 60 24
2.22579 -3.51767 1.62986 79 51 33
2.21692 -3.52492 1.62150 90 52 15
2.17372 -3.51073 1.63784 81 55 32
2.18249 -3.50357 1.64609 78 56 39
2.18319 -3.51447 1.65479 80 60 45
2.16567 -3.52877 1.63828 114 84 60
1.28609 -3.05577 1.83636 181 149 86
1.33276 -3.09947 1.84254 156 122 58
1.32633 -3.10355 1.85018 141 104 56
1.32061 -0.94030 0.02010 68 63 87
1.34112 -0.94505 0.01055 78 76 89
1.33462 -0.95960 0.01091 118 122 124
1.36071 -0.95011 0.00187 87 89 92
1.35417 -0.96476 0.00223 140 140 145
1.35572 -0.96003 0.01351 101 105 107
1.34919 -0.97465 0.01386 150 148 163
1.33989 -0.97196 0.03399 124 124 137
1.36551 -1.00295 0.04312 174 176 190
1.35266 -1.01412 0.06100 194 197 206
1.32782 -1.02723 0.08843 210 213 218
1.32137 -1.04169 0.08878 239 242 245
1.33184 -1.05304 0.10746 240 242 247
1.33677 -1.06109 0.11098 241 245 245
1.34170 -1.06917 0.11451 230 230 223
1.35998 -1.07527 0.10758 213 201 182
1.36890 -1.09180 0.11558 207 190 178
1.37835 -1.09940 0.11574 177 170 168
1.36833 -1.11863 0.13852 83 73 92
1.36180 -1.13327 0.13888 95 84 79
1.42743 -1.17439 0.14638 76 76 55
1.46342 -1.17961 0.12699 38 44 31
1.45667 -1.19473 0.12736 14 9 19
1.46525 -1.18861 0.13335 15 13 36
1.45850 -1.20373 0.13372 12 10 12
1.93465 -1.42765 0.02440 17 9 18
1.94248 -1.41010 0.02397 12 12 17
1.93396 -1.41706 0.01595 12 9 18
1.95133 -1.43803 0.02211 44 21 27
1.99502 -1.44823 0.00184 92 71 48
1.99749 -1.45900 0.00926 145 129 99
2.01393 -1.48056 0.01654 143 126 105
2.00592 -1.49851 0.01698 95 79 69
2.01460 -1.49140 0.02521 111 92 81
2.00659 -1.50935 0.02564 95 82 70
2.02082 -1.50227 0.03024 95 75 71
2.01279 -1.52024 0.03068 98 83 75
2.80624 -1.95828 -0.10497 65 48 36
2.79470 -1.95372 -0.12562 77 62 49
2.82045 -1.97313 -0.10187 51 7 30
2.81060 -1.99520 -0.10133 42 4 7
2.87444 -2.09978 -0.03103 20 4 24
2.86273 -2.09515 -0.05198 22 4 8
2.87222 -2.11279 -0.01863 64 51 21
2.86485 -2.12500 -0.00350 83 62 33
2.85491 -2.14725 -0.00296 84 64 44
2.85964 -2.15076 0.02160 93 68 57
2.84885 -2.15957 0.01144 88 69 50
2.84973 -2.17298 0.02214 96 78 59
2.74979 -2.23661 0.16630 129 101 62
2.73845 -2.23213 0.14602 124 102 78
2.73930 -2.24518 0.15642 126 102 68
2.74143 -2.24794 0.18133 101 81 46
2.73735 -2.26001 0.19419 87 71 64
2.72680 -2.27081 0.21023 99 83 74
2.71781 -2.28184 0.22544 113 96 68
2.71159 -2.29336 0.23923 120 101 80
2.69948 -2.30365 0.25587 124 107 97
2.69487 -2.31539 0.26879 135 122 103
2.72147 -2.33362 0.26655 158 148 129
2.68924 -2.33955 0.29282 178 172 157
2.68027 -2.35027 0.30775 191 191 158
2.68110 -2.36306 0.31796 182 186 134
2.66934 -2.37307 0.33414 154 140 90
2.67213 -2.38626 0.34339 152 127 76
2.66467 -2.39714 0.35745 185 163 93
2.66221 -2.40912 0.36915 199 173 107
2.65280 -2.43019 0.36966 214 195 152
2.66539 -2.42239 0.37821 200 171 102
2.65598 -2.44348 0.37872 220 194 154
2.65399 -2.43223 0.39400 206 179 112
2.64461 -2.45325 0.39451 224 196 156
2.64742 -2.44315 0.40752 213 184 115
2.64691 -2.45549 0.41824 219 187 124
2.64925 -2.46853 0.42765 218 187 123
2.63988 -2.48952 0.42816 216 190 142
2.65398 -2.48217 0.43600 218 188 121
2.64460 -2.50318 0.43651 213 187 143
2.66130 -2.49650 0.44321 217 191 121
2.65191 -2.51754 0.44372 211 185 142
2.67684 -2.53802 0.46786 211 183 129
2.66576 -2.53365 0.44804 209 184 132
2.66659 -2.54639 0.45821 207 178 128
2.68165 -2.55182 0.47628 196 164 114
2.66857 -2.56085 0.49251 149 117 89
2.69688 -2.58101 0.49077 105 62 43
2.71353 -2.59815 0.49418 87 42 27
2.69769 -2.60637 0.51156 57 27 33
2.70129 -2.61995 0.52059 38 16 35
2.69710 -2.63133 0.53293 30 14 40
