ply
format ascii 1.0
element face 0
property list uchar int vertex_indices
element vertex 1343
property float x
property float y
property float z
property uchar diffuse_red
property uchar diffuse_green
property uchar diffuse_blue
end_header
2.70096 -2.46105 0.23838 68 67 85
2.48665 -2.68968 0.53811 125 98 78
2.47889 -2.68362 0.51861 124 98 81
2.47707 -2.69594 0.52770 121 98 80
2.47526 -2.70827 0.53679 134 109 78
2.49748 -2.70732 0.54297 133 112 76
2.50801 -2.72494 0.54798 132 110 78
2.49654 -2.74365 0.54665 108 82 67
2.49402 -2.73214 0.56115 113 84 69
2.48258 -2.75079 0.55983 115 94 57
2.49306 -2.74488 0.56999 119 94 55
2.48162 -2.76354 0.56867 136 114 57
2.41903 -2.77757 0.63619 143 112 68
2.41137 -2.77159 0.61695 140 113 67
2.40958 -2.78375 0.62592 144 114 69
2.42058 -2.79123 0.64410 119 87 59
2.42779 -2.80751 0.65027 78 58 38
2.41651 -2.82591 0.64896 80 76 39
2.43335 -2.83614 0.66545 69 62 32
2.39495 -2.83129 0.68564 110 92 61
2.38376 -2.84955 0.68435 138 119 68
1.37423 -2.64899 1.18798 182 156 132
1.36863 -2.64463 1.17394 181 153 137
1.37369 -2.65831 1.19435 193 182 167
1.36548 -2.67170 1.19340 194 198 197
1.26647 -2.70764 1.29150 180 185 178
1.26107 -2.70343 1.27794 183 188 185
1.25981 -2.71200 1.28426 182 186 182
1.26605 -2.71674 1.29766 165 161 156
1.26139 -2.73252 1.31072 138 144 154
1.25473 -2.73688 1.30349 134 138 140
1.25891 -2.74031 1.31728 153 167 171
1.14077 -2.90917 1.49854 172 182 184
1.14843 -2.89669 1.49943 172 179 181
1.14199 -2.90090 1.49244 171 179 185
1.13556 -2.90511 1.48545 172 180 184
1.13969 -2.91755 1.50463 164 161 152
1.14923 -2.93387 1.50941 115 95 99
1.14155 -2.94641 1.50852 98 89 80
1.22825 -3.24402 1.66241 147 129 121
1.23629 -3.23090 1.66334 153 132 122
1.22953 -3.23533 1.65599 151 131 120
1.23501 -3.23960 1.66975 152 131 124
1.23373 -3.24829 1.67617 148 131 119
1.22427 -3.25041 1.66897 140 125 120
1.22975 -3.25468 1.68272 146 131 115
1.22299 -3.25910 1.67538 139 126 118
1.37724 -0.93104 0.05923 46 44 59
1.36973 -0.94330 0.05837 48 50 52
1.39830 -0.96204 0.06639 54 43 71
1.39951 -0.95384 0.06034 49 43 61
1.41698 -0.96915 0.05955 65 56 75
1.41652 -0.97738 0.06516 78 75 70
1.42441 -0.98520 0.06538 92 91 74
1.45641 -0.99197 0.05015 108 105 95
1.49143 -0.99882 0.03312 110 103 97
1.49460 -1.00715 0.03657 112 100 89
1.48673 -1.02000 0.03565 138 125 98
1.49990 -1.01543 0.03868 121 108 91
1.49200 -1.02831 0.03777 137 123 103
1.49934 -1.02395 0.04454 129 117 102
1.49144 -1.03683 0.04362 144 126 117
1.49069 -1.04969 0.06651 157 139 130
1.48532 -1.04550 0.05301 157 135 128
1.48281 -1.06256 0.06560 177 158 146
1.48615 -1.05829 0.07486 169 150 146
1.47827 -1.07114 0.07395 187 167 155
1.48034 -1.06689 0.08399 180 163 147
1.47247 -1.07972 0.08308 195 176 164
1.45918 -1.08412 0.10812 198 179 170
1.45137 -1.09686 0.10721 209 191 189
1.45002 -1.09264 0.11925 206 187 190
1.44233 -1.10950 0.13487 216 196 197
1.43579 -1.11377 0.12777 223 207 197
1.45598 -1.12636 0.13743 219 207 196
1.45197 -1.13480 0.14534 181 179 172
1.45763 -1.14331 0.14739 117 90 106
1.44980 -1.15609 0.14648 94 81 80
1.46247 -1.15186 0.14995 89 68 79
1.45462 -1.16466 0.14904 96 83 79
1.50175 -1.19558 0.15418 79 79 44
1.50973 -1.18256 0.15510 96 83 64
1.50302 -1.18695 0.14781 93 83 61
1.51159 -1.20456 0.15396 44 58 25
1.52953 -1.21388 0.14900 19 14 33
1.52146 -1.22704 0.14807 15 7 12
1.53784 -1.22296 0.14979 14 7 17
1.52975 -1.23617 0.14885 13 8 12
2.05318 -1.44189 -0.02437 18 15 28
2.06284 -1.42614 -0.02325 14 13 20
2.05472 -1.43145 -0.03207 17 12 24
2.05573 -1.45275 -0.01890 65 51 45
2.05927 -1.46373 -0.01396 135 115 91
2.07356 -1.47590 -0.01485 169 150 122
2.07604 -1.49758 -0.00233 118 97 84
2.06630 -1.51348 -0.00346 97 78 79
2.08193 -1.50899 0.00145 100 78 71
2.07216 -1.52493 0.00032 96 82 73
2.90142 -2.01120 -0.17575 65 41 34
2.89302 -2.00466 -0.19683 75 57 49
2.91877 -2.02872 -0.17504 51 13 22
2.90639 -2.04892 -0.17647 36 5 10
3.01509 -2.19163 -0.12861 39 15 30
3.00642 -2.18487 -0.15038 24 8 13
3.00310 -2.20287 -0.11399 56 50 32
2.72885 -2.30763 0.12196 90 75 92
2.69414 -2.31070 0.14522 43 32 106
2.67341 -2.31780 0.16252 103 109 153
2.66331 -2.32803 0.17534 129 142 188
2.66398 -2.34156 0.18368 67 75 157
2.65220 -2.36078 0.18232 24 35 144
2.64613 -2.34928 0.19963 30 41 149
2.63440 -2.36843 0.19827 24 41 148
2.69719 -2.47332 0.24863 96 85 68
2.68906 -2.46698 0.22822 44 50 102
2.69529 -2.48623 0.25815 108 95 65
2.48163 -2.72409 0.54313 132 108 70
2.47384 -2.71802 0.52359 135 111 59
2.47202 -2.73037 0.53270 132 111 63
2.47020 -2.74273 0.54181 109 83 67
2.42354 -2.80308 0.62988 125 102 55
2.42725 -2.81782 0.63714 88 80 37
2.41595 -2.83626 0.63583 58 48 43
2.42902 -2.84477 0.65351 82 78 47
2.39646 -2.84257 0.67204 119 108 67
2.38523 -2.86089 0.67075 136 117 70
1.37752 -2.65942 1.17807 185 159 139
1.37190 -2.65504 1.16397 180 153 142
1.37674 -2.66864 1.18452 193 184 172
1.36850 -2.68209 1.18356 191 194 197
1.26494 -2.72461 1.28928 176 175 164
1.25953 -2.72039 1.27569 182 187 184
1.26202 -2.73215 1.29595 149 145 137
1.25409 -2.74511 1.29504 138 137 137
1.26138 -2.75054 1.30825 135 146 151
1.25470 -2.75491 1.30099 132 138 143
1.25344 -2.76350 1.30733 135 142 139
1.25766 -2.75754 1.31507 142 153 161
1.25311 -2.76399 1.32203 148 161 168
1.25149 -2.77233 1.32842 166 178 183
1.25023 -2.78090 1.33475 178 187 188
1.14181 -2.91894 1.49058 174 183 180
1.13658 -2.91486 1.47745 173 180 181
1.14433 -2.93004 1.49622 153 143 137
1.15368 -2.94631 1.50102 110 89 76
1.14596 -2.95890 1.50013 100 90 73
1.22859 -3.24468 1.64828 145 130 114
1.23665 -3.23153 1.64921 150 133 119
1.22987 -3.23597 1.64185 148 130 120
1.22309 -3.24040 1.63449 149 128 111
1.22159 -3.24853 1.65506 125 116 102
1.21035 -3.24870 1.66205 104 100 103
1.21537 -3.26277 1.66809 111 108 114
1.22084 -3.26703 1.68183 142 129 117
1.21558 -3.27274 1.67442 130 124 114
1.22105 -3.27701 1.68817 145 129 117
1.21430 -3.28143 1.68083 142 129 115
1.38666 -0.95839 0.05766 56 50 70
1.38786 -0.95021 0.05163 50 49 49
1.39082 -0.96627 0.06019 66 60 81
1.40236 -0.97379 0.05791 79 76 89
1.40666 -0.98175 0.06041 90 92 99
1.40668 -0.98995 0.06569 109 112 118
1.41897 -0.99761 0.06305 140 137 141
1.41996 -1.00582 0.06775 151 152 150
1.42704 -1.01381 0.06854 147 142 129
1.46759 -1.05441 0.06973 169 146 136
1.46100 -1.05872 0.06257 177 155 146
1.45975 -1.06719 0.06882 184 167 151
1.43025 -1.08865 0.11496 205 188 171
1.42758 -1.10541 0.12744 216 198 196
1.42107 -1.10967 0.12037 219 207 204
1.43028 -1.12217 0.13661 218 210 197
1.43395 -1.13059 0.13979 175 172 156
1.42618 -1.14327 0.13889 88 67 59
1.45084 -1.13914 0.13488 98 83 94
1.45395 -1.14765 0.13846 86 66 74
1.44611 -1.16044 0.13755 96 81 80
1.48973 -1.19116 0.14448 77 78 51
1.49768 -1.17818 0.14541 95 83 64
1.49099 -1.18255 0.13814 94 84 66
1.50448 -1.20025 0.14124 37 42 43
1.49647 -1.21331 0.14032 12 7 16
1.51425 -1.20927 0.14104 20 14 29
1.50621 -1.22238 0.14011 12 6 12
1.52077 -1.21824 0.14281 14 6 21
1.51271 -1.23139 0.14188 15 6 7
2.02671 -1.43485 -0.02984 26 14 25
2.03631 -1.41919 -0.02873 16 12 19
2.02824 -1.42447 -0.03750 18 12 19
2.02383 -1.44510 -0.02144 56 46 42
2.03628 -1.45691 -0.02149 122 109 84
2.06982 -1.47104 -0.03308 161 149 117
2.06178 -1.48086 -0.02176 153 138 114
2.05779 -1.49110 -0.01268 118 99 92
2.04808 -1.50695 -0.01380 97 76 81
2.06198 -1.50227 -0.00804 99 75 82
2.05225 -1.51814 -0.00917 97 81 77
2.90573 -2.02115 -0.19402 65 44 36
2.89730 -2.01458 -0.21517 74 58 49
2.91996 -2.03808 -0.19187 49 17 22
2.90755 -2.05833 -0.19330 36 5 12
2.99582 -2.19647 -0.13633 32 12 23
2.98717 -2.18972 -0.15806 17 5 14
2.99824 -2.21133 -0.12821 51 45 24
2.99285 -2.22421 -0.11655 66 54 39
3.00150 -2.23096 -0.09482 78 59 47
2.99083 -2.23794 -0.10642 75 54 47
2.98015 -2.24493 -0.11802 70 52 44
2.74660 -2.30895 0.09046 115 94 86
2.75863 -2.28932 0.09185 117 92 67
2.74851 -2.29594 0.08086 118 91 67
2.73840 -2.30256 0.06987 119 95 78
2.72912 -2.31730 0.10666 52 42 114
2.71522 -2.32663 0.12128 56 58 141
2.68403 -2.33058 0.14312 101 125 182
2.68666 -2.34480 0.15069 64 84 157
2.67479 -2.36418 0.14932 20 28 131
2.66497 -2.35145 0.16839 28 35 140
2.65316 -2.37072 0.16703 21 38 134
2.68756 -2.48002 0.23758 75 72 77
2.67942 -2.47368 0.21716 24 40 117
2.69338 -2.49561 0.24406 97 90 65
2.70153 -2.50196 0.26452 114 98 69
2.69147 -2.50854 0.25360 108 97 67
2.44410 -2.74446 0.55907 116 90 57
2.43636 -2.73843 0.53965 108 81 53
2.43467 -2.75337 0.57066 137 110 58
2.44239 -2.75939 0.59004 141 113 67
2.43287 -2.76562 0.57969 143 113 68
2.42334 -2.77185 0.56935 141 111 69
2.42334 -2.80049 0.60813 138 114 67
2.42514 -2.78826 0.59911 136 115 68
2.41563 -2.79448 0.58877 140 113 73
2.41383 -2.80671 0.59780 140 113 74
2.42075 -2.81236 0.61741 108 87 50
2.44150 -2.83500 0.61923 57 49 31
2.43012 -2.85357 0.61791 64 67 43
2.43788 -2.85962 0.63738 67 56 51
2.41916 -2.86393 0.65174 107 95 56
2.40783 -2.88241 0.65043 136 115 75
1.37304 -2.66538 1.16995 185 161 149
1.36742 -2.66100 1.15584 178 153 139
1.37516 -2.67632 1.17572 194 185 178
1.36690 -2.68979 1.17476 189 193 193
1.26788 -2.73510 1.28003 179 183 173
1.26245 -2.73086 1.26639 182 187 186
1.26280 -2.74128 1.28718 163 159 146
1.25651 -2.77493 1.31282 136 145 148
1.25109 -2.77070 1.29921 136 142 141
1.24982 -2.77931 1.30555 139 142 147
1.25218 -2.78152 1.31976 148 158 169
1.25253 -2.79119 1.32580 174 185 188
1.25795 -2.79541 1.33941 181 186 188
1.25126 -2.79979 1.33215 181 186 189
1.24457 -2.80416 1.32488 181 185 188
1.21174 -2.82945 1.37575 165 168 176
1.21959 -2.81664 1.37666 178 184 188
1.21299 -2.82096 1.36949 179 184 184
1.20513 -2.83377 1.36858 161 166 168
1.21709 -2.83362 1.38919 162 167 173
1.21049 -2.83794 1.38202 161 169 170
1.14713 -2.93197 1.48199 176 179 175
1.14187 -2.92787 1.46879 174 180 177
1.14921 -2.94280 1.48770 139 119 124
1.15952 -2.95988 1.49237 107 86 66
1.15176 -2.97254 1.49148 102 91 76
1.23028 -3.25634 1.64035 141 117 96
1.22477 -3.25204 1.62652 146 127 106
1.21496 -3.25307 1.64770 96 88 69
1.20692 -3.26619 1.64677 51 48 51
1.21732 -3.26489 1.65390 48 51 69
1.21477 -3.27251 1.66039 61 67 79
1.20570 -3.27444 1.66726 111 111 101
1.20536 -3.28394 1.67361 138 127 117
1.21083 -3.28821 1.68734 146 129 119
1.20408 -3.29262 1.68001 143 129 118
1.19734 -3.29704 1.67268 142 126 117
1.33650 -0.90943 0.04373 32 35 53
1.34392 -0.89733 0.04459 28 31 49
1.33768 -0.90140 0.03782 30 32 45
1.33144 -0.90548 0.03104 41 40 57
1.32908 -0.92153 0.04288 51 58 71
1.33911 -0.91716 0.04710 43 45 58
1.33168 -0.92928 0.04624 50 55 63
1.37095 -0.94695 0.04650 49 51 63
1.37215 -0.93880 0.04049 44 50 57
1.37915 -0.95452 0.04628 58 58 69
1.38412 -0.96233 0.04823 69 71 80
1.38834 -0.97023 0.05070 79 76 87
1.39555 -0.97800 0.05123 88 87 97
1.39061 -0.98642 0.05974 107 114 110
1.40917 -0.99374 0.05290 138 138 141
1.41056 -1.00191 0.05731 153 155 171
1.40925 -1.01021 0.06349 163 167 172
1.40801 -1.01851 0.06962 169 170 171
1.40179 -1.02697 0.07896 167 162 153
1.43548 -1.03418 0.06262 157 145 135
1.45573 -1.04198 0.05504 153 133 124
1.45252 -1.05048 0.06254 164 140 131
1.42156 -1.08458 0.10386 202 180 172
1.41628 -1.08047 0.09062 200 180 166
1.41505 -1.08883 0.09679 207 185 177
1.41297 -1.09301 0.11466 207 188 176
1.40525 -1.10560 0.11376 217 204 190
1.41097 -1.10136 0.12129 213 196 190
1.40808 -1.11804 0.13387 214 208 191
1.41955 -1.12642 0.13214 167 161 143
1.41180 -1.13906 0.13124 88 71 73
1.43514 -1.13491 0.12790 92 78 67
1.44761 -1.15197 0.13115 94 80 75
1.44101 -1.15628 0.12399 95 80 80
1.43977 -1.16476 0.13024 97 81 86
1.47304 -1.18665 0.13770 77 76 60
1.48097 -1.17371 0.13862 97 83 74
1.47430 -1.17807 0.13138 95 83 70
1.49319 -1.19583 0.13107 32 37 49
1.48520 -1.20886 0.13015 7 10 14
1.50205 -1.20479 0.13133 15 11 32
1.49404 -1.21787 0.13041 9 10 7
1.99819 -1.42766 -0.03392 22 12 14
2.00773 -1.41210 -0.03281 16 13 21
1.99971 -1.41735 -0.04152 16 13 21
2.01065 -1.43935 -0.03414 49 40 36
2.02069 -1.45087 -0.03295 113 101 82
2.04610 -1.47472 -0.03338 148 135 100
2.04024 -1.48473 -0.02327 114 97 74
2.03056 -1.50052 -0.02439 95 80 77
2.04483 -1.49590 -0.01891 97 74 73
2.03513 -1.51172 -0.02003 96 81 78
2.89833 -2.02861 -0.20676 65 47 37
2.88990 -2.02203 -0.22793 73 58 54
2.91297 -2.04567 -0.20486 50 23 22
2.97697 -2.20136 -0.14417 25 10 21
2.96833 -2.19463 -0.16586 13 5 11
2.99393 -2.21997 -0.14273 44 35 26
2.99012 -2.23327 -0.13177 62 51 35
2.97740 -2.25403 -0.13324 66 51 39
2.73734 -2.31582 0.07910 91 79 100
2.72530 -2.33545 0.07771 21 30 121
2.73283 -2.32805 0.08981 36 35 125
2.70180 -2.33217 0.11181 66 94 153
2.67423 -2.33715 0.13221 47 77 143
2.66236 -2.35650 0.13084 20 22 118
2.69744 -2.52077 0.23635 100 92 62
2.70562 -2.52715 0.25689 114 99 68
2.69553 -2.53375 0.24592 111 95 65
2.43386 -2.76346 0.55738 135 108 60
2.42251 -2.78198 0.55607 140 113 71
2.41046 -2.81822 0.60733 117 92 55
2.40275 -2.81221 0.58799 142 114 69
2.42356 -2.83737 0.61154 73 64 36
2.42731 -2.86540 0.62731 71 73 47
2.42103 -2.87558 0.63780 106 94 59
1.37319 -2.67408 1.16070 185 165 158
1.36755 -2.66968 1.14655 179 155 135
1.37383 -2.68418 1.16682 194 190 185
1.36555 -2.69768 1.16586 186 192 187
1.26674 -2.74303 1.27158 181 185 182
1.26129 -2.73879 1.25790 182 187 188
1.26002 -2.74743 1.26428 182 186 188
1.26758 -2.75304 1.27752 173 173 163
1.26711 -2.76221 1.28373 143 140 140
1.26584 -2.77086 1.29011 133 136 142
1.25911 -2.77526 1.28281 131 131 134
1.25688 -2.79343 1.31027 143 150 159
1.24890 -2.80645 1.30935 176 187 187
1.24985 -2.79823 1.31776 172 185 188
1.24188 -2.81123 1.31684 181 185 186
1.15049 -2.94362 1.47359 173 170 167
1.16745 -2.96574 1.47731 120 98 113
1.15965 -2.97847 1.47641 102 89 80
1.17082 -2.97768 1.48292 104 86 73
1.16300 -2.99043 1.48202 104 93 79
1.23398 -3.26978 1.63223 135 116 99
1.22844 -3.26547 1.61834 147 125 103
1.21226 -3.26098 1.64009 91 82 71
1.20420 -3.27412 1.63916 56 54 63
1.20562 -3.27486 1.65319 62 65 56
1.20056 -3.28026 1.65983 106 107 83
1.19904 -3.28873 1.66625 134 125 109
1.19101 -3.30183 1.66532 141 128 113
1.35943 -0.94336 0.03789 52 51 58
1.36063 -0.93524 0.03190 48 51 58
1.37330 -0.95054 0.03381 61 63 72
1.38692 -0.95783 0.02995 71 75 84
1.38452 -0.96612 0.03680 81 79 91
1.38084 -0.97446 0.04451 91 88 102
1.38719 -0.98229 0.04556 107 111 130
1.40193 -0.98976 0.04112 137 139 154
1.40311 -0.99794 0.04565 151 155 170
1.40307 -1.00617 0.05099 160 165 181
1.40165 -1.01447 0.05724 167 170 183
1.40004 -1.02278 0.06361 173 180 183
1.39412 -1.03122 0.07278 186 188 185
1.38878 -1.03961 0.08155 194 193 181
1.39429 -1.04770 0.08330 191 180 159
1.42187 -1.05532 0.07089 184 163 118
1.41413 -1.06795 0.06999 205 194 161
1.41659 -1.06378 0.07966 183 167 139
1.41536 -1.07214 0.08583 190 172 158
1.40886 -1.07639 0.07877 203 181 145
1.39122 -1.09736 0.11727 213 192 182
1.38477 -1.10158 0.11027 218 203 180
1.40058 -1.11394 0.12208 209 206 196
1.40111 -1.12228 0.12713 159 145 140
1.39340 -1.13486 0.12624 88 73 71
1.41806 -1.13071 0.12192 88 77 69
1.41030 -1.14337 0.12102 95 84 78
1.45050 -1.17348 0.12913 90 82 78
1.45712 -1.16915 0.13632 93 82 76
1.45781 -1.18220 0.13016 74 75 63
1.47875 -1.19134 0.12290 26 32 38
1.47079 -1.20433 0.12198 11 10 17
1.48507 -1.20018 0.12463 10 10 31
1.47709 -1.21321 0.12371 9 10 11
1.97557 -1.42109 -0.04108 18 12 28
1.98506 -1.40561 -0.03998 13 14 21
1.97709 -1.41083 -0.04865 12 13 22
1.98223 -1.43214 -0.03813 41 33 35
2.00555 -1.44491 -0.04455 94 86 76
2.01288 -1.45619 -0.04188 133 123 91
2.01771 -1.46726 -0.03777 133 123 94
2.00808 -1.48297 -0.03889 94 82 74
2.01589 -1.47764 -0.02993 108 99 72
2.00626 -1.49335 -0.03104 94 81 77
2.02596 -1.48936 -0.02870 96 82 71
2.01630 -1.50512 -0.02981 95 82 75
2.90517 -2.03921 -0.22644 66 50 40
2.89670 -2.03261 -0.24770 72 57 54
2.90512 -2.05308 -0.21746 52 30 28
2.90675 -2.06734 -0.20929 36 7 19
2.91524 -2.07396 -0.18800 28 7 10
2.90477 -2.08080 -0.19936 27 7 11
2.89431 -2.08764 -0.21072 27 5 9
2.95107 -2.20442 -0.14870 21 9 21
2.94246 -2.19771 -0.17031 14 5 6
2.97527 -2.22490 -0.15069 38 30 30
2.98407 -2.24149 -0.14552 56 49 32
2.97133 -2.26227 -0.14699 62 50 34
2.76370 -2.31971 0.04343 108 94 81
2.77583 -2.29991 0.04483 112 90 72
2.76563 -2.30658 0.03375 110 90 81
2.73629 -2.32517 0.06417 50 51 105
2.72423 -2.34485 0.06278 13 28 116
2.71591 -2.34616 0.09052 25 49 129
2.70581 -2.35277 0.07955 15 29 119
2.70390 -2.36576 0.08913 18 26 117
2.68602 -2.35045 0.11207 19 31 115
2.67409 -2.36990 0.11069 22 28 121
2.67100 -2.50796 0.22313 47 55 76
2.66095 -2.51453 0.21221 40 38 73
2.70243 -2.54646 0.22822 103 94 63
2.71064 -2.55286 0.24885 117 97 65
2.70051 -2.55949 0.23784 114 96 67
2.40740 -2.82743 0.59488 122 93 52
2.39968 -2.82141 0.57550 138 115 69
2.42342 -2.84801 0.59810 74 53 30
2.42161 -2.86032 0.60718 56 47 27
2.41980 -2.87263 0.61626 68 55 32
2.40990 -2.88108 0.62792 106 87 60
2.39855 -2.89960 0.62661 141 114 68
2.39757 -2.88828 0.64032 137 116 72
2.40529 -2.89430 0.65970 141 112 73
2.39577 -2.90053 0.64936 141 113 72
2.38624 -2.90676 0.63901 141 113 77
1.37386 -2.68313 1.15126 187 172 156
1.36821 -2.67872 1.13707 179 155 133
1.36557 -2.69666 1.15030 198 199 183
1.37807 -2.69538 1.15652 196 195 182
1.36976 -2.70894 1.15556 186 191 186
1.26604 -2.76079 1.26911 178 181 175
1.26058 -2.75653 1.25540 183 187 190
1.27003 -2.77287 1.27441 149 148 143
1.26200 -2.78598 1.27348 130 130 132
1.25909 -2.78474 1.28893 132 138 139
1.25697 -2.79284 1.29549 141 148 154
1.24816 -2.79648 1.30338 159 166 172
1.24018 -2.80950 1.30246 180 187 185
1.15555 -2.94727 1.45886 175 181 177
1.16333 -2.93459 1.45976 176 181 181
1.15679 -2.93886 1.45266 174 180 184
1.15025 -2.94314 1.44555 174 178 187
1.15722 -2.95788 1.46465 164 160 155
1.17859 -2.98348 1.46774 114 91 96
1.17073 -2.99630 1.46683 101 90 88
1.28121 -3.21022 1.54954 131 115 104
1.28946 -3.19676 1.55049 133 117 106
1.28252 -3.20130 1.54296 129 114 100
1.28815 -3.20569 1.55707 137 122 110
1.28683 -3.21461 1.56366 142 127 108
1.28189 -3.22078 1.55592 135 120 104
1.28751 -3.22517 1.57005 145 131 107
1.28057 -3.22971 1.56251 141 128 109
1.23377 -3.27994 1.62434 125 109 99
1.20203 -3.26242 1.63297 78 69 79
1.19441 -3.27541 1.64614 69 72 65
1.19512 -3.29564 1.65875 129 118 102
1.18708 -3.30875 1.65782 139 127 113
1.35018 -0.93965 0.02783 48 54 68
1.35137 -0.93153 0.02184 47 55 63
1.37520 -0.95419 0.02135 75 77 83
1.38085 -0.96199 0.02280 81 85 90
1.37690 -0.97036 0.03069 92 94 99
1.37218 -0.97876 0.03909 119 114 118
1.38188 -0.98642 0.03788 138 139 150
1.38730 -0.99435 0.03956 153 155 169
1.38807 -1.00252 0.04434 160 165 178
1.39259 -1.01055 0.04665 166 171 181
1.39101 -1.01884 0.05299 178 179 189
1.38245 -1.02737 0.06391 188 192 202
1.36844 -1.03601 0.07836 206 208 213
1.34726 -1.04478 0.09742 223 224 226
1.34536 -1.05295 0.10389 226 228 220
1.35759 -1.06081 0.10121 222 221 194
1.37765 -1.09336 0.10948 211 189 179
1.37887 -1.08509 0.10338 206 182 165
1.37122 -1.09757 0.10249 212 200 182
1.38025 -1.10989 0.11848 206 195 177
1.38334 -1.11818 0.12187 146 126 127
1.37566 -1.13069 0.12098 89 80 61
1.39887 -1.12653 0.11741 87 76 74
1.39115 -1.13913 0.11651 95 84 61
1.43797 -1.16916 0.12011 91 84 78
1.43922 -1.16067 0.11384 93 83 74
1.44227 -1.17778 0.12293 71 74 69
1.46328 -1.18685 0.11547 23 31 27
1.45535 -1.19980 0.11455 12 8 17
1.46328 -1.19547 0.12102 12 7 27
1.45535 -1.20842 0.12010 10 10 11
1.95975 -1.41518 -0.05195 17 11 13
1.96922 -1.39975 -0.05085 15 17 22
1.96126 -1.40495 -0.05949 21 18 18
1.95331 -1.41016 -0.06814 25 23 25
1.96264 -1.42584 -0.04691 34 30 36
1.98059 -1.43800 -0.05044 83 69 70
1.97106 -1.45355 -0.05155 101 92 82
1.98900 -1.44932 -0.04848 110 101 88
1.99240 -1.46017 -0.04364 116 104 83
1.98282 -1.47579 -0.04474 94 81 75
1.99598 -1.47108 -0.03888 104 93 76
1.98639 -1.48672 -0.03999 92 81 75
2.89497 -2.04610 -0.23791 66 52 41
2.88650 -2.03950 -0.25917 70 54 49
2.88452 -2.05293 -0.24926 65 51 42
2.89637 -2.06030 -0.22965 54 35 32
2.90837 -2.07696 -0.22652 38 10 25
2.89589 -2.09731 -0.22796 27 4 10
2.94284 -2.21198 -0.16135 19 7 15
2.93423 -2.20527 -0.18297 13 4 5
2.93222 -2.21893 -0.17289 15 6 7
2.95281 -2.22879 -0.15683 32 21 23
2.97384 -2.24863 -0.15737 50 47 23
2.77452 -2.31892 0.01421 108 88 76
2.78672 -2.29903 0.01562 104 87 74
2.77647 -2.30574 0.00448 100 82 70
2.76621 -2.31244 -0.00666 96 78 66
2.76901 -2.33104 0.02551 71 62 84
2.75683 -2.35092 0.02410 17 26 108
2.75030 -2.33913 0.04258 24 25 106
2.73816 -2.35892 0.04117 15 28 120
2.67251 -2.53228 0.21633 63 55 59
2.66434 -2.52590 0.19581 30 31 89
2.69360 -2.55356 0.21668 86 83 63
2.70173 -2.57027 0.22230 103 94 66
2.70997 -2.57670 0.24299 119 97 67
2.69980 -2.58335 0.23195 112 96 71
2.41326 -2.84084 0.57942 137 110 51
2.40551 -2.83480 0.55996 136 111 67
2.40369 -2.84710 0.56903 133 108 59
2.40188 -2.85940 0.57811 126 101 60
2.41494 -2.85479 0.58734 129 98 42
2.40356 -2.87336 0.58602 118 95 71
2.41605 -2.86848 0.59547 121 92 48
2.40465 -2.88707 0.59415 119 99 70
2.41791 -2.88256 0.60336 121 91 44
2.40650 -2.90117 0.60204 128 106 63
2.40688 -2.89046 0.61544 131 101 53
2.39551 -2.90902 0.61412 138 112 63
1.37687 -2.69361 1.14118 190 176 157
1.36854 -2.70719 1.14022 195 200 186
1.28224 -2.78009 1.25686 178 179 179
1.27673 -2.77579 1.24302 182 185 187
1.27024 -2.78184 1.26559 152 149 148
1.25756 -2.79258 1.28054 129 136 138
1.25296 -2.79904 1.28762 153 164 171
1.24495 -2.81211 1.28670 180 189 190
1.25369 -2.80905 1.29361 176 184 189
1.24567 -2.82213 1.29268 180 185 186
1.15971 -2.95964 1.45019 177 181 175
1.15439 -2.95549 1.43682 176 179 185
1.16805 -2.97536 1.45504 151 142 135
1.18677 -2.99909 1.45847 109 86 84
1.17886 -3.01199 1.45755 102 91 92
1.27738 -3.20731 1.53523 121 107 87
1.28564 -3.19384 1.53619 125 111 100
1.27870 -3.19838 1.52865 121 106 91
1.27176 -3.20292 1.52111 116 101 81
1.27556 -3.21582 1.54187 110 100 92
1.27713 -3.22713 1.54816 101 98 99
1.27780 -3.23771 1.55456 115 115 113
1.28344 -3.24211 1.56871 144 131 112
1.27849 -3.24833 1.56096 134 126 112
1.28414 -3.25272 1.57512 147 131 114
1.27718 -3.25728 1.56756 141 126 108
1.27022 -3.26183 1.56000 136 120 100
1.24930 -3.29378 1.60874 150 126 91
1.25751 -3.28038 1.60969 147 125 111
1.25061 -3.28490 1.60219 150 125 110
1.24371 -3.28941 1.59470 148 128 105
1.20148 -3.26242 1.61883 99 86 58
1.19342 -3.27557 1.61790 32 30 34
1.20006 -3.27101 1.62527 52 45 57
1.19710 -3.27826 1.63182 59 51 61
1.18496 -3.27745 1.63899 81 75 68
1.18466 -3.28698 1.64532 100 92 80
1.19185 -3.30315 1.65118 123 113 100
1.33383 -0.93644 0.02267 53 54 73
1.33502 -0.92836 0.01671 48 55 68
1.34465 -0.94372 0.02045 62 63 83
1.36133 -0.95881 0.01950 86 85 91
1.37051 -0.96640 0.01852 95 97 103
1.36535 -0.97482 0.02723 113 120 126
1.36794 -0.98282 0.03073 134 138 149
1.37808 -0.99049 0.02919 147 152 173
1.37881 -0.99864 0.03397 155 161 173
1.37553 -1.00697 0.04143 164 169 175
1.37704 -1.01511 0.04570 175 181 186
1.36410 -1.02378 0.05955 196 199 208
1.35643 -1.03220 0.06987 209 213 220
1.34180 -1.04078 0.08474 219 226 232
1.33803 -1.04900 0.09243 234 236 242
1.33726 -1.05713 0.09816 241 241 243
1.33613 -1.06528 0.10413 242 242 239
1.33373 -1.07344 0.11092 236 240 229
1.33559 -1.08154 0.11494 224 223 199
1.34927 -1.08954 0.11135 215 200 166
1.36202 -1.10587 0.11372 199 190 169
1.36249 -1.11411 0.11872 135 104 111
1.38259 -1.12241 0.11122 83 70 58
1.37490 -1.13495 0.11033 96 83 73
1.41961 -1.16475 0.11483 88 85 64
1.42743 -1.15200 0.11573 95 83 75
1.42085 -1.15630 0.10859 94 82 75
1.42647 -1.17338 0.11599 72 70 51
1.44538 -1.18234 0.10969 21 23 43
1.43748 -1.19522 0.10877 11 9 16
1.45370 -1.19114 0.11003 9 5 20
1.44578 -1.20407 0.10911 10 9 12
1.94659 -1.41990 -0.05758 33 29 25
1.96622 -1.43217 -0.06222 72 66 53
1.97379 -1.44336 -0.05985 97 89 74
1.96426 -1.45892 -0.06095 95 87 76
1.97860 -1.46482 -0.04911 97 86 80
1.97057 -1.47008 -0.05784 95 85 77
1.96905 -1.48042 -0.05021 94 83 73
2.89487 -2.06918 -0.24541 56 39 31
2.88637 -2.06256 -0.26674 64 49 42
2.90051 -2.08443 -0.23920 41 16 23
2.88802 -2.10480 -0.24064 27 6 15
2.94445 -2.23637 -0.16948 23 13 10
2.93581 -2.22963 -0.19117 10 4 5
2.97229 -2.25809 -0.17328 44 42 14
2.97458 -2.27307 -0.16510 57 48 29
2.98329 -2.27987 -0.14323 68 51 42
2.97255 -2.28690 -0.15490 65 48 40
2.96180 -2.29392 -0.16657 60 47 33
2.78527 -2.33191 -0.00630 86 71 67
2.77301 -2.35191 -0.00772 22 25 98
2.79091 -2.34746 0.00010 40 31 80
2.77863 -2.36750 -0.00132 16 28 116
2.66168 -2.53860 0.20568 43 34 69
2.65160 -2.54519 0.19473 30 24 69
2.67438 -2.55689 0.20934 66 57 62
2.69639 -2.57870 0.20931 89 83 58
2.70355 -2.59517 0.21534 104 95 65
2.71182 -2.60161 0.23610 116 98 70
2.70162 -2.60829 0.22502 114 99 62
1.38235 -2.69581 1.12407 180 155 133
1.39071 -2.68217 1.12504 179 155 135
1.38368 -2.68677 1.11740 181 155 128
1.37665 -2.69137 1.10977 180 155 129
1.37881 -2.70353 1.13130 190 177 160
1.37046 -2.71716 1.13033 188 193 182
1.28590 -2.79137 1.24718 173 168 175
1.28037 -2.78706 1.23329 182 186 189
1.26650 -2.78826 1.25758 148 141 147
1.25843 -2.79250 1.26546 137 140 139
1.25968 -2.80288 1.27134 140 149 151
1.25163 -2.81601 1.27041 178 187 191
1.26485 -2.81589 1.27642 169 179 188
1.25678 -2.82906 1.27548 181 188 187
1.16453 -2.97258 1.44135 178 180 170
1.15918 -2.96841 1.42792 177 180 180
1.16594 -2.98310 1.44722 136 122 118
1.15808 -2.99592 1.44631 104 87 78
1.19291 -3.01325 1.44940 105 87 72
1.18496 -3.02621 1.44848 105 93 88
1.27201 -3.21314 1.52752 111 93 72
1.26638 -3.20875 1.51339 109 96 74
1.26966 -3.22122 1.53422 77 70 70
1.26141 -3.23469 1.53327 43 48 47
1.26483 -3.22723 1.54118 42 50 70
1.26170 -3.23463 1.54794 71 79 82
1.27115 -3.25256 1.55344 117 114 98
1.26288 -3.26606 1.55248 133 118 100
1.24918 -3.30416 1.60069 141 116 88
1.19394 -3.26618 1.61153 83 63 51
1.18334 -3.27656 1.62498 58 59 50
1.18251 -3.28564 1.63136 93 85 68
1.17448 -3.29875 1.63043 110 93 86
1.17986 -3.29311 1.63786 102 90 83
1.18219 -3.30501 1.64403 117 107 98
1.18362 -3.31612 1.65027 135 123 107
1.18911 -3.32040 1.66404 145 128 115
1.18234 -3.32483 1.65669 144 128 110
1.17557 -3.32925 1.64934 142 128 109
1.31468 -0.93346 0.01958 56 55 66
1.32211 -0.92134 0.02044 50 59 72
1.31586 -0.92543 0.01365 53 53 67
1.32782 -0.94053 0.01566 63 67 81
1.33465 -0.94809 0.01612 74 79 89
1.34844 -0.95527 0.01186 87 89 92
1.35079 -0.96321 0.01545 103 102 101
1.33720 -0.97206 0.02989 122 122 133
1.35336 -0.97928 0.02412 138 139 162
1.35991 -0.98707 0.02492 147 153 174
1.36597 -0.99494 0.02607 153 156 177
1.36625 -1.00310 0.03114 161 166 180
1.36334 -1.01140 0.03834 183 186 196
1.34991 -1.02007 0.05257 203 205 208
1.34203 -1.02848 0.06305 214 218 226
1.33507 -1.03682 0.07290 226 230 238
1.32753 -1.04911 0.07203 247 249 250
1.33059 -1.04506 0.08107 234 236 241
1.32833 -1.05322 0.08778 245 245 247
1.32705 -1.06136 0.09384 249 252 252
1.32316 -1.06954 0.10160 236 250 252
1.32574 -1.07761 0.10513 230 236 246
1.32928 -1.08569 0.10804 229 218 230
1.33094 -1.09382 0.11220 222 214 219
1.33899 -1.10192 0.11222 191 178 178
1.35461 -1.11007 0.10739 123 91 96
1.36845 -1.11832 0.10379 82 62 64
1.36079 -1.13082 0.10290 96 84 76
1.37224 -1.12662 0.10669 90 79 71
1.36456 -1.13915 0.10580 95 85 77
1.40289 -1.16042 0.10868 89 85 60
1.41067 -1.14772 0.10958 97 85 74
1.40412 -1.15200 0.10247 98 85 75
1.40885 -1.16897 0.11034 69 65 39
1.40104 -1.18170 0.10943 8 10 16
1.42355 -1.17777 0.10652 20 18 27
1.41570 -1.19058 0.10562 10 12 14
1.43197 -1.18651 0.10672 10 7 24
1.42409 -1.19936 0.10581 10 9 13
1.93210 -1.41413 -0.06903 27 30 46
1.94152 -1.39876 -0.06794 32 27 27
1.93360 -1.40394 -0.07655 32 28 32
1.92568 -1.40912 -0.08516 29 29 27
1.92418 -1.41932 -0.07764 28 31 39
1.94754 -1.42595 -0.07139 57 55 61
1.96306 -1.43788 -0.07371 81 80 70
1.96597 -1.44863 -0.06867 91 88 70
2.89060 -2.07747 -0.25987 57 42 30
2.88209 -2.07084 -0.28123 64 48 51
2.89610 -2.09272 -0.25361 41 23 17
2.92873 -2.24199 -0.17867 17 9 7
2.92010 -2.23526 -0.20033 9 4 5
2.91808 -2.24895 -0.19023 11 8 9
2.94694 -2.26116 -0.17807 36 32 10
2.95669 -2.27815 -0.17343 52 44 21
2.94394 -2.29896 -0.17490 55 45 30
2.92976 -2.31361 -0.13329 71 56 39
2.94246 -2.29290 -0.13182 71 52 38
2.93179 -2.29988 -0.14341 65 52 35
2.92111 -2.30687 -0.15501 59 48 34
2.94044 -2.30663 -0.12169 78 59 43
2.91909 -2.32059 -0.14488 61 48 36
2.90931 -2.32204 -0.11470 79 62 51
2.91793 -2.32876 -0.09307 90 72 67
2.90730 -2.33571 -0.10461 84 68 66
2.89667 -2.34266 -0.11616 69 58 85
2.80381 -2.34734 -0.03048 40 45 88
2.79146 -2.36748 -0.03191 17 27 119
2.65782 -2.56114 0.20098 45 34 63
2.64963 -2.55476 0.18042 21 23 67
2.64772 -2.56775 0.19000 29 23 63
2.68375 -2.58444 0.19926 69 64 60
2.69543 -2.60262 0.20342 91 86 64
2.70191 -2.61892 0.20973 107 98 64
2.71020 -2.62538 0.23054 119 100 60
2.69997 -2.63207 0.21943 117 100 71
1.38671 -2.70720 1.11347 181 156 135
1.38099 -2.70274 1.09910 179 155 135
1.38265 -2.71464 1.12087 190 179 163
1.37426 -2.72832 1.11990 190 193 184
1.37503 -2.72978 1.13550 163 168 171
1.38074 -2.73423 1.14982 182 191 188
1.36666 -2.74343 1.13453 165 168 167
1.37748 -2.74114 1.14123 169 178 177
1.38320 -2.74560 1.15557 187 191 191
1.29152 -2.80401 1.23700 175 174 178
1.28596 -2.79967 1.22304 182 187 190
1.28466 -2.80850 1.22955 182 186 188
1.27259 -2.80119 1.24739 164 159 162
1.28099 -2.81639 1.25175 163 168 163
1.27285 -2.82966 1.25081 184 189 190
1.27606 -2.82276 1.25902 168 176 172
1.26793 -2.83601 1.25808 182 188 188
1.16158 -2.97969 1.43362 176 175 162
1.19540 -3.01509 1.43461 122 101 114
1.18742 -3.02810 1.43368 101 91 80
1.26310 -3.21606 1.52020 99 88 65
1.25747 -3.21167 1.50608 107 95 76
1.26114 -3.22445 1.52685 72 66 59
1.25289 -3.23791 1.52590 50 47 51
1.26203 -3.25528 1.54611 110 105 94
1.24712 -3.30286 1.58629 150 128 105
1.25537 -3.28941 1.58725 149 128 113
1.24844 -3.29395 1.57971 149 128 113
1.24150 -3.29848 1.57218 149 130 113
1.23588 -3.30314 1.59371 131 107 92
1.18805 -3.27139 1.60410 68 45 48
1.18216 -3.27606 1.61090 36 34 36
1.18282 -3.28647 1.61717 76 84 67
1.17771 -3.29179 1.62388 108 101 81
1.16967 -3.30491 1.62295 117 99 97
1.17799 -3.31171 1.63650 116 105 95
1.17122 -3.31614 1.62915 119 104 99
1.17809 -3.32166 1.64283 131 121 103
1.17004 -3.33479 1.64190 140 126 109
1.30377 -0.92994 0.01093 62 54 75
1.31118 -0.91784 0.01179 56 56 71
1.30495 -0.92192 0.00502 56 53 69
1.30982 -0.93745 0.01183 69 66 80
1.31991 -0.94474 0.00996 77 80 90
1.32790 -0.95224 0.00959 86 89 95
1.33311 -0.95996 0.01116 102 105 103
1.32606 -0.96841 0.02117 123 126 130
1.33829 -0.97580 0.01797 140 143 159
1.34412 -0.98358 0.01918 148 153 166
1.34991 -0.99142 0.02046 155 156 174
1.34831 -0.99963 0.02676 167 170 185
1.33506 -1.00832 0.04095 190 195 205
1.33830 -1.01630 0.04397 209 212 215
1.32936 -1.02474 0.05519 220 224 226
1.32531 -1.03297 0.06311 230 233 238
1.32223 -1.04116 0.07036 240 241 246
1.31722 -1.05747 0.08409 239 248 250
1.30971 -1.06972 0.08322 181 133 218
1.31714 -1.06557 0.08934 221 212 238
1.30475 -1.07388 0.10272 185 145 217
1.29727 -1.08608 0.10186 223 228 226
1.30337 -1.08197 0.10881 180 140 227
1.31277 -1.08994 0.10783 191 187 223
1.30955 -1.09808 0.11514 169 182 198
1.34158 -1.10605 0.09946 116 85 118
1.35169 -1.11425 0.09817 88 62 58
1.34406 -1.12670 0.09729 95 84 74
1.35720 -1.12252 0.09990 92 82 64
1.34955 -1.13500 0.09902 96 85 77
1.38373 -1.15608 0.10422 84 88 64
1.39148 -1.14345 0.10512 95 84 71
1.38497 -1.14770 0.09804 96 86 74
1.38933 -1.16457 0.10604 69 63 55
1.38157 -1.17724 0.10514 6 5 23
1.40402 -1.17330 0.10211 17 15 30
1.39621 -1.18604 0.10121 9 9 12
1.92744 -1.42997 -0.07292 39 33 52
1.92101 -1.42496 -0.08906 25 32 33
1.91951 -1.43516 -0.08154 27 29 40
1.92599 -1.44018 -0.06542 51 44 54
1.94696 -1.45273 -0.07098 74 71 60
1.95183 -1.46369 -0.06710 89 82 73
1.95031 -1.47399 -0.05950 94 83 74
1.94230 -1.47922 -0.06820 94 80 73
2.44025 -1.80841 -0.16287 87 76 73
2.45134 -1.79032 -0.16158 92 79 78
2.44202 -1.79642 -0.17171 93 79 76
2.44957 -1.80231 -0.15274 91 79 79
2.44781 -1.81430 -0.14389 89 77 77
2.44580 -1.82179 -0.15788 83 73 70
2.45338 -1.82769 -0.13887 86 74 72
2.44404 -1.83380 -0.14902 83 69 67
2.43470 -1.83991 -0.15917 79 65 67
2.89059 -2.08677 -0.27651 57 45 35
2.88206 -2.08012 -0.29792 62 49 54
2.88007 -2.09365 -0.28794 55 47 41
2.89478 -2.10176 -0.26961 41 31 23
2.89726 -2.11638 -0.26183 24 8 19
2.90581 -2.12305 -0.24036 26 5 20
2.89526 -2.12995 -0.25182 25 7 18
2.88471 -2.13685 -0.26328 20 5 10
2.93053 -2.26659 -0.18698 29 23 12
2.92187 -2.25984 -0.20872 10 6 11
2.93505 -2.28214 -0.17993 47 39 17
2.60608 -2.48476 0.16375 19 25 123
2.61794 -2.46542 0.16512 18 21 107
2.60797 -2.47194 0.15429 20 26 115
2.61605 -2.47824 0.17458 16 21 110
2.61417 -2.49106 0.18404 18 29 121
2.61376 -2.50099 0.16918 22 33 138
2.62187 -2.50730 0.18952 24 36 122
2.61187 -2.51384 0.17866 24 42 139
2.63165 -2.53455 0.17912 23 36 105
2.66784 -2.58896 0.19056 49 38 60
2.65960 -2.58254 0.16989 24 21 63
2.69173 -2.61174 0.18968 76 68 56
2.70000 -2.62877 0.19524 97 87 58
2.70219 -2.64354 0.20330 111 98 63
2.71051 -2.65003 0.22418 121 100 66
2.70025 -2.65674 0.21304 119 100 60
2.68999 -2.66345 0.20189 113 97 57
1.38536 -2.71524 1.10429 182 157 140
1.37962 -2.71077 1.08990 179 154 136
1.38349 -2.72402 1.11115 191 179 168
1.37508 -2.73774 1.11017 193 193 192
1.37238 -2.73706 1.12673 167 166 165
1.36399 -2.75074 1.12576 174 174 168
1.36672 -2.75335 1.14086 176 181 187
1.37243 -2.75780 1.15519 186 191 193
1.36539 -2.76240 1.14754 180 186 193
1.29235 -2.82329 1.23406 182 183 188
1.28677 -2.81894 1.22004 182 187 193
1.28547 -2.82780 1.22658 183 187 196
1.28416 -2.83665 1.23311 179 187 191
1.28827 -2.83029 1.24120 183 187 188
1.16374 -2.98125 1.41898 176 181 178
1.17163 -2.96839 1.41989 177 180 180
1.16500 -2.97272 1.41269 175 179 179
1.15837 -2.97706 1.40549 175 181 184
1.16903 -2.99479 1.42424 166 163 145
1.20464 -3.03177 1.42487 113 95 94
1.19662 -3.04486 1.42394 101 93 81
1.25902 -3.22297 1.51233 94 81 64
1.25178 -3.22696 1.51959 64 57 60
1.24980 -3.24534 1.53268 73 70 51
1.25471 -3.25952 1.53859 109 102 80
1.25756 -3.27200 1.54476 130 119 92
1.26321 -3.27640 1.55892 138 120 103
1.25625 -3.28096 1.55136 137 120 105
1.24928 -3.28551 1.54380 138 119 105
1.24140 -3.30845 1.57865 150 131 105
1.23578 -3.30407 1.56454 148 130 119
1.20709 -3.28853 1.58814 110 89 66
1.17686 -3.27194 1.59712 44 29 35
1.18164 -3.28599 1.60303 50 45 47
1.17656 -3.29135 1.60977 102 101 82
1.16850 -3.30449 1.60884 130 118 99
1.18419 -3.30799 1.61550 121 111 95
1.17611 -3.32117 1.61457 126 106 99
1.29847 -0.93395 0.00351 72 70 83
1.30218 -0.94164 0.00601 81 83 89
1.31220 -0.94894 0.00414 89 92 99
1.31670 -0.95666 0.00615 105 108 118
1.31987 -0.96449 0.00909 129 131 142
1.32405 -0.97230 0.01136 139 143 151
1.33220 -0.97993 0.01092 148 147 160
1.33443 -0.98790 0.01457 160 158 171
1.33317 -0.99606 0.02064 180 179 191
1.31748 -1.00485 0.03653 199 200 207
1.32567 -1.01258 0.03613 213 215 221
1.31492 -1.02108 0.04862 225 227 228
1.30742 -1.03332 0.04775 247 249 250
1.30755 -1.03746 0.06395 244 243 245
1.30739 -1.04553 0.06923 247 249 250
1.30498 -1.05366 0.07602 230 233 238
1.30820 -1.06166 0.07904 196 166 217
1.29683 -1.07801 0.09697 200 171 219
1.29805 -1.09415 0.10652 186 180 175
1.29057 -1.10635 0.10565 87 63 69
1.32279 -1.10209 0.09542 105 86 111
1.33293 -1.11023 0.09401 90 65 74
1.32534 -1.12262 0.09313 97 83 64
1.33883 -1.11845 0.09542 95 82 69
1.33121 -1.13087 0.09454 96 84 76
1.36438 -1.15178 0.10007 84 84 61
1.36561 -1.14345 0.09392 94 86 71
1.37852 -1.16036 0.09632 44 55 47
1.37077 -1.17299 0.09542 14 4 19
1.38956 -1.16897 0.09462 16 8 34
1.38177 -1.18167 0.09372 8 7 15
1.91849 -1.44542 -0.07429 20 24 42
1.91206 -1.44040 -0.09044 29 31 33
1.91055 -1.45061 -0.08292 23 26 28
1.91816 -1.45575 -0.06745 47 43 47
1.93623 -1.46810 -0.07136 80 74 72
2.42748 -1.80155 -0.17904 91 76 72
2.43855 -1.78349 -0.17776 95 79 76
2.42924 -1.78958 -0.18787 96 79 78
2.41993 -1.79567 -0.19798 94 81 74
2.43095 -1.81451 -0.17300 74 59 67
2.43506 -1.82763 -0.16728 69 58 65
2.42395 -1.84574 -0.16856 75 64 68
2.88760 -2.10945 -0.28274 41 34 31
2.89664 -2.12568 -0.27825 24 10 20
2.88407 -2.14620 -0.27970 17 4 7
2.91112 -2.27118 -0.19442 24 17 16
2.90248 -2.26444 -0.21611 11 5 10
2.91178 -2.28564 -0.18558 39 32 26
2.91115 -2.29975 -0.17611 46 39 48
2.90913 -2.31347 -0.16599 47 43 61
2.89907 -2.32487 -0.15209 47 43 71
2.88640 -2.34554 -0.15356 45 45 119
2.89145 -2.33693 -0.13937 51 45 100
2.87880 -2.35757 -0.14083 42 48 128
2.61910 -2.48587 0.13440 23 34 131
2.63103 -2.46642 0.13578 23 31 120
2.62100 -2.47298 0.12489 26 36 128
2.61098 -2.47954 0.11400 24 39 136
2.60908 -2.49243 0.12351 24 43 144
2.61699 -2.49869 0.14400 23 36 139
2.60507 -2.51814 0.14262 29 49 160
2.61707 -2.51229 0.15267 26 41 151
2.61018 -2.52338 0.16430 27 44 147
2.62696 -2.54308 0.16595 23 36 109
2.61499 -2.56261 0.16457 21 22 69
2.63680 -2.56036 0.17059 20 24 69
2.62480 -2.57994 0.16920 23 21 70
2.66056 -2.59668 0.17833 37 26 49
2.65039 -2.60333 0.16729 30 22 57
2.67787 -2.61705 0.18007 60 46 37
2.69324 -2.63681 0.18268 84 74 45
2.69818 -2.65266 0.18961 102 89 51
1.38534 -2.72413 1.09472 183 158 144
1.37959 -2.71964 1.08029 179 152 132
1.38515 -2.73395 1.10115 191 179 173
1.37671 -2.74771 1.10017 193 195 195
1.37430 -2.74719 1.11674 179 178 173
1.36619 -2.76200 1.13155 169 170 174
1.35913 -2.76662 1.12388 165 165 161
1.36302 -2.76993 1.13871 171 175 184
1.36874 -2.77439 1.15307 181 188 193
1.36168 -2.77901 1.14540 178 184 188
1.35463 -2.78362 1.13774 179 185 187
1.28725 -2.84847 1.23867 178 184 187
1.28595 -2.85735 1.24521 177 185 186
1.21693 -2.88677 1.30926 168 176 179
1.21820 -2.87810 1.30287 163 171 182
1.21146 -2.88251 1.29555 163 171 176
1.22366 -2.88236 1.31658 165 169 165
1.21565 -2.89544 1.31565 176 184 186
1.20891 -2.89985 1.30833 178 186 185
1.16625 -2.99259 1.41029 180 184 178
1.16086 -2.98839 1.39675 177 183 187
1.18952 -3.02007 1.41268 149 141 134
1.20370 -3.04068 1.41663 107 91 85
1.19565 -3.05380 1.41570 105 94 83
1.25523 -3.22011 1.49796 109 96 84
1.26350 -3.20662 1.49892 107 92 83
1.25655 -3.21116 1.49137 107 92 86
1.24959 -3.21571 1.48381 106 92 86
1.25181 -3.22729 1.50481 80 69 58
1.24534 -3.23191 1.51201 51 43 52
1.24425 -3.24101 1.51856 49 45 56
1.24412 -3.25094 1.52500 76 72 61
1.24634 -3.26286 1.53120 105 93 79
1.25090 -3.27681 1.53716 127 112 90
1.24262 -3.29032 1.53620 136 120 108
1.23474 -3.31323 1.57109 146 128 107
1.22912 -3.30884 1.55698 150 130 109
1.17817 -3.27363 1.58273 81 70 55
1.18556 -3.29001 1.58839 19 18 27
1.17615 -3.29157 1.59555 53 56 61
1.17871 -3.30372 1.60167 113 111 95
1.17063 -3.31691 1.60073 139 123 96
1.28619 -0.92262 -0.00914 62 64 79
1.29358 -0.91056 -0.00829 55 62 73
1.28736 -0.91463 -0.01504 58 61 75
1.28115 -0.91869 -0.02179 66 66 83
1.29879 -0.94553 -0.00278 97 96 94
1.30226 -0.95328 -0.00011 116 116 118
1.31401 -0.96056 -0.00320 134 136 148
1.31114 -0.97678 0.00909 151 152 166
1.32082 -0.98433 0.00753 173 173 182
1.31241 -0.99280 0.01851 196 197 200
1.30492 -1.00504 0.01764 230 235 241
1.30830 -1.00104 0.02650 210 212 220
1.29585 -1.02566 0.05048 242 242 245
1.29265 -1.04183 0.06295 240 246 250
1.28591 -1.05004 0.07266 227 214 240
1.30314 -1.05767 0.06618 198 167 215
1.29307 -1.06596 0.07813 203 183 213
1.29407 -1.07400 0.08262 236 233 240
1.29254 -1.08210 0.08881 229 234 226
1.29232 -1.09017 0.09413 167 159 174
1.28484 -1.10238 0.09327 84 68 71
1.31009 -1.09813 0.08750 87 75 102
1.32174 -1.11441 0.09025 97 82 64
1.31537 -1.11858 0.08333 98 84 73
1.31416 -1.12678 0.08937 97 84 73
1.35166 -1.14760 0.09176 79 83 54
1.35288 -1.13929 0.08564 94 86 71
1.36943 -1.15618 0.08554 42 54 40
1.37476 -1.16467 0.08745 22 17 37
1.36701 -1.17732 0.08656 12 6 19
1.91100 -1.46103 -0.07654 30 23 24
1.90457 -1.45601 -0.09270 33 27 22
1.90306 -1.46622 -0.08516 25 19 15
1.92773 -1.47326 -0.07974 68 64 54
1.92795 -1.48373 -0.07318 92 79 70
1.93443 -1.48879 -0.05692 97 80 70
1.92644 -1.49401 -0.06560 97 81 67
1.91845 -1.49924 -0.07428 95 81 60
2.41363 -1.80680 -0.18670 83 70 63
2.43232 -1.82264 -0.18888 55 36 62
2.43277 -1.83510 -0.18120 54 42 64
2.87558 -2.10197 -0.30244 47 41 42
2.87758 -2.08841 -0.31243 56 48 50
2.88691 -2.11872 -0.29918 33 27 33
2.89466 -2.13469 -0.29406 22 11 19
2.88205 -2.15525 -0.29551 15 5 7
2.90268 -2.27877 -0.20707 20 12 16
2.89983 -2.29225 -0.19655 29 25 43
2.89262 -2.30449 -0.18395 33 33 78
2.87996 -2.32516 -0.18542 28 37 117
2.89630 -2.31983 -0.17656 34 38 96
2.88362 -2.34053 -0.17802 33 39 122
2.88644 -2.33126 -0.16272 38 40 108
2.87378 -2.35192 -0.16419 37 45 125
2.60160 -2.53046 0.15281 30 46 149
2.61637 -2.54947 0.15524 24 33 105
2.60440 -2.56900 0.15386 21 21 65
2.67630 -2.62703 0.16538 47 30 39
2.66800 -2.62056 0.14455 25 23 63
2.66606 -2.63373 0.15426 37 26 49
2.69452 -2.64797 0.16677 71 56 39
2.70274 -2.66516 0.17235 91 81 45
2.69748 -2.67713 0.18349 106 92 59
2.70583 -2.68364 0.20447 120 99 65
2.69553 -2.69038 0.19327 117 98 71
1.38995 -2.73587 1.08385 184 160 144
1.38417 -2.73136 1.06935 178 152 129
1.38355 -2.74194 1.09196 192 183 176
1.37509 -2.75574 1.09098 204 207 195
1.37595 -2.75720 1.10675 189 190 179
1.36771 -2.76204 1.11529 183 183 166
1.36238 -2.77858 1.12940 171 177 182
1.35397 -2.79230 1.12843 182 189 187
1.29634 -2.84422 1.21501 180 187 192
1.29766 -2.83530 1.20843 181 189 194
1.29081 -2.85028 1.22255 167 178 175
1.28258 -2.86371 1.22160 153 161 163
1.28847 -2.85849 1.22935 161 171 169
1.28024 -2.87191 1.22840 157 160 173
1.16714 -3.00276 1.40182 180 183 173
1.16173 -2.99854 1.38823 177 186 189
1.18555 -3.02660 1.40493 138 119 121
1.17755 -3.03965 1.40401 103 87 73
1.20163 -3.04876 1.40852 106 88 80
1.19357 -3.06191 1.40759 106 94 84
1.24925 -3.22547 1.49029 108 93 82
1.24361 -3.22107 1.47613 105 92 85
1.24165 -3.22914 1.49766 66 57 52
1.24279 -3.24013 1.50395 27 34 41
1.23972 -3.24759 1.51074 47 52 43
1.24002 -3.25788 1.51714 84 80 71
1.24490 -3.27210 1.52303 105 94 92
1.24609 -3.28321 1.52936 122 110 98
1.23781 -3.29674 1.52840 134 119 109
1.22863 -3.31849 1.56348 135 113 94
1.18506 -3.29013 1.57406 69 48 38
1.19013 -3.30454 1.57995 23 16 20
1.18416 -3.30918 1.58686 74 75 68
1.17862 -3.31416 1.59370 131 123 97
1.17052 -3.32739 1.59277 143 127 103
1.27917 -0.92675 -0.01532 76 77 90
1.27413 -0.92282 -0.02797 80 79 93
1.28398 -0.93431 -0.01368 86 87 96
1.28639 -0.94208 -0.01032 97 99 101
1.30614 -0.95675 -0.01406 135 137 148
1.30192 -0.96502 -0.00597 145 146 158
1.30583 -0.97282 -0.00358 160 163 171
1.30854 -0.98071 -0.00034 188 190 192
1.28808 -0.98977 0.01907 207 209 213
1.28064 -1.00191 0.01821 244 246 248
1.29051 -0.99765 0.02250 221 223 229
1.28305 -1.00981 0.02164 250 251 252
1.28312 -1.01398 0.03785 236 241 248
1.27687 -1.01807 0.03106 251 253 252
1.27568 -1.02611 0.03699 246 248 246
1.28028 -1.03809 0.05517 239 240 243
1.27521 -1.03413 0.04244 234 234 235
1.27402 -1.04218 0.04838 233 231 234
1.28532 -1.04596 0.05686 218 211 232
1.27707 -1.05420 0.06762 221 214 237
1.27473 -1.06227 0.07433 241 232 239
1.28026 -1.07019 0.07572 245 243 236
1.27864 -1.07826 0.08196 224 218 221
1.29352 -1.08612 0.07710 161 148 150
1.28602 -1.09836 0.07623 87 74 68
1.29870 -1.09418 0.07880 86 73 64
1.30861 -1.11041 0.08260 94 83 71
1.30225 -1.11456 0.07570 95 85 80
1.30105 -1.12273 0.08172 99 85 83
1.34136 -1.14347 0.08196 81 81 56
1.34258 -1.13518 0.07585 95 86 77
1.35825 -1.15199 0.07618 29 40 51
1.35053 -1.16458 0.07529 10 8 18
1.36273 -1.16043 0.07860 17 11 35
1.35500 -1.17305 0.07770 13 7 9
1.36840 -1.16893 0.08027 14 7 21
1.36065 -1.18158 0.07937 9 8 13
1.91273 -1.47770 -0.08425 53 50 37
1.90627 -1.47266 -0.10047 26 21 33
1.92333 -1.48935 -0.08385 84 76 69
1.91382 -1.50487 -0.08495 95 80 64
2.40446 -1.80061 -0.20473 84 78 61
2.41551 -1.78258 -0.20345 97 81 80
2.40622 -1.78866 -0.21355 94 83 74
2.41403 -1.81471 -0.20208 68 56 46
2.41829 -1.82786 -0.19650 46 27 45
2.42475 -1.84148 -0.19208 54 42 55
2.41362 -1.85963 -0.19337 79 68 63
2.42324 -1.85357 -0.18335 75 65 65
2.43083 -1.85948 -0.16430 82 66 67
2.42147 -1.86560 -0.17447 80 67 67
2.41211 -1.87172 -0.18463 81 68 64
2.85077 -2.09147 -0.31551 48 43 48
2.86325 -2.07110 -0.31407 62 51 57
2.85276 -2.07797 -0.32547 57 48 53
2.84027 -2.09833 -0.32691 37 31 50
2.83829 -2.11183 -0.31695 33 28 55
2.87475 -2.11118 -0.31885 34 32 45
2.88230 -2.12708 -0.31370 22 20 37
2.89233 -2.14366 -0.30976 17 12 21
2.86842 -2.25075 -0.22535 9 4 21
2.88102 -2.23019 -0.22389 7 3 4
2.87043 -2.23712 -0.23540 8 3 8
2.87902 -2.24382 -0.21384 8 3 6
2.86989 -2.26534 -0.21699 13 9 36
2.87360 -2.28058 -0.20971 18 16 50
2.87379 -2.29487 -0.20070 23 26 77
2.86611 -2.30690 -0.18789 26 33 105
2.85349 -2.32749 -0.18934 28 39 125
2.61711 -2.54638 0.13094 33 46 146
2.60893 -2.54000 0.11041 35 52 167
2.61740 -2.56016 0.13956 25 31 97
2.60540 -2.57974 0.13817 20 22 63
2.68239 -2.65398 0.15636 57 40 44
2.67405 -2.64748 0.13543 32 24 61
2.69599 -2.67330 0.15967 80 70 49
2.69569 -2.68723 0.16878 98 86 59
2.69893 -2.70259 0.17645 110 95 72
2.70732 -2.70913 0.19750 122 102 68
2.69697 -2.71590 0.18627 120 100 70
2.68663 -2.72266 0.17503 115 101 63
1.39101 -2.74552 1.07386 184 162 145
1.38521 -2.74100 1.05932 176 152 131
1.38226 -2.75017 1.08265 200 193 182
1.37378 -2.76399 1.08167 199 203 194
1.38112 -2.76947 1.09576 197 197 179
1.37264 -2.78330 1.09478 173 174 171
1.36664 -2.77043 1.10601 179 179 161
1.35887 -2.77552 1.11442 166 169 159
1.35046 -2.78925 1.11345 183 192 190
1.36277 -2.78793 1.11977 177 186 186
1.35434 -2.80169 1.11880 185 191 189
1.30787 -2.85133 1.19685 178 187 189
1.31617 -2.83779 1.19781 182 187 191
1.30919 -2.84235 1.19023 182 189 192
1.29956 -2.86487 1.19589 152 160 167
1.30249 -2.85757 1.20442 167 175 177
1.29420 -2.87109 1.20346 155 160 173
1.29762 -2.86412 1.21186 156 163 166
1.17528 -3.01861 1.39206 174 175 166
1.19741 -3.04548 1.39452 124 101 112
1.18935 -3.05863 1.39359 103 91 80
1.24722 -3.23414 1.48210 103 90 78
1.24157 -3.22974 1.46792 105 93 86
1.23935 -3.23760 1.48954 54 44 41
1.23753 -3.24611 1.49619 24 23 23
1.23309 -3.25239 1.50317 63 64 45
1.24325 -3.27112 1.50839 95 89 75
1.23496 -3.28465 1.50743 112 96 94
1.24262 -3.28068 1.51493 107 94 94
1.24219 -3.29041 1.52144 117 107 102
1.23389 -3.30395 1.52048 134 121 108
1.18895 -3.30410 1.56560 58 36 33
1.18403 -3.31964 1.57882 95 101 83
1.17589 -3.33292 1.57788 148 131 116
1.18227 -3.32802 1.58536 138 131 107
1.17413 -3.34130 1.58442 148 128 110
1.27124 -0.93094 -0.02084 89 89 104
1.26621 -0.92701 -0.03347 91 96 95
1.28816 -0.94562 -0.02280 122 123 126
1.30089 -0.95278 -0.02676 138 140 139
1.28551 -0.96971 -0.00563 175 175 179
1.29286 -0.97730 -0.00571 201 203 205
1.28096 -0.98592 0.00777 222 223 225
1.26586 -0.99463 0.02346 234 238 240
1.25847 -1.00670 0.02261 253 253 253
1.26369 -1.05047 0.06060 246 235 245
1.25745 -1.05454 0.05383 253 252 252
1.26161 -1.05850 0.06713 250 248 247
1.27242 -1.07431 0.06998 216 212 204
1.27785 -1.08228 0.07143 150 124 147
1.27038 -1.09447 0.07057 89 77 80
1.28695 -1.09025 0.07042 93 70 91
1.27945 -1.10248 0.06956 92 86 78
1.32377 -1.13929 0.07707 78 78 70
1.32499 -1.13104 0.07098 96 86 73
1.34871 -1.14784 0.06582 32 35 54
1.34100 -1.16041 0.06492 12 8 22
1.34959 -1.15621 0.07057 8 10 41
1.34188 -1.16879 0.06968 13 8 10
1.90665 -1.48312 -0.09404 35 29 42
1.90018 -1.47808 -0.11026 33 27 25
1.91673 -1.49475 -0.09336 76 69 69
2.39512 -1.79441 -0.22264 82 79 61
2.40617 -1.77639 -0.22137 98 81 78
2.39688 -1.78246 -0.23146 96 83 75
2.40710 -1.80893 -0.22139 62 59 45
2.41728 -1.82321 -0.21910 52 32 35
2.41660 -1.83545 -0.21082 54 28 29
2.41590 -1.84770 -0.20253 69 53 49
2.40477 -1.86586 -0.20381 84 70 61
2.81484 -2.06453 -0.33146 58 50 47
2.82723 -2.04431 -0.33003 67 54 56
2.81681 -2.05113 -0.34135 64 53 51
2.82526 -2.05771 -0.32014 63 51 57
2.82454 -2.08067 -0.32765 48 41 45
2.81211 -2.10095 -0.32908 31 22 50
2.86591 -2.13259 -0.32221 29 29 48
2.87684 -2.14939 -0.31880 21 21 28
2.88158 -2.16473 -0.31218 16 8 11
2.89019 -2.17144 -0.29057 16 4 4
2.87957 -2.17839 -0.30210 16 4 3
2.86895 -2.18534 -0.31364 13 4 2
2.86038 -2.24420 -0.24718 10 6 19
2.87298 -2.22364 -0.24573 8 3 3
2.86239 -2.23057 -0.25724 8 4 6
2.85877 -2.25794 -0.23733 15 12 51
2.86140 -2.27287 -0.22955 19 20 73
2.85643 -2.28568 -0.21803 20 26 90
2.84166 -2.29567 -0.20175 22 31 107
2.82909 -2.31617 -0.20321 29 41 129
2.83398 -2.30761 -0.18896 26 36 119
2.82143 -2.32809 -0.19042 32 41 128
2.72665 -2.38725 -0.06612 15 27 127
2.73893 -2.36723 -0.06470 18 34 139
2.71829 -2.38073 -0.08712 15 21 110
