ply
format ascii 1.0
element face 0
property list uchar int vertex_indices
element vertex 1318
property float x
property float y
property float z
property uchar diffuse_red
property uchar diffuse_green
property uchar diffuse_blue
end_header
-0.47188 -4.00047 2.34800 158 144 134
-0.47918 -4.00628 2.36278 153 136 124
-0.48886 -4.01653 2.36588 143 122 104
-0.50211 -4.02334 2.35652 150 134 118
-0.77517 -4.05622 2.42473 131 122 115
-0.76239 -4.04964 2.43376 134 123 121
-0.76527 -4.05000 2.42209 133 124 120
-0.77228 -4.05587 2.43640 133 122 120
-0.78218 -4.06209 2.43903 132 120 124
-0.78517 -4.06095 2.42720 127 120 115
-0.79218 -4.06682 2.44150 132 118 117
-0.79506 -4.06717 2.42983 130 119 115
1.61373 -1.98162 1.70685 136 138 129
1.61971 -1.97661 1.69466 202 207 212
1.61127 -1.98192 1.69690 175 176 173
1.64450 -2.01122 1.70458 58 55 56
1.63344 -2.01691 1.69676 52 42 53
1.19290 -3.17663 1.93148 72 88 116
1.20687 -3.16944 1.94136 119 138 146
1.20371 -3.16983 1.92860 56 75 101
1.20056 -3.17021 1.91585 30 26 47
1.19605 -3.17625 1.94424 128 140 151
1.18524 -3.18305 1.94712 118 127 142
1.19938 -3.20555 1.93375 71 72 95
1.19166 -3.21201 1.94950 116 118 145
1.47850 -5.59369 2.16946 126 153 178
1.50106 -5.58209 2.18539 158 184 215
1.49597 -5.58271 2.16480 144 168 206
1.48360 -5.59307 2.19005 154 178 205
1.46613 -5.60406 2.19470 143 168 201
1.46354 -5.60994 2.17427 107 127 159
1.44095 -5.62155 2.15832 77 88 113
1.44597 -5.62075 2.17892 91 106 139
0.28286 -4.29246 2.23965 53 44 28
0.29863 -4.28435 2.25080 28 15 8
0.29507 -4.28478 2.23640 73 57 19
0.26720 -4.28967 2.24230 60 54 52
0.25513 -4.29767 2.24556 85 79 55
0.23974 -4.29538 2.24822 116 106 78
0.22405 -4.30346 2.23713 137 124 118
0.22210 -4.28582 2.25042 133 122 103
0.20648 -4.29386 2.23938 138 126 118
0.20871 -4.28930 2.25339 138 128 115
0.19292 -4.28501 2.25587 141 134 138
0.17473 -4.27267 2.25784 148 154 164
0.16125 -4.27528 2.26072 154 159 171
0.14963 -4.28396 2.26399 159 163 175
0.13711 -4.28965 2.26706 167 168 168
0.12567 -4.29899 2.27036 156 141 125
0.09721 -4.29827 2.27570 33 9 10
0.08180 -4.30620 2.26481 42 11 19
-0.07107 -3.88575 2.25783 145 135 138
-0.08166 -3.89241 2.26065 155 141 136
-0.13528 -3.87508 2.26876 162 153 156
-0.14880 -3.88204 2.25921 161 146 139
-0.48259 -4.00386 2.35045 156 141 132
-0.47534 -3.99779 2.33565 159 146 139
-0.48557 -4.00423 2.33837 157 145 137
-0.49581 -4.01066 2.34110 157 145 137
-0.49234 -4.01360 2.35348 152 138 125
-0.50557 -4.02041 2.34413 156 143 137
-0.71348 -4.07970 2.40356 113 107 118
-0.70048 -4.07302 2.41275 127 127 119
-0.70342 -4.07337 2.40088 112 104 109
-0.70635 -4.07373 2.38902 134 121 122
-0.71054 -4.07934 2.41543 128 125 125
-0.72060 -4.08567 2.41811 131 124 127
-0.72495 -4.06907 2.40446 119 115 128
-0.73204 -4.07501 2.41894 134 124 128
-0.73561 -4.06726 2.40627 130 122 132
-0.74269 -4.07318 2.42072 136 124 120
-0.74561 -4.07354 2.40893 135 123 125
-0.75721 -4.05823 2.40929 135 122 121
-0.75431 -4.05787 2.42101 137 124 119
-0.76802 -4.05226 2.41063 127 115 120
-0.77809 -4.05616 2.41302 111 100 120
-0.78807 -4.06114 2.41552 104 99 115
-0.79824 -4.06294 2.41767 124 116 118
-0.80524 -4.06880 2.43195 132 118 116
-0.80812 -4.06916 2.42030 131 117 122
-0.81100 -4.06951 2.40865 130 118 119
1.61935 -1.99747 1.69718 98 93 95
1.62537 -1.99243 1.68491 196 198 202
1.18341 -3.16897 1.91900 54 47 65
1.19561 -3.20518 1.92092 80 69 79
1.48224 -5.56544 2.14377 106 121 160
1.50472 -5.55388 2.15965 153 179 214
1.49456 -5.55511 2.11861 88 90 121
1.47716 -5.56606 2.12325 79 90 119
1.45976 -5.57701 2.12788 77 92 115
1.47798 -5.60389 2.14911 88 109 135
1.46506 -5.62453 2.15403 77 95 119
1.44242 -5.63618 2.13803 75 86 104
1.25003 -5.96158 2.23508 10 7 16
1.22672 -5.97358 2.21862 7 11 7
0.30550 -4.32673 2.22421 137 125 84
0.32144 -4.31853 2.23547 128 107 76
0.31424 -4.31941 2.20637 139 125 103
0.30190 -4.32717 2.20966 132 124 99
0.28646 -4.31438 2.22641 134 115 88
0.26639 -4.29843 2.22840 133 119 99
0.25340 -4.30369 2.23151 138 127 103
0.23764 -4.31179 2.22039 141 125 110
0.23694 -4.29813 2.23402 140 126 108
0.22124 -4.30620 2.22293 139 124 108
0.19020 -4.28801 2.24182 140 131 132
0.19874 -4.28086 2.22440 138 124 114
0.17049 -4.27068 2.24357 152 161 170
0.15569 -4.26890 2.24621 166 174 191
0.14404 -4.27740 2.24945 173 179 197
0.13313 -4.28843 2.25285 179 184 198
0.11957 -4.29052 2.25570 180 179 184
0.11187 -4.31270 2.25980 132 115 98
0.09639 -4.32067 2.24885 91 66 63
0.09563 -4.30537 2.26205 57 29 22
0.08021 -4.31331 2.25115 35 13 17
-0.06642 -3.91462 2.24720 106 74 107
-0.05885 -3.90828 2.23176 68 8 35
-0.06954 -3.91500 2.23461 76 11 49
-0.08658 -3.88597 2.24771 137 124 141
-0.09408 -3.89225 2.26300 156 142 127
-0.71660 -4.07784 2.39148 132 122 125
-0.70948 -4.07188 2.37695 143 133 130
-0.71953 -4.07820 2.37963 143 133 130
-0.72959 -4.08452 2.38230 143 135 135
-0.72790 -4.06906 2.39262 135 127 136
-0.74083 -4.07571 2.38348 142 136 136
-0.73864 -4.06621 2.39435 138 134 142
-0.75154 -4.07285 2.38523 143 135 127
-0.74927 -4.06413 2.39615 140 133 133
-0.76214 -4.07076 2.38705 145 133 130
-0.76025 -4.05668 2.39738 140 130 130
-0.77106 -4.05052 2.39874 133 119 122
-0.78121 -4.05309 2.40099 110 98 128
-0.79114 -4.05863 2.40355 100 96 121
-0.80391 -4.06520 2.39453 130 120 119
-0.80135 -4.05961 2.40563 122 116 120
-0.81410 -4.06617 2.39662 131 121 119
1.60935 -1.99309 1.68810 143 141 142
1.61534 -1.98807 1.67587 203 208 216
1.64027 -2.02304 1.68552 59 51 67
1.63419 -2.02814 1.69794 54 58 69
1.63585 -2.03107 1.68730 49 53 59
1.62976 -2.03618 1.69974 55 59 64
1.62725 -2.03648 1.68959 54 61 60
1.62474 -2.03679 1.67945 48 60 67
1.19711 -3.14985 1.90078 78 59 41
1.21101 -3.14270 1.91060 30 25 14
1.20787 -3.14308 1.89791 59 43 29
1.20025 -3.14947 1.91347 28 21 23
1.20113 -3.17530 1.90291 96 84 76
1.19194 -3.20494 1.90809 158 144 114
1.17487 -3.20381 1.91128 171 157 118
1.16083 -3.21103 1.90136 156 144 119
1.28076 -5.83118 2.19180 19 20 19
1.25781 -5.84299 2.17558 6 5 11
1.24570 -5.80101 2.19515 13 11 19
1.22292 -5.81273 2.17906 7 6 10
0.47071 -4.45636 2.19166 62 78 61
0.47987 -4.44868 2.17296 28 32 56
0.45399 -4.46495 2.17985 136 136 139
0.28288 -4.31482 2.21194 140 129 109
0.29157 -4.30753 2.19420 132 125 110
0.26702 -4.32297 2.20074 147 134 118
0.26407 -4.30265 2.21420 143 137 115
0.24829 -4.31076 2.20306 149 139 124
0.25066 -4.30665 2.21727 143 129 117
0.18639 -4.28750 2.22756 136 127 124
0.19493 -4.28035 2.21014 142 127 112
0.16434 -4.26241 2.22897 148 150 164
0.15104 -4.26547 2.23191 160 169 191
0.14044 -4.27744 2.23534 164 175 198
0.12819 -4.28395 2.23847 166 178 201
0.11614 -4.29112 2.24163 170 179 198
0.10473 -4.30049 2.24492 168 160 160
-0.09528 -3.86535 2.23392 94 46 75
-0.08783 -3.85911 2.21872 52 9 37
-0.09835 -3.86572 2.22152 71 9 37
-0.10886 -3.87233 2.22433 78 24 55
-0.10816 -3.86298 2.23615 124 106 122
-0.22960 -3.75685 2.24759 177 167 166
-0.21666 -3.75019 2.25673 176 167 163
-0.22250 -3.75091 2.23311 160 145 144
-0.22668 -3.75649 2.25940 178 166 168
-0.23670 -3.76280 2.26207 178 165 164
-0.23962 -3.76315 2.25026 180 168 166
-0.77381 -4.05277 2.38726 141 128 122
-0.76680 -4.04690 2.37295 143 131 126
-0.77670 -4.05313 2.37559 142 130 126
-0.78401 -4.05470 2.38946 132 118 125
-0.79400 -4.05938 2.39194 126 116 118
-0.80677 -4.06595 2.38292 134 123 115
1.61452 -1.99815 1.67715 179 181 182
1.62053 -1.99311 1.66488 203 210 221
1.61204 -1.99845 1.66714 196 202 204
1.61764 -2.01076 1.67794 99 98 104
1.63800 -2.03431 1.67657 47 47 57
1.62687 -2.04004 1.66870 48 51 71
1.18718 -3.14171 1.88847 151 137 88
1.19624 -3.17350 1.89023 171 156 117
1.18417 -3.17872 1.89318 176 159 122
1.16815 -3.19962 1.89865 162 150 124
1.15414 -3.20683 1.88875 143 130 124
1.29209 -5.81769 2.16603 10 9 13
1.28691 -5.81832 2.14510 5 6 6
1.26915 -5.82949 2.14983 5 7 7
1.26203 -5.79965 2.16993 5 5 10
1.23921 -5.81139 2.15381 7 7 9
0.46553 -4.45297 2.17625 88 103 100
0.46175 -4.45342 2.16101 97 114 120
0.38224 -4.39535 2.18618 136 125 118
0.39120 -4.38784 2.16790 145 134 128
0.36591 -4.40375 2.17464 146 138 126
0.17796 -4.27201 2.21255 140 128 123
0.17446 -4.27244 2.19840 143 128 113
0.16112 -4.26371 2.21493 142 134 149
0.14512 -4.25783 2.21741 150 151 178
0.12974 -4.26575 2.20654 153 157 175
0.13523 -4.27208 2.22094 150 156 177
0.11981 -4.28001 2.21006 151 157 175
0.12221 -4.27591 2.22393 147 156 179
0.10681 -4.28383 2.21305 149 155 177
0.11196 -4.28916 2.22741 148 157 182
0.09654 -4.29709 2.21652 150 153 177
0.10024 -4.29741 2.23064 155 160 180
0.09261 -4.32010 2.23466 147 132 127
0.08062 -4.32763 2.23786 82 56 39
-0.11994 -3.87678 2.22700 107 84 100
-0.11249 -3.87055 2.21181 54 11 26
-0.13351 -3.88377 2.21741 83 63 76
-0.12571 -3.90191 2.23093 139 132 126
-0.13319 -3.90818 2.24620 156 138 122
-0.13627 -3.90855 2.23374 154 143 120
-0.22818 -3.77566 2.23698 168 160 155
-0.22105 -3.76968 2.22242 155 139 132
-0.78707 -4.05233 2.37753 140 127 128
-0.78007 -4.04646 2.36325 142 130 127
-0.78996 -4.05268 2.36588 140 130 128
-0.79984 -4.05889 2.36851 137 129 117
1.62367 -2.01639 1.66678 145 150 146
1.62973 -2.01132 1.65441 203 209 214
1.63825 -2.03636 1.66605 58 59 71
1.19573 -3.13653 1.87290 176 161 119
1.20334 -3.13016 1.85738 173 160 126
1.19260 -3.13691 1.86024 167 155 124
1.19128 -3.15119 1.87537 173 161 119
1.19250 -3.17316 1.87750 166 155 124
1.17546 -3.19269 1.88300 156 139 128
1.16145 -3.19990 1.87310 144 130 126
0.47819 -4.45481 2.15790 48 57 60
0.18824 -4.27060 2.19547 146 130 103
0.20377 -4.26262 2.20643 145 129 109
0.19675 -4.26347 2.17809 151 136 117
0.18474 -4.27103 2.18130 150 139 119
0.13652 -4.24122 2.20254 150 151 169
0.12120 -4.24910 2.19172 154 158 174
0.08501 -4.30603 2.21977 151 150 162
0.09347 -4.29894 2.20251 151 153 173
0.08152 -4.30645 2.20569 149 151 167
0.07078 -4.30535 2.22252 142 134 119
0.06233 -4.31242 2.23975 36 14 15
0.06459 -4.33361 2.22681 89 81 49
0.05610 -4.34072 2.24413 23 9 32
0.05261 -4.34115 2.23000 42 29 16
-0.25244 -3.78356 2.23015 173 166 158
-0.25956 -3.78952 2.24469 179 172 164
1.63361 -2.02450 1.65502 181 184 177
1.63970 -2.01940 1.64260 205 209 218
1.63110 -2.02480 1.64489 201 203 202
1.61953 -2.02644 1.65805 102 101 102
1.63279 -2.04571 1.65741 53 44 71
1.62667 -2.05084 1.66991 54 58 76
1.62127 -2.04931 1.66010 54 56 80
1.61515 -2.05443 1.67259 51 56 66
1.61011 -2.05505 1.65222 55 59 71
1.27660 -3.10018 1.83955 104 85 73
1.29052 -3.09302 1.84939 94 82 65
1.28738 -3.09340 1.83668 93 82 68
1.25602 -3.11491 1.84522 146 123 97
1.21865 -3.08938 1.85003 161 141 93
1.21110 -3.09570 1.86543 128 108 83
1.20489 -3.09646 1.84030 168 158 130
1.21270 -3.10183 1.85253 175 156 116
1.20879 -3.11690 1.85489 176 160 112
1.18965 -3.15347 1.86257 158 146 123
1.18650 -3.15385 1.84987 147 131 127
1.17573 -3.16063 1.85274 146 131 130
1.18715 -3.17075 1.86489 150 136 129
1.17318 -3.17794 1.85502 146 131 126
0.47238 -4.44976 2.14245 70 87 58
0.46100 -4.46218 2.14603 93 101 115
0.42674 -4.41111 2.14753 139 134 139
0.41024 -4.41959 2.13588 151 141 137
0.29614 -4.34360 2.16660 144 132 123
0.31214 -4.33537 2.17790 141 131 120
0.30852 -4.33581 2.16330 140 130 116
0.30491 -4.33625 2.14870 138 129 126
0.29975 -4.34316 2.18120 140 128 121
0.28737 -4.35095 2.18450 144 129 121
0.27515 -4.32528 2.16888 149 138 121
0.26644 -4.33258 2.18667 148 131 122
0.26285 -4.33302 2.17216 151 139 122
0.25926 -4.33346 2.15765 154 144 128
0.16095 -4.24028 2.18283 149 132 115
0.16938 -4.23322 2.16563 152 137 121
0.15747 -4.24070 2.16880 156 140 117
0.14632 -4.23880 2.18561 145 129 125
0.13126 -4.23564 2.18829 150 150 155
0.06968 -4.31433 2.20889 150 152 159
0.07814 -4.30725 2.19163 153 155 168
0.06620 -4.31476 2.19481 150 153 165
0.06001 -4.33010 2.21249 148 144 133
0.04090 -4.31134 2.21434 124 116 90
0.03248 -4.31840 2.23153 26 11 15
0.02901 -4.31882 2.21751 73 64 30
-0.25463 -3.78717 2.21848 160 147 140
-0.26419 -3.79579 2.22130 168 161 158
1.64396 -2.05472 1.64534 62 60 84
1.62743 -2.05518 1.64872 51 51 73
1.28077 -3.08968 1.82426 92 83 76
1.29467 -3.08253 1.83408 92 82 68
1.29153 -3.08292 1.82139 91 80 69
1.28839 -3.08330 1.80871 90 78 73
1.27194 -3.09876 1.82697 121 111 91
1.24059 -3.08083 1.83149 168 158 125
1.23327 -3.09160 1.83406 182 163 131
1.22017 -3.09539 1.83710 177 160 125
1.20044 -3.13084 1.84470 155 144 129
1.18658 -3.13798 1.83491 149 135 129
0.47500 -4.42441 2.12327 25 36 43
0.48413 -4.41676 2.10464 11 24 40
0.46756 -4.44736 2.12711 79 100 97
0.45370 -4.45293 2.13048 85 83 98
0.43700 -4.46151 2.11869 138 137 138
0.42599 -4.41986 2.13272 137 135 141
0.40946 -4.42836 2.12105 151 140 133
0.28709 -4.32767 2.15143 144 133 132
0.29582 -4.32035 2.13361 143 130 130
0.27116 -4.33587 2.14018 155 144 132
0.27003 -4.32106 2.15421 153 143 131
0.25416 -4.32923 2.14300 156 144 132
0.20832 -4.26595 2.16108 149 138 124
0.21685 -4.25880 2.14367 157 144 137
0.21183 -4.26552 2.17529 150 133 110
0.20480 -4.26638 2.14688 154 143 143
0.19627 -4.27353 2.16429 151 136 123
0.13704 -4.22000 2.17082 148 136 127
0.14541 -4.21299 2.15375 152 133 122
0.12233 -4.21775 2.17357 150 144 149
0.11167 -4.22899 2.17687 157 161 176
0.10332 -4.23599 2.19392 154 157 172
0.09988 -4.23641 2.18002 159 163 178
0.09644 -4.23683 2.16611 161 166 183
0.05296 -4.31756 2.19777 147 151 166
0.04948 -4.31799 2.18371 149 151 170
0.04146 -4.32665 2.20103 145 149 154
0.02906 -4.33240 2.20412 137 134 114
0.02061 -4.33948 2.22137 42 24 8
0.00129 -4.27981 2.20438 121 115 89
-0.01046 -4.28720 2.20751 95 91 57
-0.01388 -4.28762 2.19366 135 138 129
1.64020 -2.04329 1.63418 184 184 184
1.64633 -2.03815 1.62166 206 207 218
1.63767 -2.04360 1.62397 202 202 204
1.63877 -2.05335 1.63546 105 104 110
1.63644 -2.06288 1.63688 54 46 61
1.62886 -2.06908 1.63904 53 58 72
1.62269 -2.07424 1.65163 53 56 61
1.62015 -2.07455 1.64136 52 60 65
1.61761 -2.07486 1.63109 52 61 69
1.27718 -3.08954 1.81161 91 80 77
1.28480 -3.08316 1.79606 90 78 71
1.26570 -3.09544 1.81454 113 105 93
1.23874 -3.08273 1.81879 160 156 136
1.22971 -3.09145 1.82150 168 155 142
1.21776 -3.09662 1.82445 162 147 131
1.20396 -3.10372 1.81471 145 137 126
1.19905 -3.11334 1.82992 146 136 131
1.18524 -3.12045 1.82017 148 135 128
0.47782 -4.44265 2.10849 44 60 63
0.48698 -4.43498 2.08978 12 19 48
0.46438 -4.44945 2.11190 78 95 97
0.45072 -4.45558 2.11530 87 87 77
0.12825 -4.20273 2.15624 152 138 127
0.12482 -4.20315 2.14237 150 137 118
0.11485 -4.20463 2.15916 153 147 140
0.10350 -4.21334 2.16234 160 164 174
0.08832 -4.22115 2.15162 159 166 182
0.06588 -4.27634 2.17625 155 159 172
0.08118 -4.26847 2.18706 155 157 173
0.07427 -4.26931 2.15912 159 165 182
0.06242 -4.27676 2.16228 157 163 182
0.05657 -4.29298 2.17979 152 156 169
0.04123 -4.30087 2.16895 154 156 177
0.03538 -4.31743 2.18654 145 149 167
0.03191 -4.31785 2.17250 151 154 168
0.02691 -4.33782 2.19028 141 144 154
0.00927 -4.32363 2.19248 138 139 142
-0.29667 -3.77920 2.20127 158 147 140
-0.30958 -3.77172 2.20317 168 162 160
1.64491 -2.05918 1.62397 150 153 146
1.65108 -2.05401 1.61137 205 206 211
1.64592 -2.07090 1.62488 64 68 73
1.63442 -2.07462 1.62760 49 54 68
1.96857 -3.55778 1.70030 77 66 53
1.98546 -3.54909 1.71224 81 67 52
1.98165 -3.54956 1.69681 79 65 49
1.97238 -3.55732 1.71572 82 69 57
1.95930 -3.56555 1.71921 82 72 58
1.95963 -3.57046 1.70335 79 69 56
1.95035 -3.57824 1.72229 83 74 57
1.94653 -3.57870 1.70684 83 72 56
1.27431 -3.09024 1.79890 90 77 75
1.28193 -3.08386 1.78335 90 78 65
1.27117 -3.09062 1.78622 88 76 73
1.26376 -3.09726 1.80175 101 91 90
1.23850 -3.08657 1.80594 141 136 129
1.22469 -3.09368 1.79618 151 141 130
1.23054 -3.09661 1.80854 150 142 131
1.21671 -3.10372 1.79877 149 137 124
1.21687 -3.09973 1.81166 147 139 128
1.20306 -3.10683 1.80190 148 136 120
1.23021 -5.78827 2.06567 16 18 17
1.25297 -5.77656 2.08174 13 15 4
1.24783 -5.77719 2.06097 15 17 13
1.23535 -5.78764 2.08643 13 15 8
1.21773 -5.79872 2.09113 12 16 14
1.21533 -5.80598 2.07043 18 19 24
1.20284 -5.81645 2.09592 14 18 20
1.19255 -5.81770 2.05433 24 27 36
1.20525 -5.83558 2.07533 21 22 26
1.19272 -5.84608 2.10091 17 20 22
1.18239 -5.84734 2.05918 23 31 30
0.47166 -4.43665 2.09311 64 77 67
0.48081 -4.42898 2.07443 17 20 30
0.46017 -4.44870 2.09663 66 75 85
0.44894 -4.46156 2.10017 93 94 89
0.43184 -4.45807 2.10337 141 140 140
0.41893 -4.46619 2.10681 151 139 136
0.41516 -4.46665 2.09159 150 141 133
0.15723 -4.21719 2.13703 155 145 123
0.16908 -4.20973 2.13387 155 145 132
0.16562 -4.21015 2.11990 157 147 130
0.16069 -4.21676 2.15100 153 134 115
0.15377 -4.21761 2.12306 157 147 130
0.13721 -4.19780 2.13931 153 138 122
0.10549 -4.18509 2.14464 151 140 131
0.10209 -4.18550 2.13086 150 139 130
0.09231 -4.18731 2.14757 155 157 170
0.01471 -4.30540 2.17486 147 150 160
0.02310 -4.29837 2.15774 158 158 169
0.01126 -4.30582 2.16089 154 156 167
-0.00059 -4.31327 2.16405 151 152 169
-0.31242 -3.77236 2.19145 154 146 140
1.64996 -2.06434 1.61256 183 185 177
1.65615 -2.05916 1.59993 205 206 214
1.64741 -2.06465 1.60226 201 200 199
1.65703 -2.07999 1.61253 108 109 103
1.64955 -2.08636 1.61468 52 46 61
1.64180 -2.09257 1.61687 50 59 75
1.63557 -2.09779 1.62958 51 58 63
1.63301 -2.09810 1.61921 53 59 71
1.63044 -2.09841 1.60884 54 59 71
1.97851 -3.52872 1.67928 86 71 36
1.99534 -3.52006 1.69117 85 70 56
1.99154 -3.52052 1.67581 87 77 44
1.98774 -3.52099 1.66045 89 81 46
1.98231 -3.52825 1.69464 84 67 50
1.96526 -3.55879 1.68482 65 56 50
1.94836 -3.56749 1.67288 55 45 45
1.96023 -3.57569 1.68743 70 63 49
1.94328 -3.58441 1.67546 68 56 53
1.26080 -3.09786 1.78904 96 86 89
1.24287 -3.09599 1.79261 139 128 122
1.22902 -3.10312 1.78282 155 145 125
1.25952 -5.81794 2.04040 16 21 21
1.28245 -5.80615 2.05660 13 15 16
1.27727 -5.80678 2.03567 15 16 18
1.27209 -5.80741 2.01475 17 20 21
1.23660 -5.82973 2.02421 20 24 32
1.24462 -5.83595 2.04517 18 24 28
1.22167 -5.84776 2.02895 22 27 38
0.46847 -4.43868 2.07790 74 85 76
0.47762 -4.43101 2.05921 19 33 31
0.45840 -4.45466 2.08147 50 56 85
0.44483 -4.46111 2.08489 98 98 107
0.43486 -4.47759 2.08849 143 143 139
0.41811 -4.48621 2.07665 149 139 133
0.13193 -4.19214 2.12526 155 146 132
0.14025 -4.18517 2.10827 158 147 132
0.12850 -4.19256 2.11140 158 146 136
0.11675 -4.19995 2.11453 155 145 133
0.11328 -4.17653 2.12770 150 142 125
0.09820 -4.18429 2.11704 153 144 133
0.08722 -4.18199 2.13363 151 145 152
0.07613 -4.19126 2.13680 160 164 179
0.06788 -4.19817 2.15365 161 167 183
0.06657 -4.20590 2.14015 166 170 186
0.05612 -4.21762 2.14340 164 168 186
0.04443 -4.22497 2.14652 163 166 184
-0.34263 -3.74880 2.18321 162 150 144
-0.35487 -3.74303 2.18522 171 163 160
-0.36182 -3.74885 2.19940 182 173 161
1.65178 -2.07857 1.60258 154 154 145
1.65800 -2.07336 1.58989 206 207 212
1.64922 -2.07889 1.59223 187 188 184
1.65709 -2.09321 1.60277 66 68 79
1.65288 -2.10177 1.60442 50 53 69
1.64146 -2.10764 1.59635 50 58 66
2.03551 -3.44122 1.64330 78 53 42
2.05217 -3.43265 1.65507 81 64 55
2.04841 -3.43311 1.63986 77 60 51
2.03927 -3.44077 1.65851 78 65 56
2.02637 -3.44888 1.66194 78 64 54
2.02657 -3.45335 1.64626 84 59 35
2.01742 -3.46102 1.66493 82 64 57
2.02324 -3.47127 1.64855 95 79 59
2.01407 -3.47895 1.66728 82 65 60
2.01039 -3.47952 1.65199 92 74 43
2.00121 -3.48721 1.67072 80 65 55
1.99743 -3.48767 1.65544 82 64 32
1.96054 -3.51421 1.66557 92 83 41
1.95676 -3.51467 1.65028 91 85 51
1.94379 -3.52283 1.65374 92 79 58
1.28151 -3.08745 1.77038 91 73 56
1.29542 -3.08029 1.78021 90 77 63
1.29228 -3.08067 1.76751 88 75 60
1.27104 -3.09458 1.77322 97 77 72
1.26105 -3.10230 1.77600 113 96 96
1.23990 -3.09655 1.77994 148 129 121
0.47069 -4.45550 2.06285 82 103 94
0.47989 -4.44780 2.04410 31 40 33
0.46691 -4.45596 2.04755 78 105 93
0.45264 -4.44967 2.06613 36 35 74
0.44622 -4.47596 2.06982 101 111 121
0.43425 -4.48698 2.07333 144 142 138
0.41746 -4.49562 2.06146 149 138 132
0.08248 -4.17780 2.11977 149 142 145
0.09072 -4.17089 2.10295 157 147 134
0.06745 -4.18553 2.10915 161 156 157
0.06954 -4.18058 2.12274 160 164 184
0.05835 -4.18943 2.12588 168 176 198
0.04895 -4.20467 2.12922 166 176 193
0.03879 -4.21738 2.13249 167 174 189
0.03053 -4.22430 2.14935 162 164 183
0.03117 -4.23947 2.13606 165 171 183
0.02287 -4.24642 2.15299 161 161 176
0.02138 -4.25394 2.13941 165 166 177
0.01081 -4.26570 2.14268 161 161 171
-0.00238 -4.26760 2.14562 156 155 167
-0.01352 -4.27724 2.14883 153 151 164
-0.02868 -4.28504 2.13812 149 137 128
-0.02901 -4.26999 2.15144 151 150 157
-0.05007 -4.24033 2.15323 150 150 160
-0.07962 -4.22896 2.15843 150 146 146
-0.09860 -4.20541 2.16032 142 134 123
-0.10668 -4.21219 2.17682 98 95 96
-0.11001 -4.21259 2.16336 95 79 89
-0.36802 -3.74710 2.17615 167 157 151
1.67135 -2.10444 1.58973 116 119 119
1.67764 -2.09917 1.57689 203 205 206
1.66876 -2.10476 1.57926 161 162 156
1.65280 -2.10372 1.59360 56 50 66
2.06188 -3.42977 1.62066 77 51 44
2.07857 -3.42119 1.63245 78 59 45
2.07480 -3.42165 1.61722 72 53 42
2.06565 -3.42931 1.63589 78 61 50
2.04784 -3.43677 1.62425 80 61 56
2.03928 -3.44928 1.62714 99 82 89
1.99954 -3.43020 1.63394 130 123 112
2.00254 -3.45443 1.63538 157 160 139
1.96363 -3.43576 1.64204 150 147 106
1.97581 -3.46964 1.64237 98 80 51
1.96293 -3.47774 1.64580 78 65 47
1.29119 -3.06410 1.75292 91 71 60
1.30505 -3.05697 1.76271 86 75 53
1.30192 -3.05735 1.75006 84 70 56
1.29432 -3.06372 1.76557 87 76 61
1.28390 -3.07490 1.75539 100 76 65
1.27682 -3.08601 1.75785 115 99 77
1.26388 -3.09018 1.76095 149 131 106
1.25426 -3.09831 1.76370 178 157 121
1.23965 -3.10042 1.76698 178 158 119
1.22718 -3.10507 1.77003 161 143 122
1.21958 -3.11144 1.78554 152 136 125
1.21644 -3.11182 1.77289 152 137 128
1.21331 -3.11220 1.76023 150 137 129
1.35056 -5.89771 1.98377 16 22 19
1.37395 -5.88568 2.00030 13 17 13
1.36867 -5.88632 1.97894 16 19 15
1.35584 -5.89707 2.00512 13 18 16
1.33773 -5.90846 2.00995 15 20 19
1.33245 -5.90911 1.98859 17 25 18
1.24702 -5.86809 2.00321 26 29 35
1.22394 -5.87996 1.98691 33 38 45
0.44680 -4.48862 2.05463 107 121 121
0.43574 -4.50239 2.05816 147 143 137
0.41889 -4.51106 2.04625 149 141 128
0.08776 -4.20805 2.10677 156 147 135
0.09607 -4.20109 2.08982 157 149 138
0.08434 -4.20846 2.09294 157 149 134
0.06094 -4.21091 2.11271 155 149 157
0.04584 -4.21868 2.10204 146 132 128
0.05283 -4.23104 2.11617 150 137 152
0.03638 -4.22135 2.11883 154 148 157
0.02724 -4.23801 2.12220 158 150 151
0.01679 -4.25003 2.12545 157 144 143
0.00165 -4.25782 2.11476 153 135 125
0.00457 -4.25551 2.12852 155 140 141
-0.01057 -4.26330 2.11783 150 132 123
-0.00951 -4.25387 2.13137 152 137 140
-0.02461 -4.26163 2.12070 147 131 115
-0.02021 -4.26505 2.13460 150 136 135
-0.07057 -4.22573 2.14192 147 135 129
-0.08545 -4.23339 2.13141 143 130 116
-0.08424 -4.22421 2.14469 145 133 127
-0.10227 -4.20441 2.14682 141 122 115
-0.12071 -4.18212 2.14882 88 62 82
-0.12873 -4.18884 2.16518 82 76 93
-0.13203 -4.18924 2.15183 73 63 82
-0.14005 -4.19596 2.16820 105 107 113
-0.14674 -4.18176 2.15431 106 103 104
-0.15473 -4.18845 2.17062 116 114 114
-0.15802 -4.18885 2.15732 122 113 101
-0.16131 -4.18925 2.14402 126 118 98
-0.39285 -3.74723 2.16925 172 162 158
-0.39977 -3.75303 2.18336 183 174 167
-0.83700 -3.93852 2.28000 131 121 107
-0.82467 -3.93219 2.28871 138 126 115
-0.82746 -3.93253 2.27746 139 127 116
-0.84375 -3.94418 2.29379 124 104 89
-0.84653 -3.94452 2.28254 127 108 89
-0.84932 -3.94486 2.27130 130 114 94
1.66416 -2.11313 1.58094 74 76 84
1.67046 -2.10785 1.56808 189 194 186
1.65788 -2.12045 1.58289 46 54 63
1.65157 -2.12573 1.59576 56 60 65
1.64898 -2.12604 1.58526 53 61 67
1.64638 -2.12636 1.57476 52 59 71
2.08039 -3.38978 1.59731 66 50 34
2.09699 -3.38124 1.60904 68 54 42
2.09324 -3.38170 1.59389 63 55 44
2.08414 -3.38932 1.61246 71 56 35
2.07129 -3.39740 1.61589 72 55 33
2.07364 -3.40386 1.59992 72 45 35
2.06516 -3.41630 1.60277 74 58 59
2.04636 -3.41853 1.60698 99 91 94
2.02165 -3.41475 1.61197 129 131 122
2.05266 -3.46705 1.60965 155 157 155
2.03586 -3.47569 1.59778 164 174 185
2.02955 -3.46497 1.61443 167 170 171
2.01281 -3.47358 1.60260 168 177 191
1.99059 -3.44651 1.62125 169 177 182
1.97164 -3.44831 1.62547 170 172 165
1.93535 -3.43203 1.63190 123 117 105
1.32686 -3.03280 1.72932 79 68 58
1.34070 -3.02568 1.73910 82 69 47
1.33758 -3.02607 1.72647 78 69 54
1.33445 -3.02645 1.71384 70 54 45
1.32999 -3.03242 1.74195 84 71 57
1.31928 -3.03916 1.74481 84 71 57
1.31892 -3.04271 1.73184 81 62 50
1.31132 -3.04907 1.74735 83 71 55
1.31300 -3.05499 1.73413 85 59 49
1.30581 -3.06588 1.73657 96 71 73
1.29298 -3.07023 1.73968 126 102 93
1.27997 -3.07435 1.74281 157 135 105
1.27380 -3.08653 1.74514 179 159 120
1.26229 -3.09241 1.74810 184 167 131
1.24968 -3.09695 1.75118 183 165 133
1.23578 -3.09991 1.75440 172 157 122
1.22191 -3.10705 1.74460 144 128 126
1.22251 -3.10357 1.75755 155 141 122
1.20865 -3.11070 1.74776 147 134 126
1.32241 -5.89856 1.96733 21 28 29
1.30440 -5.91009 1.97215 24 31 32
1.28105 -5.92210 1.95565 30 37 43
1.28510 -5.91850 1.97698 28 35 43
1.26176 -5.93051 1.96050 32 39 43
0.46995 -4.47513 2.03234 80 101 91
0.48298 -4.46693 2.02887 44 55 53
0.47918 -4.46740 2.01350 56 63 73
0.46614 -4.47559 2.01697 75 94 94
0.45500 -4.47805 2.03578 47 36 43
0.44819 -4.50362 2.03936 118 125 111
0.43813 -4.52040 2.04290 147 142 134
0.42121 -4.52910 2.03095 150 138 132
0.07113 -4.21067 2.09596 158 148 136
0.07943 -4.20372 2.07903 156 147 134
0.06772 -4.21108 2.08215 158 147 133
0.05601 -4.21845 2.08527 156 146 130
0.03429 -4.22655 2.10517 149 136 133
0.03088 -4.22697 2.09139 151 139 124
0.01918 -4.23432 2.09450 151 138 117
0.02619 -4.24713 2.10861 153 141 130
0.01104 -4.25493 2.09790 155 140 120
0.01205 -4.24554 2.11151 155 141 125
-0.00307 -4.25331 2.10083 155 140 119
-0.10439 -4.20984 2.13352 142 125 103
-0.09629 -4.20306 2.11700 143 130 115
-0.12415 -4.18194 2.13545 100 76 58
-0.13417 -4.19459 2.13864 73 62 67
-0.14702 -4.19520 2.14145 100 101 96
-0.83004 -3.93638 2.26646 140 127 119
-0.81770 -3.93004 2.27518 143 130 122
-0.82049 -3.93038 2.26392 144 131 124
-0.83959 -3.94239 2.26901 134 120 109
-0.85192 -3.94873 2.26029 130 115 101
1.69428 -2.13484 1.56507 120 123 113
1.70066 -2.12950 1.55206 204 208 207
1.65622 -2.12138 1.57224 53 50 58
1.64704 -2.13834 1.57557 55 59 63
1.64965 -2.13802 1.58611 53 57 60
1.64444 -2.13865 1.56504 56 60 68
1.64071 -2.14364 1.58849 47 47 52
2.07851 -3.35111 1.57864 59 46 37
2.09498 -3.34263 1.59028 67 50 49
2.09126 -3.34309 1.57525 63 48 44
2.08223 -3.35066 1.59368 63 52 49
2.08127 -3.37418 1.57988 66 49 48
2.07406 -3.38772 1.58252 75 67 71
2.07546 -3.40980 1.58397 103 100 102
2.06302 -3.41836 1.58735 130 133 131
2.05586 -3.43221 1.58999 146 154 151
2.04148 -3.43887 1.59364 155 166 168
2.02480 -3.44746 1.58185 154 163 183
2.02407 -3.44245 1.59769 161 173 183
2.00741 -3.45103 1.58592 158 164 184
1.95276 -3.43314 1.61238 173 180 190
1.94903 -3.43359 1.59734 176 183 194
1.94851 -3.45001 1.61464 159 158 143
1.96406 -3.48771 1.61427 107 89 49
1.94737 -3.49629 1.60248 63 48 36
1.32239 -3.03165 1.71686 81 58 51
1.31579 -3.04309 1.71920 96 75 70
1.29964 -3.06275 1.72426 165 147 105
1.29241 -3.07363 1.72669 182 165 131
1.28306 -3.08207 1.72938 184 169 134
1.27196 -3.08845 1.73229 182 165 134
1.25789 -3.09128 1.73556 172 157 123
1.24399 -3.09843 1.72574 144 132 119
1.24622 -3.09695 1.73854 161 144 124
1.23233 -3.10409 1.72872 143 133 118
1.23204 -3.09956 1.74181 146 132 123
1.21817 -3.10669 1.73201 143 131 124
1.30026 -5.91342 1.95081 26 36 37
1.29499 -5.91407 1.92949 28 41 42
1.27690 -5.92544 1.93430 32 43 41
0.45321 -4.48407 2.02044 57 42 35
0.45306 -4.52848 2.02400 123 126 116
0.43607 -4.53722 2.01200 148 139 127
0.43858 -4.53299 2.02750 147 139 130
0.42161 -4.54172 2.01550 147 137 131
0.04508 -4.22863 2.08844 154 144 127
0.05338 -4.22168 2.07150 156 148 134
0.04166 -4.22905 2.07463 157 148 133
-0.10840 -4.20743 2.11997 144 130 104
-0.10031 -4.20065 2.10347 144 129 118
-0.11173 -4.20783 2.10651 145 129 110
-0.12339 -4.19949 2.12258 129 107 74
-0.13933 -4.18708 2.12504 90 67 49
-0.15053 -4.19468 2.12807 89 88 70
-0.16288 -4.19722 2.13095 114 116 102
-0.17089 -4.20393 2.14729 128 112 96
-0.17419 -4.20433 2.13396 128 119 110
-0.40648 -3.76408 2.14922 156 146 136
-0.43285 -3.73818 2.15286 172 163 166
-0.43971 -3.74392 2.16686 182 175 176
-0.44536 -3.74461 2.14403 167 159 154
-0.44326 -3.74014 2.15527 178 173 174
-0.45011 -3.74588 2.16925 182 174 173
-0.45293 -3.74622 2.15785 181 175 174
-0.82337 -3.92902 2.25255 148 134 129
-0.81105 -3.92268 2.26126 147 134 128
-0.81383 -3.92302 2.25000 150 137 132
-0.81661 -3.92336 2.23875 152 140 135
-0.83292 -3.93503 2.25509 143 128 124
-0.84246 -3.94103 2.25763 136 120 114
-0.85479 -3.94737 2.24892 132 117 107
1.65282 -2.12117 1.56187 72 79 78
1.65145 -2.13176 1.56298 51 54 61
1.64549 -2.15098 1.56575 54 57 61
1.64287 -2.15130 1.55517 56 60 67
1.63914 -2.15631 1.57871 43 44 43
1.63652 -2.15662 1.56814 48 50 54
1.63391 -2.15694 1.55756 52 56 59
2.10667 -3.30151 1.55283 53 46 36
2.11935 -3.29354 1.54945 54 44 28
2.11565 -3.29399 1.53451 52 38 29
2.11037 -3.30106 1.56777 58 48 43
2.09770 -3.30903 1.57115 61 47 43
2.09400 -3.30949 1.55620 56 44 36
2.07629 -3.31266 1.56031 58 40 27
2.07779 -3.33419 1.56163 67 45 47
2.07048 -3.34740 1.56423 75 68 67
2.09354 -3.39019 1.56246 105 103 104
2.04706 -3.36542 1.57072 131 133 131
2.03060 -3.37389 1.55910 141 150 156
2.03577 -3.39554 1.57549 144 155 156
2.01924 -3.40404 1.56380 147 157 160
2.01741 -3.39804 1.57969 143 158 158
2.00049 -3.40191 1.58368 149 162 176
1.95277 -3.41630 1.59520 169 174 191
1.92866 -3.43369 1.60179 178 180 174
1.93060 -3.45707 1.60315 134 125 95
1.91408 -3.46557 1.59148 84 82 84
1.34209 -3.00146 1.69692 48 17 25
1.35587 -2.99437 1.70665 46 38 34
1.35276 -2.99475 1.69408 34 14 18
1.34520 -3.00108 1.70949 54 48 47
1.33454 -3.00779 1.71233 60 54 50
1.32359 -2.99937 1.70080 57 37 44
1.32622 -3.02105 1.70188 85 72 67
1.32798 -3.04196 1.70309 133 117 89
1.31410 -3.04910 1.69328 184 172 129
1.30861 -3.03883 1.70708 169 154 110
1.30166 -3.04990 1.70945 184 168 122
1.28788 -3.07238 1.71417 176 166 137
1.27941 -3.08185 1.71674 168 155 130
1.26550 -3.08901 1.70691 144 132 126
1.26836 -3.08829 1.71965 156 142 129
1.25445 -3.09545 1.70982 146 132 124
1.25366 -3.09036 1.72302 147 134 122
1.23977 -3.09750 1.71321 145 134 119
0.81278 -4.11256 1.89732 67 64 51
0.45342 -4.49572 2.00505 65 60 37
0.45736 -4.55186 2.00847 128 134 125
0.44028 -4.56065 1.99640 150 140 131
0.02432 -4.21588 2.07741 155 145 132
0.03257 -4.20897 2.06056 156 147 136
0.02091 -4.21630 2.06367 157 146 137
0.01103 -4.21720 2.08041 154 140 125
-0.00061 -4.22452 2.08351 153 138 123
-0.12571 -4.20412 2.10928 144 124 94
-0.11765 -4.19737 2.09282 146 129 111
-0.14063 -4.19607 2.11192 126 102 64
-0.15433 -4.19291 2.11467 89 75 41
-0.16633 -4.19695 2.11760 86 83 61
-0.17825 -4.20129 2.12054 112 108 100
-0.18625 -4.20799 2.13686 130 115 99
-0.19434 -4.18650 2.12292 127 117 105
-0.20229 -4.19316 2.13915 127 108 83
-0.20556 -4.19356 2.12591 130 117 96
-0.43465 -3.74432 2.14166 159 147 142
-0.44718 -3.75077 2.13281 157 142 134
-0.45797 -3.73352 2.14593 175 170 168
-0.46079 -3.73386 2.13457 161 152 149
-0.46480 -3.73924 2.15986 184 175 172
-0.82596 -3.93280 2.24151 151 137 137
-0.81919 -3.92713 2.22770 153 140 138
-0.82875 -3.93314 2.23025 153 138 141
-0.83551 -3.93881 2.24406 147 132 129
-0.84507 -3.94482 2.24660 141 123 119
-0.85741 -3.95116 2.23788 138 123 109
1.66513 -2.14289 1.54965 54 49 63
1.65150 -2.14544 1.55284 52 58 70
1.63992 -2.15139 1.54466 55 62 70
2.10100 -3.30010 1.53818 52 35 34
2.08767 -3.30745 1.54166 62 45 50
2.07797 -3.31824 1.54458 79 68 59
2.10483 -3.36416 1.54202 110 103 95
2.07720 -3.35794 1.54766 126 130 121
2.05246 -3.37481 1.55434 141 147 149
1.99139 -3.39695 1.56942 151 159 172
1.97406 -3.40031 1.57349 154 162 182
1.95513 -3.40197 1.57778 163 171 192
1.94212 -3.40963 1.58121 174 181 200
1.92341 -3.41138 1.58546 180 188 201
1.91255 -3.42123 1.58858 185 194 195
1.89268 -3.42165 1.59299 166 170 163
1.87635 -3.43005 1.58145 76 77 63
1.35016 -2.95895 1.67874 45 35 23
1.36382 -2.95193 1.68839 78 70 56
1.36074 -2.95230 1.67593 67 72 42
1.35325 -2.95857 1.69121 39 34 21
1.34268 -2.96522 1.69403 24 18 13
1.35195 -2.97921 1.67983 37 14 19
1.34053 -2.98502 1.68277 54 33 39
1.32648 -2.98788 1.68608 97 76 60
1.33095 -3.01151 1.68682 140 123 88
1.31715 -3.01860 1.67708 184 170 129
1.31198 -3.00884 1.69081 170 157 116
1.30826 -3.02342 1.69269 183 170 126
1.29754 -3.04913 1.69694 178 163 129
1.29210 -3.06203 1.69908 168 151 132
1.27822 -3.06917 1.68927 148 135 128
1.28592 -3.07415 1.70132 153 142 129
1.27202 -3.08130 1.69150 147 134 124
1.27633 -3.08231 1.70404 146 136 125
1.26242 -3.08946 1.69421 147 132 123
0.82407 -4.14359 1.88131 63 65 50
0.45912 -4.56819 1.99280 131 137 132
0.44197 -4.57701 1.98069 148 140 125
0.13751 -4.28237 2.04280 143 135 138
0.15303 -4.27439 2.05376 155 147 136
0.14953 -4.27481 2.03959 155 148 133
0.14102 -4.28194 2.05696 155 146 136
0.12900 -4.28950 2.06016 156 145 135
0.12572 -4.29069 2.04600 144 138 134
0.11720 -4.29782 2.06338 156 145 134
0.11178 -4.29167 2.04915 150 144 135
0.10328 -4.29878 2.06649 156 144 135
0.09978 -4.29921 2.05234 156 146 137
-0.01833 -4.17105 2.06901 156 141 125
-0.02646 -4.17786 2.08560 154 139 122
-0.02981 -4.17827 2.07207 154 137 117
-0.08786 -4.15830 2.08340 153 133 114
-0.07653 -4.15117 2.08038 154 138 117
-0.07984 -4.15158 2.06702 155 138 127
-0.08456 -4.15790 2.09676 148 130 112
-0.09589 -4.16502 2.09978 145 129 116
-0.09920 -4.16543 2.08642 149 129 115
-0.12915 -4.20404 2.09585 145 130 104
-0.12108 -4.19729 2.07939 147 131 108
-0.13247 -4.20445 2.08243 145 131 109
-0.14385 -4.21161 2.08546 145 131 106
-0.14070 -4.21046 2.09886 143 127 92
-0.15451 -4.20700 2.10165 129 111 73
-0.16789 -4.20509 2.10446 109 94 57
-0.18026 -4.20750 2.10737 104 75 55
-0.19559 -4.19619 2.10992 103 78 62
-0.21013 -4.20366 2.09964 104 81 57
-0.21118 -4.18308 2.11240 113 99 88
-0.21911 -4.18973 2.12858 128 112 83
-0.22237 -4.19012 2.11538 123 114 97
-0.47374 -3.71997 2.13641 171 165 164
-0.46696 -3.71428 2.12257 155 141 132
-0.83830 -3.93909 2.23279 151 137 131
-0.83154 -3.93342 2.21898 155 140 139
-0.84109 -3.93943 2.22153 154 139 131
-0.84786 -3.94510 2.23534 146 131 121
-0.86020 -3.95145 2.22662 145 132 112
2.76785 -2.61422 1.32611 210 212 227
2.75936 -2.62133 1.34344 214 219 229
2.75586 -2.62176 1.32931 213 216 228
2.75237 -2.62219 1.31518 212 214 227
1.66982 -2.14807 1.53778 80 77 84
2.10211 -3.26555 1.51973 53 33 30
2.11837 -3.25719 1.53122 47 42 30
2.11470 -3.25763 1.51638 44 33 20
2.11103 -3.25808 1.50154 52 48 25
2.10578 -3.26510 1.53457 49 41 32
2.10165 -3.28481 1.52118 59 46 40
2.08534 -3.29320 1.50965 116 120 109
2.12385 -3.32556 1.51909 80 71 66
2.08671 -3.31049 1.52630 105 101 98
2.09559 -3.33904 1.52632 121 126 113
2.07193 -3.33660 1.53141 130 136 130
2.05550 -3.34505 1.51980 134 141 152
2.05758 -3.34301 1.53505 133 141 145
2.04116 -3.35146 1.52345 138 143 154
2.03294 -3.33939 1.54028 137 147 147
2.01690 -3.38510 1.54704 135 150 160
1.99770 -3.38667 1.55142 133 152 167
1.97227 -3.38187 1.55675 134 157 173
1.95280 -3.38294 1.56115 134 157 175
1.91672 -3.38775 1.56951 141 158 184
1.90044 -3.39612 1.55801 34 47 80
1.91403 -3.40594 1.57138 146 169 196
1.89770 -3.41435 1.55984 40 64 85
1.35056 -2.94496 1.66450 39 29 24
1.36418 -2.93796 1.67412 77 76 49
1.36110 -2.93833 1.66169 34 25 20
1.34018 -2.95177 1.66728 64 48 48
1.33540 -2.96475 1.66925 108 88 70
1.32788 -2.97479 1.67163 150 134 97
1.31135 -2.97480 1.67530 178 162 118
1.30884 -2.99050 1.67696 187 170 126
1.30084 -3.01888 1.68072 174 162 127
1.29735 -3.03382 1.68255 161 150 129
1.28355 -3.04092 1.67279 147 134 126
1.28934 -3.04363 1.68501 153 138 131
1.27552 -3.05074 1.67525 147 134 129
1.28354 -3.05608 1.68717 149 135 132
1.26970 -3.06321 1.67739 147 134 127
0.90436 -4.28042 1.85710 124 109 90
0.91376 -4.27256 1.83794 119 107 90
0.46166 -4.58682 1.97700 129 130 127
0.44444 -4.59567 1.96483 147 138 122
0.14586 -4.27469 2.02542 156 143 129
0.16138 -4.26670 2.03639 156 146 131
0.15787 -4.26713 2.02222 157 145 134
0.15437 -4.26756 2.00806 157 146 140
0.13848 -4.29786 2.02868 108 100 104
0.12228 -4.29135 2.03183 102 98 104
0.10905 -4.29473 2.03501 117 115 119
0.09526 -4.29606 2.03817 142 139 141
0.08677 -4.30317 2.05550 156 146 138
0.08327 -4.30360 2.04137 154 147 144
-0.03516 -4.17103 2.05844 156 142 124
-0.02705 -4.16423 2.04189 156 147 133
-0.03850 -4.17144 2.04494 157 147 134
-0.04327 -4.17782 2.07500 155 137 113
-0.15484 -4.22052 2.08852 145 132 103
-0.14677 -4.21377 2.07206 146 130 111
-0.15816 -4.22093 2.07510 145 131 112
-0.17065 -4.20793 2.09116 139 124 86
-0.18558 -4.19871 2.09384 131 106 70
-0.19930 -4.19462 2.09660 115 91 63
-0.22660 -4.18596 2.10207 106 91 57
-0.23452 -4.19260 2.11824 123 115 87
-0.23991 -4.18273 2.10481 111 113 70
-0.24781 -4.18934 2.12093 122 112 80
-0.25107 -4.18974 2.10778 122 135 75
-0.25432 -4.19014 2.09463 106 135 67
-0.47662 -3.71982 2.12510 159 147 140
-0.46983 -3.71414 2.11126 155 140 126
-0.47941 -3.72016 2.11381 155 139 127
-0.48823 -3.71332 2.12723 167 158 151
-0.50063 -3.70138 2.12915 177 170 165
-0.50735 -3.70701 2.14287 184 177 170
-0.51251 -3.69206 2.13115 181 176 172
-0.51920 -3.69767 2.14480 184 177 170
-0.52196 -3.69801 2.13366 183 177 172
-0.85033 -3.95148 2.22443 151 138 122
-0.86270 -3.95784 2.21569 151 138 121
2.76596 -2.61561 1.31169 219 220 230
1.65749 -2.15359 1.52968 54 53 65
1.66139 -2.19169 1.53135 52 55 53
1.67050 -2.18596 1.52892 58 61 66
1.66784 -2.18628 1.51818 55 60 67
1.65494 -2.19709 1.54451 42 39 42
1.65228 -2.19741 1.53377 45 43 46
1.64963 -2.19774 1.52303 48 47 51
2.11183 -3.27845 1.50272 84 72 63
2.12078 -3.27095 1.48445 93 95 77
2.10205 -3.28908 1.50562 101 99 91
2.07577 -3.30406 1.51252 124 129 127
2.05943 -3.31246 1.50098 127 132 142
2.07310 -3.32155 1.51429 127 135 136
2.05987 -3.32901 1.51775 130 139 141
2.04348 -3.33744 1.50618 137 139 158
2.01095 -3.34227 1.52962 149 150 153
1.93636 -3.28895 1.54281 119 119 128
1.92806 -3.30080 1.54546 80 74 99
1.91204 -3.30904 1.53414 23 24 44
1.92026 -3.31320 1.54804 58 67 90
1.90422 -3.32146 1.53670 27 26 44
1.91240 -3.32562 1.55063 51 67 88
1.89634 -3.33388 1.53928 26 26 40
1.36437 -2.94556 1.64829 75 56 46
1.33091 -2.92729 1.65458 123 108 73
1.31969 -2.95118 1.65870 182 164 120
1.31043 -2.95918 1.66131 186 172 133
1.30689 -2.97362 1.66307 183 169 136
1.29986 -2.98422 1.66535 175 159 135
1.29504 -2.99739 1.66731 163 147 135
1.28136 -3.00443 1.65765 149 133 128
1.29285 -3.01367 1.66889 153 138 131
1.27912 -3.02073 1.65919 148 135 121
1.28660 -3.02540 1.67108 148 135 127
1.27284 -3.03247 1.66136 148 135 119
0.90307 -4.28613 1.84124 123 111 85
0.91248 -4.27825 1.82205 120 106 90
0.86490 -4.27879 1.84932 33 26 20
1.27991 -6.14448 1.88059 41 44 49
1.29858 -6.13273 1.87561 34 37 35
1.28536 -6.14381 1.90261 35 41 50
1.26668 -6.15556 1.90758 37 45 46
1.25589 -6.14269 1.88586 42 49 50
1.24269 -6.15374 1.91279 41 49 54
0.46698 -4.61346 1.96096 133 135 124
0.44966 -4.62237 1.94871 149 137 122
0.14222 -4.27469 2.01126 159 140 123
0.15073 -4.26756 1.99389 158 144 138
0.13187 -4.28786 2.01446 104 77 68
0.12275 -4.30536 2.01768 67 51 64
0.10791 -4.30335 2.02087 75 73 77
0.08955 -4.28872 2.02402 122 119 117
0.07705 -4.29437 2.02720 149 144 139
0.06858 -4.30147 2.04448 156 145 132
0.06509 -4.30189 2.03039 154 146 134
0.06161 -4.30232 2.01629 152 144 132
-0.17194 -4.21738 2.07795 145 131 110
-0.16389 -4.21064 2.06154 147 130 115
-0.17525 -4.21778 2.06456 144 129 118
-0.18661 -4.22492 2.06759 144 129 120
-0.18397 -4.22145 2.08092 145 129 108
-0.20295 -4.19331 2.08331 139 123 96
-0.21750 -4.18487 2.08601 130 111 66
-0.22936 -4.18875 2.08893 118 111 52
-0.24309 -4.18348 2.09166 106 121 62
-0.25750 -4.19090 2.08148 103 132 66
-0.51590 -3.68830 2.11987 171 164 167
-0.84315 -3.95346 2.21101 157 142 134
-0.83356 -3.94743 2.20846 158 144 140
-0.83636 -3.94777 2.19715 161 148 144
-0.85274 -3.95949 2.21357 154 141 127
-0.86513 -3.96586 2.20482 155 142 130
2.76102 -2.61517 1.29782 228 230 236
2.76951 -2.60806 1.28050 235 239 244
2.74726 -2.62164 1.30135 216 218 228
2.73877 -2.62875 1.31867 216 222 231
2.73528 -2.62918 1.30454 215 219 229
2.73178 -2.62961 1.29042 214 218 227
1.71453 -2.18199 1.50734 175 176 171
1.72102 -2.17654 1.49408 212 214 221
1.71185 -2.18231 1.49652 202 204 198
1.64735 -2.14887 1.52045 81 86 90
1.66673 -2.17366 1.51763 49 54 53
1.65501 -2.17969 1.50935 53 56 66
2.11971 -3.19265 1.47972 42 21 25
2.13577 -3.18438 1.49107 37 27 25
2.13214 -3.18482 1.47641 35 23 23
2.12334 -3.19220 1.49438 39 28 24
2.11090 -3.20002 1.49770 38 27 32
2.09962 -3.19353 1.48433 44 28 34
2.07598 -3.19106 1.48953 57 48 43
2.06722 -3.19840 1.50739 48 31 23
2.06362 -3.19884 1.49282 79 73 65
2.07378 -3.26647 1.49481 117 124 117
2.05756 -3.27481 1.48336 121 128 124
2.06312 -3.29599 1.49910 124 131 132
2.05281 -3.32622 1.50335 132 137 147
2.00134 -3.31664 1.51440 140 146 165
1.99768 -3.31708 1.49959 142 152 163
1.99533 -3.33098 1.51667 153 159 166
1.96480 -3.32113 1.52296 127 129 129
1.34119 -2.92418 1.63900 164 146 104
1.33494 -2.93538 1.64113 183 166 128
1.31515 -2.94993 1.64653 186 168 136
1.30543 -2.95741 1.64921 173 157 130
1.29757 -2.96699 1.65160 160 147 125
1.28398 -2.97398 1.64200 147 135 118
1.29109 -2.97818 1.65378 153 139 125
1.27748 -2.98518 1.64416 147 133 120
1.28133 -2.98569 1.65646 150 134 129
1.26772 -2.99270 1.64684 149 133 124
1.22140 -3.25184 1.68693 143 132 123
1.23578 -3.24444 1.69709 147 135 125
1.23254 -3.24484 1.68396 145 133 124
1.22465 -3.25144 1.70005 145 136 127
1.21352 -3.25844 1.70302 145 133 126
1.21027 -3.25884 1.68990 142 131 124
0.90205 -4.29240 1.82531 124 109 83
0.91147 -4.28451 1.80609 120 105 93
0.88042 -4.28364 1.82965 70 61 42
0.84905 -4.29005 1.83717 27 28 30
0.83199 -4.29883 1.82512 33 38 38
0.46840 -4.62912 1.94490 137 140 127
0.45102 -4.63807 1.93261 151 139 124
0.13857 -4.27462 1.99710 161 143 122
0.14708 -4.26749 1.97973 156 144 136
0.12644 -4.28177 2.00030 120 93 62
0.11822 -4.30233 2.00346 58 43 36
0.10247 -4.29708 2.00670 64 70 58
0.08566 -4.28774 2.00991 117 120 109
0.07211 -4.28963 2.01310 145 140 132
-0.20572 -4.19608 2.07009 145 131 108
-0.19775 -4.18941 2.05382 146 129 118
-0.20900 -4.19648 2.05682 146 131 110
-0.22025 -4.20356 2.05982 146 132 98
-0.22097 -4.18432 2.07279 146 133 89
-0.23381 -4.18348 2.07565 136 132 76
-0.24703 -4.18056 2.07846 115 129 71
-0.50615 -3.70214 2.10677 153 140 138
-0.49943 -3.69651 2.09305 154 141 128
-0.50892 -3.70248 2.09558 154 140 128
-0.51751 -3.69604 2.10896 157 146 147
-0.54755 -3.70240 2.11617 181 177 172
-0.55423 -3.70799 2.12979 185 175 168
-0.55698 -3.70832 2.11868 182 177 173
-0.84559 -3.96074 2.20007 160 146 140
-0.83878 -3.95504 2.18618 164 151 146
-0.84839 -3.96108 2.18874 162 150 148
-0.85519 -3.96678 2.20263 157 144 136
-0.86760 -3.97317 2.19386 158 146 140
2.76416 -2.61956 1.28241 234 238 240
2.77266 -2.61244 1.26506 235 239 244
2.76066 -2.61999 1.26826 238 241 244
2.75164 -2.62680 1.28571 224 226 229
1.66115 -2.16021 1.50677 135 138 127
1.66755 -2.15485 1.49371 211 213 214
1.67662 -2.18245 1.50458 57 53 58
2.12776 -3.16571 1.46074 39 19 22
2.14376 -3.15748 1.47204 32 25 26
2.14015 -3.15792 1.45744 34 20 24
2.13138 -3.16527 1.47534 33 26 19
2.11786 -3.17572 1.46361 42 28 40
2.10034 -3.17889 1.46780 59 48 61
2.08436 -3.18711 1.45651 84 90 89
2.07703 -3.17674 1.47300 73 70 73
2.06579 -3.18549 1.47610 84 87 84
2.04986 -3.19368 1.46484 89 95 108
2.06998 -3.20846 1.47652 102 111 108
2.05907 -3.29609 1.48430 125 131 138
2.06800 -3.28861 1.46607 126 132 137
2.05573 -3.31290 1.48607 131 135 146
2.03939 -3.32130 1.47453 138 146 153
2.05660 -3.33390 1.48714 135 141 152
2.04019 -3.34234 1.47555 141 151 157
2.03362 -3.33190 1.49227 142 148 159
2.01726 -3.34031 1.48072 142 152 157
1.98539 -3.32525 1.50289 145 155 165
1.98172 -3.32570 1.48808 143 153 159
1.94570 -3.30626 1.51081 143 145 137
1.35434 -2.90627 1.62184 171 151 111
1.34671 -2.91590 1.62416 186 169 130
1.32436 -2.92754 1.62997 181 164 139
1.29326 -2.94762 1.63829 154 136 123
1.27973 -2.95458 1.62874 149 135 103
1.28479 -2.95645 1.64076 150 136 121
1.27125 -2.96341 1.63120 145 134 115
1.22584 -3.24083 1.67136 136 131 120
1.24020 -3.23344 1.68151 147 137 129
1.23696 -3.23384 1.66840 145 138 123
1.21834 -3.25247 1.67378 121 120 122
1.21425 -3.26860 1.67569 130 126 125
1.20634 -3.27523 1.69183 143 131 123
1.20308 -3.27563 1.67866 140 130 121
0.90056 -4.29774 1.80938 124 108 83
0.90999 -4.28984 1.79014 120 105 91
0.88055 -4.29233 1.81363 71 67 46
0.86481 -4.29554 1.81742 41 36 47
0.84770 -4.30434 1.80533 29 37 40
0.47032 -4.64630 1.92870 140 140 130
0.47990 -4.63828 1.90916 94 107 108
0.45287 -4.65527 1.91636 149 137 128
0.14052 -4.29336 1.98279 159 145 128
0.14907 -4.28620 1.96535 155 144 136
0.13700 -4.29379 1.96856 156 145 134
0.12898 -4.30273 1.98599 143 121 88
0.11147 -4.29162 1.98932 74 50 32
0.09863 -4.29633 1.99254 55 54 50
0.08874 -4.31134 1.99571 100 105 104
0.06865 -4.29011 1.99902 135 134 128
-0.23937 -4.17280 2.06233 142 134 88
-0.23148 -4.16619 2.04623 147 132 103
-0.24262 -4.17320 2.04920 144 133 96
-0.25376 -4.18021 2.05216 134 137 82
-0.25031 -4.18080 2.06531 126 135 76
-0.26471 -4.18821 2.05514 124 145 70
-0.26214 -4.18442 2.06823 114 138 68
-0.27002 -4.19103 2.08433 112 144 72
-0.27652 -4.19182 2.05807 122 150 71
-0.51933 -3.70248 2.09796 154 139 126
-0.51262 -3.69686 2.08427 154 140 124
-0.52209 -3.70282 2.08679 157 141 117
-0.53157 -3.70878 2.08931 156 139 119
-0.53060 -3.69652 2.10018 158 143 131
-0.54017 -3.70156 2.10267 164 154 145
-0.55106 -3.69749 2.10491 172 165 162
-0.56079 -3.70109 2.10735 178 173 174
-0.56746 -3.70667 2.12095 183 176 172
-0.57020 -3.70701 2.10986 183 176 174
2.76194 -2.63554 1.26885 231 234 238
2.77048 -2.62839 1.25143 239 242 246
2.75384 -2.64551 1.27128 218 222 230
2.74530 -2.65267 1.28872 219 224 235
2.74178 -2.65310 1.27450 217 221 232
2.73826 -2.65353 1.26027 219 222 232
1.69143 -2.18265 1.48980 179 178 172
1.69791 -2.17722 1.47658 213 215 219
1.68876 -2.18298 1.47901 204 205 201
1.67032 -2.18031 1.49453 87 85 98
1.68220 -2.20032 1.49293 52 49 65
1.67570 -2.20576 1.50619 59 59 64
1.67302 -2.20609 1.49538 57 60 73
1.67035 -2.20642 1.48456 52 58 76
2.14468 -3.12826 1.43925 35 23 19
2.16059 -3.12007 1.45049 34 23 29
2.15699 -3.12051 1.43597 33 23 19
2.14827 -3.12782 1.45377 35 23 20
2.13595 -3.13557 1.45706 34 22 16
2.13912 -3.14195 1.44131 31 22 20
2.13038 -3.15292 1.44395 42 28 46
2.13464 -3.17550 1.44426 55 46 51
2.11859 -3.18376 1.43292 77 86 75
2.11741 -3.17900 1.44843 68 66 69
2.09655 -3.17916 1.45325 77 80 84
2.05627 -3.18050 1.46261 69 71 91
2.03487 -3.27697 1.47305 128 135 145
2.04374 -3.26954 1.45494 130 137 146
2.03122 -3.27742 1.45828 130 139 148
2.01869 -3.28530 1.46162 134 142 154
2.03074 -3.29290 1.47491 136 141 152
2.01451 -3.30125 1.46345 137 146 154
1.92646 -3.29120 1.49885 149 153 147
1.93523 -3.28385 1.48095 145 152 160
1.92285 -3.29164 1.48425 149 154 160
1.91046 -3.29943 1.48755 150 152 138
1.37170 -2.91066 1.60503 187 170 124
1.34337 -2.91597 1.61186 179 162 137
1.34031 -2.91634 1.59952 155 124 116
1.31044 -2.93406 1.62049 154 128 113
1.28672 -2.94411 1.62653 157 140 101
1.23333 -3.23374 1.65536 143 134 120
1.24768 -3.22635 1.66550 146 136 128
1.24444 -3.22675 1.65240 147 135 127
1.24120 -3.22714 1.63930 144 132 122
1.22231 -3.24084 1.65830 113 107 102
1.19915 -3.23230 1.66315 63 62 84
1.20251 -3.25798 1.66385 86 89 100
1.20526 -3.28315 1.66465 126 125 123
1.19733 -3.28979 1.68083 144 130 121
1.19407 -3.29019 1.66763 139 130 118
0.89627 -4.29739 1.79373 122 107 81
0.90570 -4.28950 1.77450 119 104 89
0.88122 -4.30217 1.79748 72 68 49
0.86521 -4.30488 1.80132 43 41 49
0.12177 -4.29059 1.97189 156 140 117
0.13029 -4.28345 1.95449 156 145 137
0.09831 -4.25875 1.97548 115 89 59
0.09455 -4.29473 1.97840 55 42 37
0.07904 -4.30270 1.96745 45 41 37
0.08098 -4.29674 1.98164 61 67 72
0.06585 -4.29299 1.98492 107 112 112
-0.55520 -3.68807 2.09358 161 147 142
-0.56454 -3.69430 2.09609 169 158 159
2.77424 -2.64549 1.25148 238 241 244
2.78281 -2.63832 1.23399 239 241 245
2.77071 -2.64593 1.23721 241 243 246
2.76559 -2.65520 1.25401 227 230 235
1.65031 -2.16888 1.48720 141 139 143
1.65672 -2.16351 1.47412 214 216 216
2.17816 -3.12394 1.41585 32 24 20
2.19413 -3.11572 1.42713 31 26 15
2.19052 -3.11616 1.41255 29 24 12
