ply
format ascii 1.0
element face 0
property list uchar int vertex_indices
element vertex 1338
property float x
property float y
property float z
property uchar diffuse_red
property uchar diffuse_green
property uchar diffuse_blue
end_header
2.11196 -2.96604 0.74800 153 134 121
1.47400 -2.88990 0.93906 147 131 138
1.48245 -2.88225 0.92136 150 135 126
1.45392 -2.89123 0.94453 179 176 192
1.42898 -2.90684 0.95128 184 189 197
1.42561 -2.90760 0.93682 184 192 200
1.41587 -2.91407 0.95483 166 173 188
1.40487 -2.92314 0.95780 175 192 190
1.39879 -2.93660 0.95942 188 214 211
1.38819 -2.94608 0.96228 190 214 223
1.37811 -2.97517 0.96495 185 208 235
1.36285 -2.98438 0.95360 229 251 254
1.37661 -2.99308 0.96530 208 227 246
1.36960 -3.00605 0.96718 239 250 250
1.24166 -3.04230 1.00193 244 253 254
1.25682 -3.03315 1.01320 254 254 254
1.25345 -3.03391 0.99874 248 254 254
1.22648 -3.04738 1.00604 241 252 254
1.21794 -3.05896 1.00834 240 250 250
1.22728 -3.08834 1.00571 186 198 220
1.21899 -3.10037 1.00794 101 97 160
1.21154 -3.11332 1.00993 70 70 146
1.19780 -3.11994 1.01365 59 71 152
1.18500 -3.12750 1.01712 83 94 180
1.16411 -3.12672 1.02281 132 151 210
1.14509 -3.12775 1.02799 172 204 232
1.13113 -3.15480 1.03172 193 227 251
1.11718 -3.18214 1.03544 182 223 244
1.10202 -3.18714 1.03956 167 193 220
1.07128 -3.17525 1.04796 136 152 189
1.05608 -3.18442 1.03666 106 125 157
1.07335 -3.19878 1.04733 105 128 166
1.06565 -3.21183 1.04939 99 122 156
1.05035 -3.22106 1.03802 115 131 157
1.05731 -3.24597 1.05157 108 126 154
1.05389 -3.24674 1.03689 117 132 157
1.04192 -3.25526 1.04013 117 133 158
1.05349 -3.26362 1.05256 110 127 156
1.03805 -3.27293 1.04109 118 134 159
0.99351 -3.44512 1.06840 123 142 171
1.00937 -3.43555 1.08019 114 135 160
1.00585 -3.43635 1.06506 119 140 164
0.98469 -3.45311 1.08687 118 139 165
0.98088 -3.45355 1.07181 118 140 166
0.97699 -3.47275 1.07282 105 122 142
0.97045 -3.48880 1.07455 87 98 136
0.98334 -3.52928 1.07093 64 72 110
0.97844 -3.54780 1.07221 39 43 93
0.96229 -3.55755 1.06020 25 38 70
0.96470 -3.55524 1.07594 35 34 86
0.94855 -3.56498 1.06393 33 42 75
0.95128 -3.56307 1.07957 37 42 84
0.94287 -3.57735 1.08182 33 39 77
0.93190 -3.58837 1.08478 26 30 63
0.92374 -3.60310 1.08696 14 21 65
0.91707 -3.61988 1.08873 44 65 115
0.92072 -3.65049 1.08765 91 121 161
0.89587 -3.69567 1.09429 101 129 154
0.90499 -3.68741 1.07517 112 133 161
0.88614 -3.70893 1.09691 93 119 139
0.88167 -3.72953 1.09807 77 87 99
0.88746 -3.76455 1.09639 53 48 55
0.97164 -4.05527 1.07266 60 59 66
0.98148 -4.04636 1.05204 49 53 56
0.95392 -4.06596 1.05949 42 43 47
0.94585 -4.23255 1.07919 54 59 64
0.92765 -4.24353 1.06565 63 63 70
0.93832 -4.25290 1.08118 65 74 70
0.93358 -4.27777 1.08241 77 86 79
0.92392 -4.29514 1.08499 87 100 93
0.90552 -4.33167 1.08990 91 95 85
0.90438 -4.36315 1.09012 72 70 71
0.90091 -4.39119 1.09099 59 56 65
0.88231 -4.40241 1.07716 44 47 58
0.89301 -4.41225 1.09308 55 57 57
0.88538 -4.43393 1.09510 55 57 55
0.86668 -4.44521 1.08120 52 54 58
0.86258 -4.57165 1.10093 56 60 53
0.87741 -4.56110 1.09692 60 62 45
0.87318 -4.56206 1.07873 63 61 61
0.85780 -4.59967 1.10215 48 51 48
0.85467 -4.63088 1.10292 38 43 35
0.84398 -4.64056 1.12531 33 40 42
0.83971 -4.64152 1.10696 32 38 30
0.83543 -4.64248 1.08861 33 41 39
0.81015 -4.77818 1.11463 54 54 69
0.82975 -4.76636 1.12920 50 55 50
0.82540 -4.76734 1.11051 52 55 55
0.79858 -4.79583 1.11774 61 66 82
0.77917 -4.79891 1.12302 93 103 89
0.71544 -4.87753 1.14015 108 120 119
0.72638 -4.86762 1.11723 101 108 110
0.71106 -4.87852 1.12137 101 109 112
0.70610 -4.90024 1.14264 114 120 126
0.69587 -4.92138 1.14536 96 101 100
0.67303 -4.95941 1.15148 90 99 108
0.65976 -4.97484 1.15505 101 106 108
0.64872 -4.98483 1.17819 102 107 111
0.64430 -4.98583 1.15923 107 110 113
0.63988 -4.98682 1.14027 110 112 118
0.28438 -4.98396 1.25727 86 94 97
0.29498 -4.97437 1.23506 89 94 90
0.28014 -4.98492 1.23907 79 91 75
0.26124 -4.97399 1.26360 88 97 104
0.24296 -4.97574 1.26857 126 127 128
0.23243 -4.98528 1.29064 150 137 124
0.22821 -4.98623 1.27256 146 137 120
-0.33157 -4.51573 1.42634 164 152 129
-0.32254 -4.50755 1.40740 159 149 135
-0.34677 -4.51642 1.43047 127 114 90
-0.35925 -4.52590 1.43384 96 83 42
-0.38619 -4.53816 1.44115 27 27 26
-0.40241 -4.54794 1.42909 20 25 16
-0.73757 -5.62555 1.53383 10 8 8
-0.71875 -5.61420 1.54782 10 8 4
-0.72293 -5.61515 1.52988 8 8 6
-0.73338 -5.62461 1.55178 8 6 4
-0.74997 -5.64922 1.53715 14 11 18
-0.76237 -5.67333 1.54046 23 17 29
-0.78963 -5.70775 1.54779 47 58 34
-0.80859 -5.71919 1.53370 64 66 54
2.74972 -2.44316 0.57596 131 135 133
2.75896 -2.43479 0.55659 96 94 95
2.72021 -2.44395 0.58406 159 155 149
2.70363 -2.45395 0.57174 186 190 194
2.72717 -2.46327 0.58203 180 178 174
2.71853 -2.47470 0.58434 191 196 199
2.70186 -2.48476 0.57195 183 183 186
2.70453 -2.48339 0.58813 190 189 198
2.68786 -2.49344 0.57574 186 184 191
2.69387 -2.49381 0.59100 189 188 203
2.67903 -2.50205 0.59502 194 196 207
2.66237 -2.51210 0.58263 192 193 193
2.66251 -2.50938 0.59952 200 202 205
2.65326 -2.51776 0.61890 201 203 209
2.64710 -2.51728 0.60370 200 200 202
2.63785 -2.52565 0.62308 193 193 200
2.64134 -2.53035 0.60521 195 194 194
2.62837 -2.53957 0.60871 188 185 187
2.54715 -2.65988 0.63031 55 38 48
2.56890 -2.68957 0.62416 82 57 41
2.56623 -2.70519 0.62480 121 91 50
2.53534 -2.70418 0.63329 138 111 72
2.51331 -2.70830 0.63931 153 127 101
2.49363 -2.71377 0.64468 165 142 115
2.47283 -2.71850 0.65037 161 131 97
2.45595 -2.72869 0.63781 127 99 82
2.45777 -2.72667 0.65445 145 108 88
2.44090 -2.73685 0.64191 129 104 74
2.44971 -2.73911 0.65659 130 100 70
2.43281 -2.74930 0.64403 132 106 73
2.41461 -2.76985 0.66605 118 84 68
2.42400 -2.76134 0.64636 135 105 80
2.38798 -2.77071 0.67336 81 56 58
2.37494 -2.78008 0.67688 71 67 52
2.35663 -2.80383 0.68177 79 64 42
2.34734 -2.81566 0.68425 113 96 69
2.22678 -2.87997 0.71698 137 106 78
2.23613 -2.87149 0.69737 135 106 68
2.22303 -2.88081 0.70092 138 110 76
2.21587 -2.90920 0.71980 179 169 161
2.19968 -2.91643 0.72420 199 190 169
2.18781 -2.92667 0.72740 185 174 159
2.18921 -2.94633 0.72690 173 160 156
2.17225 -2.95656 0.71429 148 137 144
1.46700 -2.88757 0.92558 148 133 133
1.47543 -2.87993 0.90789 151 136 122
1.46362 -2.88833 0.91109 152 135 128
1.45591 -2.89659 0.92857 156 149 156
1.43481 -2.89697 0.93436 189 199 204
1.40423 -2.92631 0.94258 179 204 214
1.39502 -2.93701 0.94505 174 204 230
1.38304 -2.94525 0.94829 163 206 244
1.36786 -2.95441 0.93700 184 231 251
1.37659 -2.95848 0.94998 181 226 243
1.37468 -2.97590 0.95040 212 248 250
1.32531 -3.00789 0.96377 235 251 253
1.31684 -3.01556 0.98152 251 254 254
1.30058 -3.00422 0.97059 234 250 252
1.29214 -3.01186 0.98826 251 254 254
1.28383 -3.00795 0.97516 233 250 251
1.27541 -3.01558 0.99281 250 254 254
1.26402 -3.00869 0.98060 230 248 251
1.25562 -3.01629 0.99819 249 254 254
1.24662 -3.01163 0.98536 226 246 250
1.24028 -3.02520 0.98702 221 241 248
1.22517 -3.03432 0.97578 195 230 247
1.22857 -3.03360 0.99018 212 235 247
1.21345 -3.04272 0.97895 194 230 247
1.21747 -3.04261 0.99318 208 238 248
1.20235 -3.05173 0.98194 192 228 248
1.20680 -3.05204 0.99605 208 237 249
1.19167 -3.06117 0.98481 191 227 248
1.19812 -3.06348 0.99837 198 224 242
1.18978 -3.07530 1.00059 144 166 209
1.18354 -3.08927 1.00222 122 149 191
1.15312 -3.07878 1.01064 145 177 208
1.13803 -3.08788 0.99942 194 228 251
1.13701 -3.08266 1.01504 174 209 231
1.13011 -3.09595 1.01685 191 224 243
1.13424 -3.12076 1.01557 195 227 249
1.13232 -3.13949 1.01599 193 231 251
1.13020 -3.15816 1.01646 185 224 240
1.12592 -3.17468 1.01754 165 189 221
1.08358 -3.15068 1.02931 135 152 192
1.06842 -3.15982 1.01804 109 127 154
1.08570 -3.17402 1.02859 109 129 165
1.07482 -3.18350 1.03152 102 119 158
1.06102 -3.21125 1.03514 111 129 156
1.05762 -3.21201 1.02055 118 135 160
1.04572 -3.22047 1.02377 120 137 161
0.99827 -3.43224 1.05107 116 142 164
1.01411 -3.42269 1.06285 119 140 162
1.01059 -3.42348 1.04773 124 146 167
0.98759 -3.44301 1.05394 104 118 144
0.98914 -3.46880 1.05336 84 96 129
1.00036 -3.50676 1.05005 64 70 104
0.99676 -3.52674 1.05092 43 44 93
0.99073 -3.54383 1.05247 28 32 83
0.97456 -3.55359 1.04045 25 32 67
0.97735 -3.55177 1.05610 20 33 73
0.96118 -3.56152 1.04408 26 37 67
0.94276 -3.58264 1.06542 31 38 73
0.95175 -3.57450 1.04657 31 38 71
0.93296 -3.59523 1.06803 24 31 64
0.92372 -3.60861 1.07049 13 20 66
0.91498 -3.62271 1.07281 39 56 106
0.92487 -3.66167 1.06986 88 116 153
0.91282 -3.67168 1.07311 112 138 165
0.89642 -3.68157 1.06092 119 136 162
0.89686 -3.70282 1.07731 107 131 159
0.89320 -3.70364 1.06161 114 134 163
0.88791 -3.71720 1.07968 102 126 148
0.88346 -3.73789 1.08078 86 99 110
0.89314 -3.77844 1.07788 53 53 64
0.88535 -3.79495 1.07993 50 51 70
0.87234 -3.80419 1.08344 47 50 57
0.86863 -3.80503 1.06750 45 47 51
0.97306 -4.06398 1.05425 42 47 55
0.98292 -4.05506 1.03359 47 54 53
0.95531 -4.07469 1.04105 35 36 46
0.95521 -4.22224 1.05821 48 49 59
0.96937 -4.21217 1.05438 43 47 48
0.93701 -4.23322 1.04468 70 76 81
0.94730 -4.24192 1.06027 60 56 68
0.93005 -4.27954 1.06478 62 65 75
0.92387 -4.30241 1.06634 69 79 83
0.91512 -4.32140 1.06863 73 82 84
0.91518 -4.35466 1.06842 68 70 74
0.90615 -4.37361 1.07079 56 55 64
0.88759 -4.38480 1.05699 42 39 49
0.90240 -4.40129 1.07165 47 46 60
0.88376 -4.41254 1.05780 40 42 51
0.89107 -4.45118 1.07447 47 50 57
0.88689 -4.45212 1.05657 44 46 42
0.86837 -4.58992 1.07988 64 63 60
0.86060 -4.61293 1.08188 56 60 49
0.85565 -4.64107 1.08307 47 54 39
0.83637 -4.65270 1.06874 31 44 44
0.83461 -4.75445 1.08817 50 55 60
0.85420 -4.74263 1.10274 43 49 49
0.84985 -4.74361 1.08406 46 51 56
0.84549 -4.74459 1.06538 47 51 59
0.83897 -4.75347 1.10685 49 52 51
0.82089 -4.76805 1.09186 57 57 67
0.81529 -4.79669 1.09323 68 69 80
0.79367 -4.79579 1.09917 82 92 96
0.77404 -4.80763 1.08459 125 135 127
0.76909 -4.78916 1.10596 112 130 113
0.75680 -4.80549 1.10924 106 112 114
0.74158 -4.81631 1.11336 103 108 110
0.73723 -4.81729 1.09469 100 106 109
0.69932 -4.89650 1.12449 104 111 116
0.71028 -4.88658 1.10152 106 110 109
0.67960 -4.90840 1.10982 111 118 110
0.68430 -4.90805 1.12854 107 113 108
0.67378 -4.92870 1.13131 97 93 94
0.65401 -4.94062 1.11661 92 93 96
0.66137 -4.94567 1.13462 95 95 104
0.64870 -4.96221 1.13800 104 111 117
0.62888 -4.97416 1.12326 103 113 112
0.25523 -4.97052 1.24600 85 94 87
0.25101 -4.97147 1.22790 92 92 91
0.23625 -4.98196 1.23189 94 97 90
0.23907 -4.97752 1.25039 92 100 108
0.22076 -4.97901 1.25541 126 128 132
0.21025 -4.98853 1.27745 151 137 124
0.20604 -4.98948 1.25939 149 138 125
-0.33026 -4.53248 1.40937 161 147 122
-0.32119 -4.52427 1.39037 160 149 129
-0.38890 -4.54200 1.42542 27 24 32
-0.40513 -4.55178 1.41336 20 26 17
-0.71622 -5.58454 1.50913 9 8 15
-0.69748 -5.57324 1.52306 7 10 7
-0.70164 -5.57418 1.50519 6 8 8
-0.71205 -5.58360 1.52700 7 8 9
-0.72972 -5.60107 1.51274 13 9 22
-0.74134 -5.62886 1.51577 20 18 31
-0.75469 -5.64700 1.51932 33 31 40
2.75655 -2.44931 0.55713 125 126 127
2.73987 -2.45937 0.54473 141 146 156
2.71479 -2.44390 0.56874 170 168 161
2.71234 -2.47426 0.56914 182 187 196
2.69568 -2.48431 0.55676 178 179 186
2.68265 -2.50674 0.57707 190 190 194
2.69192 -2.49834 0.55763 187 184 188
2.66595 -2.51681 0.56465 177 174 182
2.65632 -2.52501 0.58419 193 192 185
2.65260 -2.52585 0.56827 179 173 181
2.63962 -2.53508 0.57178 180 173 183
2.64717 -2.53631 0.58662 189 188 182
2.63396 -2.54544 0.59019 183 183 180
2.62468 -2.55384 0.60964 183 177 184
2.62097 -2.55468 0.59371 179 179 177
2.54128 -2.64260 0.61497 113 99 83
2.55435 -2.63331 0.61144 65 38 45
2.54803 -2.66341 0.61291 135 121 67
2.56619 -2.69105 0.60764 142 109 62
2.53879 -2.69212 0.61521 163 131 97
2.52012 -2.69824 0.62032 165 136 87
2.50367 -2.70565 0.62481 154 124 85
2.48842 -2.71374 0.62896 143 115 87
2.47730 -2.72433 0.63194 129 100 82
2.46038 -2.73453 0.61936 132 103 76
2.41463 -2.77306 0.64885 128 101 77
2.42403 -2.76455 0.62914 133 105 64
2.41087 -2.77391 0.63270 134 107 59
2.39302 -2.77710 0.65480 99 83 53
2.36908 -2.77959 0.66140 71 62 31
2.36031 -2.79168 0.66372 75 73 47
2.35314 -2.80484 0.66558 83 69 51
2.33975 -2.83195 0.66905 123 103 69
2.33034 -2.84047 0.68877 134 106 67
2.32657 -2.84132 0.67261 132 105 79
2.21922 -2.91500 0.70166 161 137 126
2.19744 -2.91834 0.70766 201 198 181
2.19057 -2.93211 0.70944 197 192 170
2.18814 -2.94909 0.70996 170 155 141
2.17116 -2.95933 0.69734 165 153 125
1.44030 -2.90540 0.91739 170 163 143
1.42337 -2.90934 0.92204 171 182 194
1.41177 -2.91791 0.92517 168 186 201
1.39950 -2.92587 0.92850 168 208 237
1.38792 -2.93445 0.93163 171 226 248
1.37275 -2.94360 0.92035 164 218 254
1.37644 -2.94312 0.93473 174 231 252
1.35915 -2.96563 0.93931 190 233 249
1.35577 -2.96639 0.92481 165 216 251
1.34395 -2.97480 0.92801 170 217 251
1.34616 -2.97297 0.94284 194 232 248
1.33097 -2.98213 0.93154 176 219 250
1.33705 -2.98386 0.94526 197 232 247
1.32184 -2.99303 0.93396 181 220 249
1.32026 -2.98767 0.94988 199 233 247
1.30508 -2.99683 0.93859 181 221 248
1.29871 -2.98696 0.95585 200 233 247
1.28358 -2.99609 0.94460 182 221 247
1.27809 -2.98699 0.96156 201 234 247
1.26417 -2.99326 0.96536 200 233 247
1.24919 -2.99849 0.96945 200 230 246
1.23310 -3.00261 0.97387 196 229 247
1.22567 -3.01506 0.97581 194 230 248
1.17169 -3.06129 0.99034 190 222 243
1.18007 -3.05371 0.97278 188 225 249
1.16834 -3.06205 0.97596 191 225 250
1.15661 -3.07039 0.97913 194 226 251
1.15393 -3.06354 0.99524 191 220 238
1.13824 -3.06781 0.99954 194 224 244
1.12676 -3.09671 1.00246 192 230 252
1.13086 -3.12152 1.00110 185 220 244
1.11427 -3.12491 1.00566 166 184 222
1.09980 -3.13046 1.00961 132 145 189
1.09583 -3.14712 1.01056 106 125 170
1.08065 -3.15627 0.99928 114 130 159
1.08806 -3.15983 1.01260 104 122 164
1.06999 -3.18269 1.01739 113 130 155
1.06660 -3.18346 1.00286 120 137 159
1.05475 -3.19188 1.00607 123 138 161
1.06222 -3.19557 1.01943 116 133 159
1.04696 -3.20478 1.00809 124 141 162
1.03172 -3.40675 1.02596 130 153 159
1.04757 -3.39720 1.03774 124 141 161
1.04404 -3.39799 1.02262 129 148 167
1.03524 -3.40596 1.04107 125 142 159
1.02292 -3.41472 1.04440 125 143 160
1.02270 -3.41946 1.02834 119 142 152
1.00963 -3.42735 1.03189 107 119 156
1.01572 -3.45841 1.02992 79 83 135
1.01120 -3.47687 1.03100 59 62 111
1.00802 -3.49712 1.03170 45 60 104
1.00106 -3.51286 1.03348 49 67 88
0.99258 -3.52681 1.03570 42 51 78
0.97645 -3.53654 1.02371 26 34 66
0.98675 -3.54415 1.03716 32 35 76
0.97057 -3.55391 1.02514 26 31 61
0.94420 -3.58997 1.04853 36 35 66
0.93592 -3.60459 1.05068 29 31 63
0.91967 -3.61439 1.03861 29 28 66
0.92746 -3.61907 1.05289 16 23 63
0.91667 -3.63054 1.05578 33 44 91
0.92256 -3.66427 1.05384 82 105 142
0.91735 -3.68347 1.05511 116 140 165
0.90089 -3.69340 1.04288 126 141 163
0.89332 -3.73049 1.06134 109 132 154
0.90251 -3.72217 1.04208 122 139 164
0.88133 -3.74087 1.06456 93 109 120
0.89624 -3.78877 1.06000 50 55 66
0.89225 -3.81070 1.06091 43 44 53
0.97514 -4.07367 1.03557 32 42 53
0.95735 -4.08440 1.02235 32 32 40
0.97118 -4.19050 1.03561 36 48 41
0.98932 -4.17956 1.04910 47 48 51
0.98529 -4.18047 1.03179 48 49 48
0.96712 -4.21581 1.03650 50 56 55
0.94890 -4.22679 1.02296 62 64 72
0.95807 -4.23373 1.03884 57 63 67
0.93927 -4.26883 1.04373 65 67 74
0.92095 -4.27988 1.03011 47 48 61
0.93168 -4.32215 1.04535 53 57 70
0.91322 -4.33328 1.03162 51 51 53
0.92644 -4.34690 1.04657 56 59 65
0.90791 -4.35808 1.03280 51 50 49
0.92832 -4.38332 1.04572 55 54 57
0.90967 -4.39457 1.03186 47 46 48
0.91774 -4.40000 1.04850 49 44 49
0.89907 -4.41127 1.03462 45 44 50
0.89209 -4.49563 1.05473 52 51 43
0.88159 -4.50515 1.07675 57 62 62
0.87738 -4.50610 1.05871 56 57 56
0.88474 -4.55410 1.05624 57 59 58
0.88898 -4.55315 1.07444 58 63 62
0.87914 -4.58051 1.05755 72 74 68
0.86715 -4.59613 1.06073 74 79 58
0.86292 -4.62538 1.06163 63 64 46
0.85820 -4.65406 1.06268 50 56 38
0.83887 -4.66572 1.04831 38 44 25
0.83187 -4.75836 1.06902 53 55 69
0.82366 -4.78210 1.07108 67 66 81
0.81177 -4.79925 1.07422 83 89 89
0.78935 -4.79686 1.08045 101 110 109
0.76972 -4.80870 1.06586 126 133 128
0.75424 -4.80987 1.09005 104 107 106
0.73466 -4.82169 1.07549 106 111 109
0.66661 -4.92408 1.11327 104 107 96
0.67758 -4.91414 1.09029 116 119 112
0.64686 -4.93599 1.09859 93 91 100
0.64201 -4.95849 1.11977 98 104 107
0.62221 -4.97044 1.10505 110 118 115
0.22441 -4.99986 1.23501 101 104 104
0.23497 -4.99030 1.21288 99 99 99
0.19256 -4.96669 1.24413 127 131 131
0.18209 -4.97617 1.26605 151 139 125
0.17463 -4.96865 1.24907 144 140 127
0.16419 -4.97811 1.27095 151 140 126
0.16001 -4.97905 1.25302 150 141 126
-0.32824 -4.55164 1.39207 157 143 113
-0.33980 -4.56461 1.39516 117 99 61
-0.35901 -4.55230 1.40058 88 71 38
-0.37325 -4.55615 1.40449 52 37 41
-0.38668 -4.56266 1.40815 26 22 31
-0.40298 -4.57249 1.39603 20 24 12
-0.70647 -5.57142 1.48753 13 7 17
-0.68774 -5.56012 1.50145 7 7 6
-0.69190 -5.56106 1.48359 7 6 9
-0.72038 -5.58548 1.49126 22 14 29
-0.73369 -5.60318 1.49478 34 27 41
-0.74690 -5.62172 1.49827 47 46 49
-0.76569 -5.63306 1.48430 70 64 56
-0.75972 -5.64289 1.50163 60 58 60
-0.77855 -5.65424 1.48763 61 61 64
2.77130 -2.44367 0.53615 113 107 114
2.78800 -2.43359 0.54856 108 110 111
2.78429 -2.43443 0.53264 128 136 141
2.78057 -2.43527 0.51671 127 137 148
2.75165 -2.44954 0.54156 126 124 129
2.70231 -2.45599 0.55525 144 151 164
2.69862 -2.45682 0.53943 111 102 108
2.70210 -2.47171 0.55512 156 160 171
2.64442 -2.55396 0.57021 174 173 183
2.63331 -2.56428 0.57319 160 172 176
2.62399 -2.57272 0.59271 177 179 181
2.62026 -2.57356 0.57671 137 142 151
2.61653 -2.57440 0.56072 42 36 52
2.55313 -2.63560 0.59469 156 151 117
2.56995 -2.62545 0.60719 43 10 32
2.56621 -2.62630 0.59115 100 89 53
2.53632 -2.64574 0.58219 211 216 193
2.57797 -2.66679 0.58738 193 189 160
2.57091 -2.67974 0.58919 185 181 148
2.54355 -2.68086 0.59681 166 150 117
2.53191 -2.69113 0.59993 179 147 105
2.52125 -2.70199 0.60278 177 147 95
2.50393 -2.70890 0.60752 157 127 80
2.49352 -2.71992 0.61029 147 118 75
2.47376 -2.72530 0.61575 136 103 67
2.45684 -2.73551 0.60317 130 102 72
2.40655 -2.78887 0.63373 130 107 65
2.41597 -2.78033 0.61398 133 105 60
2.40278 -2.78972 0.61754 130 102 68
2.37926 -2.78929 0.64134 100 84 51
2.35158 -2.78934 0.64906 72 50 35
2.33474 -2.79950 0.63654 66 58 38
2.34508 -2.80291 0.65071 67 48 57
2.33694 -2.81548 0.65283 68 63 60
2.33501 -2.83216 0.65316 103 85 67
2.32592 -2.84422 0.65555 126 105 79
2.31650 -2.85275 0.67530 133 104 67
2.31273 -2.85360 0.65912 133 105 68
2.30896 -2.85445 0.64294 132 104 77
2.19893 -2.90434 0.69026 139 114 98
2.20468 -2.94557 0.68815 209 203 182
2.18768 -2.95582 0.67550 192 184 159
2.18833 -2.95275 0.69262 181 176 157
2.17134 -2.96300 0.67999 189 179 144
1.43934 -2.90826 0.90220 154 140 130
1.44778 -2.90061 0.88451 156 138 130
1.43596 -2.90902 0.88770 159 140 133
1.42720 -2.91639 0.90549 148 143 154
1.41387 -2.92347 0.90913 161 178 202
1.39737 -2.92773 0.91368 167 209 248
1.38276 -2.93361 0.91768 165 215 254
1.36760 -2.94276 0.90642 159 208 254
1.24920 -2.98299 0.95436 195 227 246
1.23357 -2.98752 0.95866 206 231 240
1.21858 -2.99656 0.94751 228 231 230
1.21782 -2.99187 0.96300 196 210 224
1.20834 -3.00226 0.96552 184 207 228
1.20182 -3.01556 0.96718 186 221 244
1.19015 -3.02386 0.97034 190 226 249
1.13490 -3.06856 0.98521 190 229 249
1.12315 -3.07682 0.98839 182 218 235
1.11967 -3.09360 0.98915 160 178 213
1.11904 -3.11349 0.98908 128 140 185
1.11156 -3.12635 0.99102 106 123 167
1.09640 -3.13549 0.97975 112 107 134
1.10059 -3.13560 0.99396 104 121 159
1.09194 -3.14732 0.99624 109 126 157
1.07091 -3.16690 1.00187 117 134 159
1.06753 -3.16766 0.98738 124 139 161
1.05572 -3.17606 0.99057 126 142 161
1.05067 -3.38748 1.00482 131 152 162
1.06650 -3.37793 1.01659 129 144 167
1.06298 -3.37872 1.00149 135 150 164
1.05419 -3.38668 1.01992 131 146 166
1.04142 -3.39983 1.00725 124 141 159
1.03352 -3.41385 1.00928 106 121 145
1.03418 -3.43817 1.00880 73 91 124
1.02911 -3.45581 1.01000 48 60 117
1.02289 -3.47220 1.01154 43 39 103
1.01505 -3.48671 1.01355 45 51 96
1.00600 -3.49982 1.01591 42 58 92
0.99851 -3.51493 1.01782 42 53 81
0.98239 -3.52465 1.00584 29 36 63
0.99409 -3.53397 1.01882 30 39 64
0.97792 -3.54372 1.00680 24 34 66
0.95638 -3.58589 1.02871 31 40 77
0.96901 -3.57691 1.02529 25 32 68
0.95277 -3.58670 1.01322 40 45 78
0.94921 -3.60195 1.03051 47 53 81
0.94077 -3.61645 1.03269 43 46 75
0.92447 -3.62629 1.02057 32 27 62
0.91886 -3.63905 1.03853 28 32 79
0.92645 -3.67516 1.03597 67 88 128
0.92237 -3.69597 1.03686 117 141 165
0.90586 -3.70592 1.02458 131 148 166
0.90044 -3.74619 1.04236 119 138 158
0.90967 -3.73783 1.02302 128 145 165
0.88980 -3.75853 1.04518 103 118 128
0.89975 -3.79971 1.04190 56 60 69
0.89827 -3.82529 1.04200 40 35 40
0.89592 -3.84986 1.04236 45 44 50
0.88651 -3.85838 1.06206 49 50 55
0.88275 -3.85923 1.04592 53 54 62
0.87899 -3.86007 1.02977 51 53 54
0.96672 -4.03814 1.02030 50 53 52
0.98439 -4.02749 1.03343 56 55 60
0.98046 -4.02837 1.01658 65 66 71
0.97653 -4.02926 0.99973 51 56 64
0.94905 -4.04880 1.00716 38 40 45
0.97605 -4.08169 1.01716 37 37 50
0.95823 -4.09244 1.00391 28 32 34
0.97739 -4.14461 1.01602 36 38 41
0.97359 -4.16988 1.01677 44 47 47
0.97535 -4.20380 1.01586 49 60 56
0.97087 -4.22861 1.01681 66 73 72
0.95035 -4.26101 1.02214 61 66 76
0.94509 -4.28517 1.02331 52 56 67
0.92671 -4.29626 1.00964 45 46 57
0.90961 -4.46295 1.03104 48 48 56
0.90467 -4.48955 1.03210 52 53 52
0.89641 -4.51086 1.03414 58 61 54
0.89084 -4.53690 1.03538 65 65 64
0.87179 -4.54839 1.02122 82 85 75
0.88511 -4.56293 1.03666 71 69 70
0.87492 -4.58155 1.03927 80 87 81
0.86505 -4.60085 1.04179 76 83 63
0.86185 -4.63195 1.04231 63 67 42
0.85961 -4.66510 1.04253 48 53 30
0.84567 -4.71556 1.04580 46 53 47
0.85000 -4.71458 1.06440 41 51 51
0.83894 -4.74160 1.04736 50 49 65
0.83010 -4.76406 1.04955 59 61 83
0.82320 -4.79027 1.05116 79 83 94
0.80856 -4.80240 1.05510 97 104 103
0.77841 -4.78554 1.06372 116 124 116
0.74868 -4.80854 1.07173 111 112 107
0.72910 -4.82035 1.05718 109 113 112
0.22735 -5.01900 1.21466 93 91 91
0.23795 -5.00940 1.19245 101 102 96
0.20234 -5.00346 1.22183 85 97 99
0.16725 -4.96129 1.23214 111 121 111
0.15026 -4.96541 1.23683 141 141 142
0.13985 -4.97483 1.25864 153 139 127
0.13568 -4.97577 1.24077 154 141 133
-0.31903 -4.54374 1.37295 159 146 128
-0.30263 -4.53384 1.38514 159 146 130
-0.30627 -4.53467 1.36950 158 144 131
-0.30992 -4.53549 1.35386 158 145 127
-0.34267 -4.56801 1.37925 110 91 57
-0.35597 -4.57533 1.38288 81 70 31
-0.37078 -4.57753 1.38698 48 37 21
-0.38717 -4.58741 1.37480 28 20 20
-0.38386 -4.58545 1.39054 25 21 18
-0.40024 -4.59533 1.37836 23 21 15
-0.68112 -5.55372 1.46166 13 10 12
-0.66239 -5.54242 1.47559 8 9 4
-0.66655 -5.54335 1.45772 8 9 4
-0.67696 -5.55278 1.47953 6 8 4
-0.69607 -5.56197 1.46574 20 13 27
-0.71020 -5.57478 1.46952 33 27 43
-0.72349 -5.59245 1.47302 52 49 46
-0.73722 -5.60784 1.47666 65 61 49
-0.75600 -5.61917 1.46270 63 67 58
-0.75062 -5.62538 1.48018 68 63 53
-0.76942 -5.63672 1.46621 60 64 54
2.75804 -2.43971 0.52298 126 129 131
2.74137 -2.44976 0.51059 103 108 122
2.75643 -2.45467 0.52320 122 118 126
2.73267 -2.45842 0.52983 115 106 124
2.71600 -2.46847 0.51744 71 66 67
2.72708 -2.48737 0.53096 110 107 115
2.72335 -2.48821 0.51499 64 58 62
2.71033 -2.49747 0.51851 83 73 77
2.72249 -2.50102 0.53204 142 149 157
2.70944 -2.51030 0.53557 175 182 189
2.67125 -2.53865 0.54587 176 180 187
2.68430 -2.52937 0.54235 177 177 180
2.66752 -2.53949 0.52987 162 149 144
2.66385 -2.55098 0.54777 165 175 181
2.69648 -2.58509 0.53806 136 136 143
2.70003 -2.60364 0.53678 85 78 82
2.68298 -2.61393 0.52411 70 51 42
2.57942 -2.65368 0.56994 189 193 176
2.57433 -2.68478 0.57089 204 204 174
2.55731 -2.69505 0.55824 178 149 129
2.53582 -2.67938 0.58181 184 164 135
2.51890 -2.68958 0.56923 183 159 123
2.52284 -2.68884 0.58532 184 153 109
2.51463 -2.70115 0.58744 182 156 107
2.48365 -2.71709 0.59591 144 116 74
2.47118 -2.72687 0.59927 130 95 57
2.39331 -2.80147 0.62003 108 86 69
2.40274 -2.79293 0.60026 133 105 65
2.35497 -2.79475 0.63092 74 55 50
2.32938 -2.81385 0.63782 71 53 29
2.33469 -2.83526 0.63600 85 64 49
2.33300 -2.85222 0.63621 122 102 75
2.19031 -2.92031 0.67531 145 119 101
2.21281 -2.95482 0.66845 192 183 163
1.43002 -2.92257 0.88917 151 140 142
1.43848 -2.91490 0.87144 158 141 132
1.42663 -2.92333 0.87464 157 142 135
1.41898 -2.93171 0.89213 154 153 178
1.39530 -2.92964 0.89883 164 195 237
1.37681 -2.93207 0.90399 164 206 253
1.36167 -2.94120 0.89273 158 207 254
1.31056 -2.94801 0.92238 169 214 253
1.32227 -2.93969 0.91922 161 214 254
1.29665 -2.95429 0.92620 176 214 251
1.28523 -2.96286 0.92928 183 215 248
1.27353 -2.97117 0.93244 182 213 247
1.23987 -2.95875 0.94211 181 218 248
1.23326 -2.97176 0.94376 220 241 251
1.21807 -2.97662 0.94796 244 249 249
1.19810 -2.99629 0.95328 193 203 212
1.19159 -3.00956 0.95491 182 210 235
1.18236 -3.02023 0.95734 188 224 249
1.17404 -3.02777 0.97478 190 226 249
1.17070 -3.02852 0.96049 194 226 249
1.16844 -3.04620 0.96085 193 228 251
1.15645 -3.05421 0.96411 191 230 247
1.14490 -3.06268 0.96722 180 211 229
1.12873 -3.06643 0.97172 155 172 207
1.12559 -3.08350 0.97234 126 139 181
1.12057 -3.09876 0.97351 108 126 162
1.11384 -3.11233 0.97520 106 124 149
1.08771 -3.14718 0.98201 116 116 143
1.07254 -3.15633 0.97073 126 138 159
1.08101 -3.16104 0.98369 120 135 159
1.06581 -3.17021 0.97239 129 143 161
1.05151 -3.34740 0.98912 136 151 165
1.06723 -3.33792 1.00080 132 146 165
1.06374 -3.33871 0.98581 136 151 171
1.05501 -3.34661 1.00411 134 147 165
1.03802 -3.35462 0.99280 125 138 159
1.02836 -3.36629 0.99534 102 113 146
1.05235 -3.41766 0.98780 76 81 131
1.04973 -3.43807 0.98823 51 55 112
1.03373 -3.44772 0.97634 20 24 80
1.03910 -3.44908 0.99105 30 37 93
1.02309 -3.45873 0.97915 23 23 78
1.03016 -3.46216 0.99336 24 29 91
1.01859 -3.47210 0.99647 27 31 88
1.01004 -3.48575 0.99866 33 42 86
1.00081 -3.49864 1.00106 27 38 82
0.99810 -3.51968 1.00150 31 39 75
0.95550 -3.61561 1.01201 41 48 81
0.96457 -3.60740 0.99299 31 36 65
0.95187 -3.61643 0.99643 29 36 70
0.93916 -3.62547 0.99986 35 34 71
0.92030 -3.64658 1.02144 20 23 70
0.93642 -3.69419 1.01617 54 74 118
0.92610 -3.70676 1.01888 115 140 166
0.90387 -3.75683 1.02436 125 144 159
0.91312 -3.74845 1.00497 133 148 164
0.89649 -3.77380 1.02618 113 128 129
0.89551 -3.79983 1.02605 71 69 65
0.90430 -3.83991 1.02296 38 29 29
0.89533 -3.85523 1.02525 43 45 46
0.87839 -3.86546 1.01265 45 44 41
0.98032 -4.15584 0.99672 31 32 26
0.97630 -4.15675 0.97949 32 33 25
0.97373 -4.17705 0.99825 34 40 43
0.97559 -4.21119 0.99720 43 51 61
0.97271 -4.23852 0.99759 55 62 74
0.95762 -4.27951 1.00121 49 49 61
0.95321 -4.30515 1.00205 43 46 54
0.92114 -4.45520 1.00877 49 50 49
0.93582 -4.44476 1.00480 48 50 48
0.93162 -4.44571 0.98680 47 52 52
0.91347 -4.47720 1.01059 60 59 62
0.89455 -4.48861 0.99652 71 72 67
0.90711 -4.50159 1.01200 64 62 59
0.88813 -4.51304 0.99789 66 66 60
0.89613 -4.51843 1.01483 65 67 59
0.89249 -4.54783 1.01540 74 77 74
0.87280 -4.58619 1.02035 78 87 75
0.86793 -4.61422 1.02129 68 72 59
0.86636 -4.64831 1.02121 53 54 47
0.86136 -4.67676 1.02218 41 43 33
0.85210 -4.69791 1.02446 34 38 25
0.84347 -4.72038 1.02654 47 47 46
0.83482 -4.74300 1.02863 57 59 66
0.82766 -4.76854 1.03025 83 87 92
0.80847 -4.77219 1.03559 99 107 98
0.78366 -4.76525 1.04268 111 117 113
0.76414 -4.77703 1.02816 127 142 151
0.76225 -4.76439 1.04871 128 138 135
0.74964 -4.77996 1.05202 128 128 127
0.73386 -4.78956 1.05631 116 115 112
0.65141 -4.91303 1.07761 108 113 116
0.66672 -4.90213 1.07347 113 121 115
0.66235 -4.90312 1.05469 106 115 118
0.63609 -4.92392 1.08175 97 95 105
0.62475 -4.94303 1.08465 106 105 108
0.62037 -4.94401 1.06583 100 99 103
0.60941 -4.95394 1.08880 114 115 117
0.35831 -5.06736 1.15770 99 105 98
0.37784 -5.05558 1.17221 94 95 92
0.37350 -5.05656 1.15359 96 101 101
0.36265 -5.06638 1.17632 94 93 91
0.34747 -5.07718 1.18042 92 93 102
0.33879 -5.07914 1.14318 105 114 110
0.33153 -5.05006 1.16550 93 94 99
0.32074 -5.05983 1.18809 99 99 98
0.31643 -5.06080 1.16958 102 106 98
0.22634 -5.02817 1.19543 92 89 88
0.23696 -5.01855 1.17318 94 97 89
0.20092 -5.01161 1.20283 79 84 70
0.17884 -5.00317 1.20917 53 52 65
0.14361 -4.95983 1.21975 97 111 119
0.12577 -4.96149 1.22474 140 141 138
0.11540 -4.97089 1.24649 153 139 123
0.11124 -4.97182 1.22867 150 140 121
-0.32213 -4.54630 1.35713 160 144 126
-0.31302 -4.53805 1.33804 160 146 129
-0.33416 -4.55777 1.36034 144 122 99
-0.33780 -4.59696 1.36076 106 86 57
-0.65163 -5.55772 1.43428 11 7 14
-0.63282 -5.54637 1.44827 7 10 9
-0.63700 -5.54731 1.43033 8 6 9
-0.64745 -5.55678 1.45223 6 9 5
-0.66850 -5.55618 1.43905 20 12 25
-0.68521 -5.55505 1.44377 35 28 39
-0.69895 -5.57004 1.44741 47 50 46
-0.71361 -5.57998 1.45138 54 61 50
-0.72748 -5.59442 1.45506 60 63 57
-0.74625 -5.60574 1.44111 78 78 69
-0.74176 -5.60664 1.45889 66 65 59
2.75366 -2.42451 0.50757 106 105 110
2.77028 -2.41449 0.51992 108 104 106
2.76658 -2.41532 0.50408 91 86 88
2.76289 -2.41615 0.48823 97 86 82
2.74997 -2.42534 0.49173 89 82 91
2.75159 -2.43916 0.50789 119 126 131
2.72396 -2.45671 0.51540 73 74 85
2.72026 -2.45754 0.49952 70 74 59
2.70732 -2.46675 0.50302 53 33 32
2.68990 -2.51896 0.52391 179 186 188
2.69921 -2.51053 0.50439 129 116 119
2.69362 -2.51812 0.53990 180 180 184
2.68617 -2.51980 0.50792 170 158 145
2.68091 -2.53039 0.52624 183 181 181
2.72594 -2.58736 0.51242 103 88 82
2.70888 -2.59765 0.49974 92 55 26
2.65666 -2.56634 0.53245 50 38 46
2.63982 -2.57650 0.51993 114 84 26
2.64178 -2.57468 0.53652 47 31 35
2.62494 -2.58483 0.52400 142 111 46
2.59858 -2.66770 0.54704 207 205 187
2.54809 -2.65556 0.56159 202 188 161
2.53930 -2.66742 0.56386 183 158 134
2.50694 -2.69965 0.57244 182 163 121
2.49027 -2.70692 0.57703 155 133 99
2.48725 -2.72238 0.57760 116 81 71
2.47030 -2.73260 0.56500 93 66 64
2.47622 -2.73307 0.58053 108 71 67
2.46245 -2.74209 0.58427 126 103 70
2.45303 -2.75062 0.60401 129 103 68
2.44926 -2.75147 0.58783 131 103 69
2.40404 -2.81158 0.59955 121 99 62
2.41351 -2.80300 0.57971 135 105 56
2.40025 -2.81243 0.58329 133 105 52
2.37055 -2.80801 0.60911 83 71 61
2.34313 -2.80819 0.61688 68 59 50
2.35175 -2.83170 0.61400 95 84 56
2.35505 -2.85193 0.61269 117 100 59
2.34646 -2.86445 0.61489 121 101 64
2.32846 -2.87077 0.61988 127 104 72
2.31898 -2.87935 0.63974 132 106 62
2.31519 -2.88020 0.62347 130 106 67
2.31140 -2.88106 0.60720 130 107 61
2.20143 -2.93160 0.65477 139 107 94
2.21086 -2.92306 0.63502 136 106 76
2.20160 -2.98826 0.65368 185 181 156
2.18826 -2.99774 0.65728 188 188 171
1.41783 -2.93444 0.87693 156 143 154
1.42630 -2.92677 0.85918 160 143 130
1.39917 -2.93683 0.88218 160 176 210
1.36817 -2.92811 0.89113 163 203 249
1.30638 -2.92899 0.90863 163 206 249
1.32137 -2.91995 0.91977 158 210 254
1.31804 -2.92070 0.90548 159 206 254
1.31471 -2.92146 0.89119 162 209 252
1.28292 -2.92643 0.91533 172 193 233
1.26800 -2.93543 0.90424 168 187 227
1.25489 -2.91947 0.92341 178 183 225
1.24005 -2.92843 0.91238 158 184 217
1.23842 -2.92309 0.92802 186 174 214
1.22466 -2.92918 0.93181 195 166 210
1.20702 -2.93158 0.93676 188 183 224
1.20869 -2.95228 0.93591 215 225 244
1.19699 -2.96034 0.93907 241 249 252
1.18802 -2.97103 0.94142 243 249 248
1.18382 -2.98639 0.94233 213 225 234
1.18041 -3.00263 0.94299 194 219 243
1.17818 -3.02014 0.94330 191 228 251
1.16726 -3.02916 0.94623 194 231 249
1.15830 -3.04014 0.94857 183 210 230
1.16323 -3.06516 0.94671 157 166 204
1.13464 -3.05641 0.95498 125 133 181
1.13320 -3.07516 0.95503 111 122 168
1.12735 -3.08951 0.95643 109 121 157
1.11806 -3.10039 0.95886 112 126 151
1.11267 -3.11538 0.96011 111 108 138
1.10553 -3.12862 0.96189 113 102 133
1.09757 -3.14106 0.96392 120 121 142
1.08239 -3.15021 0.95263 126 116 136
1.08936 -3.15329 0.96602 123 131 151
1.05091 -3.28395 0.97450 137 155 170
1.06643 -3.27459 0.98604 133 147 163
1.06298 -3.27537 0.97124 138 152 166
1.05436 -3.28318 0.98931 134 148 169
1.04229 -3.29176 0.99257 136 150 173
1.05047 -3.30577 0.97422 135 150 170
1.04636 -3.32358 0.97506 124 135 158
1.03406 -3.33207 0.97839 102 113 136
1.06952 -3.39610 0.96715 74 85 112
1.06867 -3.41839 0.96698 49 55 99
1.05750 -3.42871 0.96995 30 34 91
1.04818 -3.44126 0.97236 21 27 89
1.01937 -3.47819 0.97985 21 24 68
1.00753 -3.48785 0.98303 31 28 76
0.99691 -3.49904 0.98583 35 30 72
0.99571 -3.52197 0.98575 37 33 65
0.99249 -3.54259 0.98628 32 29 57
0.97990 -3.55154 0.98968 22 27 66
0.94207 -3.65509 0.99849 34 31 65
0.95119 -3.64682 0.97936 32 36 73
0.93841 -3.65591 0.98282 31 34 68
0.92960 -3.66460 1.00185 19 22 66
0.94663 -3.71362 0.99611 47 63 104
0.92822 -3.71543 1.00130 109 133 157
0.92088 -3.73217 1.00307 134 152 171
0.90425 -3.74220 0.99071 137 151 163
0.90392 -3.76285 1.00731 130 148 161
0.90021 -3.76368 0.99140 135 151 160
0.89926 -3.78365 1.00825 122 136 139
0.89502 -3.80522 1.00905 82 82 79
0.90695 -3.84983 1.00484 34 28 24
0.88999 -3.86006 0.99223 37 38 42
0.98720 -4.20426 0.97552 25 34 40
0.99733 -4.19509 0.95429 36 37 32
0.98315 -4.20517 0.95812 30 38 37
0.98700 -4.23554 0.97500 34 40 56
0.96866 -4.24660 0.96136 44 43 47
0.98170 -4.25938 0.97606 44 47 58
0.96330 -4.27048 0.96238 45 44 39
0.96189 -4.32609 0.98044 43 41 48
0.95172 -4.34308 0.98301 53 47 60
0.94139 -4.35243 1.00465 51 51 66
0.93726 -4.35336 0.98692 56 52 66
0.92347 -4.46685 0.98872 50 57 58
0.91927 -4.46780 0.97069 54 58 61
0.91501 -4.48767 0.99074 67 71 70
0.88987 -4.55153 0.99668 69 74 72
0.88268 -4.57522 0.99828 72 76 72
0.87671 -4.60123 0.99950 65 68 64
0.87231 -4.63023 1.00021 60 55 53
0.86679 -4.65758 1.00126 47 41 45
0.85651 -4.67678 1.00382 37 38 30
0.84463 -4.69328 1.00689 25 27 17
0.83629 -4.71623 1.00883 54 63 36
0.83617 -4.75433 1.00815 77 84 82
0.81360 -4.75177 1.01460 95 100 106
0.79370 -4.75394 1.02020 106 113 113
0.77635 -4.76070 1.02500 121 125 128
0.74422 -4.77888 1.03377 124 128 127
0.72635 -4.78447 1.03874 116 119 112
0.70688 -4.79621 1.02427 100 107 107
0.71973 -4.81166 1.04011 105 111 112
0.70888 -4.82149 1.06285 107 111 113
0.70454 -4.82246 1.04422 103 105 109
0.70019 -4.82344 1.02559 101 107 107
0.64540 -4.91070 1.05935 108 117 118
0.65633 -4.90080 1.03645 110 118 119
0.47626 -5.07429 1.10429 119 117 104
0.49608 -5.06234 1.11902 107 112 106
0.49167 -5.06333 1.10012 112 118 108
0.48727 -5.06432 1.08122 109 116 102
0.47186 -5.07528 1.08539 120 121 107
0.46526 -5.08426 1.12735 96 98 95
0.46154 -5.08682 1.10823 110 104 100
0.45053 -5.09679 1.13130 97 98 102
0.44295 -5.09044 1.11343 107 101 104
0.43196 -5.10039 1.13647 98 98 101
0.42291 -5.09054 1.11911 102 98 102
0.41195 -5.10048 1.14210 98 98 94
0.39991 -5.08344 1.12577 100 97 99
0.38024 -5.09531 1.11114 110 118 106
0.37598 -5.07378 1.13273 97 104 103
0.35639 -5.08560 1.11817 110 112 102
0.35526 -5.07144 1.13865 104 108 99
0.33573 -5.08322 1.12413 107 110 108
0.31946 -5.07977 1.14865 109 108 99
0.30863 -5.08957 1.17133 104 107 96
0.29997 -5.09152 1.13416 99 97 93
0.22443 -5.03509 1.17643 92 91 82
0.23506 -5.02546 1.15415 100 97 90
0.20176 -5.02559 1.18303 71 69 69
0.16642 -4.98272 1.19385 43 30 44
0.15094 -4.99099 1.19808 29 38 56
0.12160 -4.96236 1.20693 81 99 112
0.09811 -4.94865 1.21385 133 138 136
0.08779 -4.95800 1.23548 150 140 111
0.08366 -4.95893 1.21776 150 143 117
-0.32360 -4.55415 1.34074 162 147 128
-0.31448 -4.54588 1.32162 160 145 133
-0.33095 -4.58101 1.34233 139 118 98
-0.33555 -4.61743 1.34296 105 84 49
-0.35802 -4.59457 1.34975 67 56 37
-0.36984 -4.60707 1.35287 40 30 23
-0.38633 -4.61702 1.34061 24 24 22
-0.62383 -5.55178 1.40739 13 7 18
-0.60496 -5.54040 1.42142 9 8 8
-0.60915 -5.54135 1.40343 8 7 12
-0.61963 -5.55084 1.42539 8 6 9
-0.63908 -5.55922 1.41158 21 10 25
-0.65670 -5.55396 1.41668 32 20 35
-0.67430 -5.54833 1.42177 48 44 43
-0.68904 -5.55781 1.42578 62 67 49
-0.70778 -5.56911 1.41184 77 72 65
-0.70310 -5.57105 1.42952 68 69 59
-0.71789 -5.58027 1.43354 70 66 62
-0.73184 -5.59426 1.43724 70 72 63
-0.75060 -5.60557 1.42329 76 77 70
2.74438 -2.43823 0.49305 98 103 109
2.75362 -2.42985 0.47368 89 81 70
2.73656 -2.45003 0.49503 109 116 111
2.72606 -2.55729 0.49570 176 156 134
2.73549 -2.54875 0.47595 183 148 113
2.72229 -2.55814 0.47951 186 152 112
2.71382 -2.56719 0.49898 146 120 88
2.69335 -2.57265 0.50472 103 67 37
2.67640 -2.58287 0.49212 162 129 83
2.53915 -2.63653 0.54740 197 166 145
2.52777 -2.64680 0.55044 194 164 131
2.53046 -2.66530 0.54926 189 168 122
2.52409 -2.67860 0.55080 181 163 124
2.51471 -2.69018 0.55323 167 147 115
2.49584 -2.69613 0.55849 154 134 96
2.47895 -2.70632 0.54593 129 107 79
2.49310 -2.71171 0.55894 136 114 84
2.48788 -2.72589 0.56012 111 84 75
2.47148 -2.75078 0.56427 114 89 66
2.46491 -2.76430 0.56585 130 100 71
2.45544 -2.77287 0.58569 132 101 70
2.45166 -2.77372 0.56944 133 101 72
2.44787 -2.77457 0.55319 131 101 71
2.39000 -2.82379 0.58597 131 103 53
2.39947 -2.81521 0.56612 130 104 54
2.38621 -2.82464 0.56971 129 101 58
2.37294 -2.83408 0.57329 122 96 60
2.37376 -2.83130 0.59045 128 100 54
2.34488 -2.84860 0.59833 106 79 56
2.34240 -2.86513 0.59868 96 75 48
2.33438 -2.87809 0.60069 118 94 61
2.21101 -2.94184 0.63457 137 109 82
2.22047 -2.93327 0.61475 134 105 70
2.20723 -2.94269 0.61833 137 108 73
2.20929 -2.95941 0.63468 139 116 99
2.21762 -2.98426 0.63176 186 174 151
2.20321 -2.99300 0.63569 205 203 176
2.18538 -2.99927 0.64065 192 183 158
2.17586 -3.00789 0.66061 188 181 161
2.17810 -3.01316 0.64243 158 146 120
2.16855 -3.02180 0.66243 187 183 155
2.16474 -3.02266 0.64605 148 138 116
1.42349 -2.94319 0.85963 159 140 141
1.43199 -2.93550 0.84183 160 142 126
1.42009 -2.94396 0.84504 160 143 135
1.40425 -2.94512 0.86509 160 155 172
1.35587 -2.92087 0.87944 162 188 234
1.33343 -2.91955 0.88588 161 206 252
1.29369 -2.92119 0.89720 176 191 237
1.27876 -2.93020 0.88610 182 164 199
1.26394 -2.91275 0.90589 176 175 218
1.22057 -2.92917 0.91793 182 174 214
1.20928 -2.93757 0.92098 189 167 190
1.20021 -2.94808 0.92334 195 208 231
1.19373 -2.96112 0.92491 218 237 248
1.17693 -2.96425 0.92964 221 235 247
1.17209 -2.97894 0.93071 206 229 247
1.16749 -2.99396 0.93170 191 225 244
1.16443 -3.01060 0.93221 175 204 223
1.17701 -3.04293 0.92791 152 168 204
1.15651 -3.04244 0.93379 121 132 174
1.15068 -3.05665 0.93514 110 122 159
1.14191 -3.06794 0.93740 110 122 153
1.13169 -3.07779 0.94011 111 113 134
1.11400 -3.10042 0.94468 115 98 119
1.10843 -3.11521 0.94595 113 83 95
1.09770 -3.12468 0.94881 118 99 111
1.09830 -3.14617 0.94817 126 125 141
1.07862 -3.16726 0.95334 130 131 149
1.06340 -3.17644 0.94202 141 153 167
1.05734 -3.25165 0.95759 140 157 171
1.07278 -3.24234 0.96907 136 150 165
1.06935 -3.24311 0.95435 142 155 170
1.06077 -3.25088 0.97232 138 151 164
1.05962 -3.27624 0.95641 135 152 163
1.05319 -3.29122 0.95792 122 134 150
1.06040 -3.32182 0.95519 98 109 137
1.07447 -3.36062 0.95033 70 82 120
1.05865 -3.37016 0.93857 24 24 78
1.07514 -3.38436 0.94963 47 55 98
1.07409 -3.40632 0.94945 36 34 82
1.06254 -3.41617 0.95254 28 26 77
1.05368 -3.42920 0.95479 28 21 67
1.04525 -3.44281 0.95690 26 20 79
1.03166 -3.45030 0.96062 28 32 82
1.02273 -3.46340 0.96289 36 45 77
1.01320 -3.47583 0.96535 42 57 82
1.00449 -3.48931 0.96754 51 64 91
0.98783 -3.49304 0.97223 55 68 95
0.99254 -3.52330 0.97022 54 62 83
0.98710 -3.54115 0.97139 45 53 64
0.98369 -3.58675 0.97138 29 29 62
0.97462 -3.59496 0.99037 33 35 71
0.98108 -3.60871 0.97164 35 30 66
0.96834 -3.61777 0.97509 34 34 64
0.93659 -3.67959 0.98283 17 24 67
0.94576 -3.67129 0.96361 23 28 67
0.93764 -3.70736 0.98192 39 53 95
0.92336 -3.71467 0.98585 100 122 147
0.92483 -3.74341 0.98480 135 153 171
0.90815 -3.75347 0.97240 141 153 163
0.90088 -3.79193 0.99060 128 142 147
0.91020 -3.78349 0.97107 139 152 161
0.90301 -3.82252 0.98932 93 98 95
0.91074 -3.86136 0.98627 37 33 27
0.89372 -3.87163 0.97363 37 36 39
0.99745 -4.25853 0.95288 36 42 46
1.00770 -4.24925 0.93141 32 38 29
0.97320 -4.31830 0.95851 42 44 43
0.96581 -4.33963 0.96016 48 51 61
0.94719 -4.35086 0.94632 64 68 75
0.95836 -4.36103 0.96183 64 63 77
0.95195 -4.38428 0.96315 57 55 57
0.94155 -4.39370 0.98495 56 53 60
0.93322 -4.39558 0.94923 42 45 44
0.94694 -4.40999 0.96403 49 46 41
0.93650 -4.41944 0.98591 56 54 55
0.93232 -4.42038 0.96798 54 50 46
0.91743 -4.49961 0.97052 61 66 66
0.92799 -4.49005 0.94839 57 59 65
0.90624 -4.51614 0.97336 60 65 63
0.89677 -4.53567 0.97564 56 58 55
0.88893 -4.55812 0.97740 61 64 60
0.88194 -4.58221 0.97887 60 64 59
0.86275 -4.59378 0.96461 43 41 44
0.87522 -4.60701 0.98026 56 57 54
0.86957 -4.63391 0.98129 57 52 50
0.86150 -4.65682 0.98310 48 45 42
0.85176 -4.67699 0.98544 42 33 27
0.83857 -4.69115 0.98891 31 33 28
0.83745 -4.72711 0.98845 85 96 85
0.81791 -4.73890 0.97392 119 127 113
0.81339 -4.72182 0.99544 111 117 102
0.79392 -4.73356 0.98096 114 118 116
0.80099 -4.73761 0.99864 109 112 113
0.78432 -4.74560 1.00323 111 120 119
0.76484 -4.75735 0.98875 132 142 136
0.76628 -4.75099 1.00827 132 138 132
0.74902 -4.75774 1.01306 127 133 137
0.73916 -4.77847 1.01543 120 126 117
0.72302 -4.78736 1.01985 112 120 103
0.70355 -4.79911 1.00537 101 109 108
0.69573 -4.85533 1.02617 107 109 105
0.70009 -4.85435 1.04489 101 105 102
0.68483 -4.86520 1.04902 105 113 104
0.67610 -4.86717 1.01158 118 119 117
0.63906 -4.90768 1.04123 112 121 122
0.64998 -4.89779 1.01835 112 118 120
0.63469 -4.90866 1.02248 118 125 127
0.62055 -4.91194 1.04643 105 108 106
0.60091 -4.92379 1.03184 102 106 100
0.60546 -4.92317 1.05050 103 107 109
0.59018 -4.93403 1.05463 113 122 118
0.45597 -5.08515 1.08972 118 119 109
0.46698 -5.07518 1.06666 119 120 111
0.45157 -5.08614 1.07082 117 121 117
0.43616 -5.09710 1.07499 117 120 113
0.43738 -5.08871 1.09495 118 122 111
0.41760 -5.10064 1.08025 116 115 116
0.41652 -5.08684 1.10095 113 113 115
0.39679 -5.09874 1.08629 115 115 112
0.39303 -5.07849 1.10785 111 111 107
0.37338 -5.09034 1.09324 113 117 112
0.22147 -5.03936 1.15773 98 94 84
0.23211 -5.02973 1.13544 96 95 95
0.15943 -4.97637 1.17683 36 21 44
0.14317 -4.98247 1.18135 25 21 32
0.12930 -4.99489 1.18504 26 41 54
0.09483 -4.95187 1.19583 78 101 104
0.06875 -4.93055 1.20374 133 138 132
0.05849 -4.93985 1.22525 152 139 121
0.05438 -4.94077 1.20763 151 139 124
-0.32660 -4.55709 1.32484 160 147 128
-0.31747 -4.54883 1.30570 159 146 136
-0.32481 -4.61404 1.32309 132 115 92
-0.33601 -4.62898 1.32597 100 84 47
-0.35802 -4.60769 1.33272 59 52 40
-0.36601 -4.63338 1.33445 33 30 29
-0.38260 -4.64338 1.32212 20 24 28
-0.59839 -5.53328 1.38135 12 10 12
-0.57952 -5.52190 1.39538 8 11 5
-0.58371 -5.52285 1.37738 9 10 5
-0.59419 -5.53234 1.39935 7 9 7
-0.61029 -5.55778 1.38422 20 14 26
-0.63099 -5.53745 1.39058 32 29 39
-0.64910 -5.52966 1.39592 47 47 43
-0.66351 -5.54093 1.39980 59 62 49
-0.68226 -5.55224 1.38586 73 73 64
-0.69310 -5.55932 1.40786 74 74 62
-0.72381 -5.57125 1.41638 76 73 66
-0.74252 -5.58254 1.40246 80 81 81
-0.73787 -5.58445 1.42011 69 75 67
-0.75659 -5.59575 1.40619 82 80 80
2.73086 -2.43411 0.48013 89 83 79
2.72418 -2.44646 0.48175 124 126 107
2.72411 -2.46224 0.48137 117 121 98
2.72365 -2.47790 0.48112 80 57 46
2.70692 -2.48799 0.46868 102 76 34
2.70856 -2.48607 0.48526 95 66 46
2.69927 -2.49448 0.50472 77 56 71
2.69556 -2.49532 0.48878 141 116 74
2.72475 -2.57594 0.47836 170 139 98
2.73422 -2.56737 0.45854 193 162 105
2.69474 -2.57629 0.48700 158 127 82
2.67777 -2.58652 0.47439 184 153 103
2.53040 -2.63448 0.53290 195 173 133
2.53972 -2.62603 0.51336 180 160 108
2.52317 -2.64714 0.53466 188 168 118
2.53010 -2.66813 0.53214 174 148 104
2.51723 -2.67762 0.53562 143 116 84
2.50034 -2.68781 0.52306 118 95 68
2.49951 -2.68425 0.54056 117 97 71
2.49586 -2.69923 0.54123 121 102 80
2.47895 -2.70943 0.52866 126 104 83
2.48501 -2.72728 0.54366 121 95 73
2.47561 -2.73898 0.54608 99 70 64
2.47790 -2.75789 0.54495 97 67 63
2.46613 -2.76824 0.54809 120 94 66
2.36515 -2.84709 0.57521 114 88 59
2.36136 -2.84794 0.55893 117 90 41
2.34807 -2.85739 0.56252 108 87 57
2.35789 -2.87875 0.57652 105 87 52
2.35408 -2.87961 0.56015 103 84 57
2.34665 -2.88965 0.57949 117 98 56
2.22089 -2.97118 0.61369 135 109 83
2.23041 -2.96255 0.59373 133 107 75
2.21708 -2.97204 0.59734 134 107 79
2.20805 -2.98102 0.61714 155 135 115
2.21337 -3.00391 0.61504 196 190 181
2.19580 -3.01043 0.61994 207 195 171
2.17579 -3.01512 0.62559 181 163 144
2.15054 -3.01591 0.63284 175 158 119
2.14103 -3.02452 0.65278 160 149 127
2.13722 -3.02538 0.63644 178 165 128
1.39408 -2.93984 0.85264 161 150 155
1.40253 -2.93219 0.83492 161 142 132
1.36748 -2.93503 0.86042 162 172 205
1.32668 -2.91722 0.87262 163 199 242
1.31090 -2.92178 0.87705 168 211 248
1.29038 -2.92194 0.88296 187 182 222
1.24883 -2.92146 0.89494 175 183 228
1.23472 -2.92728 0.89886 166 182 217
1.22109 -2.93350 0.90263 187 164 200
1.20175 -2.93429 0.90818 196 182 213
1.18770 -2.94002 0.91209 198 221 242
1.17946 -2.95131 0.91418 202 237 249
1.17253 -2.96391 0.91586 196 224 241
1.18238 -2.99294 0.91230 177 192 226
1.16902 -2.99946 0.91599 142 155 199
1.16885 -3.01901 0.91555 120 133 178
1.16188 -3.03194 0.91724 112 123 159
1.15874 -3.04879 0.91772 103 82 126
1.14874 -3.05882 0.92036 108 99 127
1.13734 -3.06745 0.92343 114 113 136
1.12229 -3.07653 0.91224 119 108 127
1.12905 -3.07927 0.92552 117 109 122
1.12592 -3.09647 0.92600 116 93 106
1.11252 -3.10313 0.92969 115 79 100
1.10048 -3.11117 0.93296 115 79 95
1.09383 -3.12491 0.93453 118 89 104
1.09099 -3.14276 0.93491 124 106 127
1.09014 -3.16288 0.93465 131 125 144
1.07490 -3.17207 0.92332 143 156 168
1.07782 -3.17080 0.93801 137 146 158
1.05309 -3.20801 0.94421 141 156 168
1.06839 -3.19878 0.95558 137 150 165
1.06499 -3.19955 0.94099 142 155 167
1.05649 -3.20724 0.95880 140 152 166
1.05383 -3.23049 0.94343 137 151 163
1.05672 -3.25557 0.94198 124 133 151
1.06978 -3.29233 0.93730 97 105 139
1.10242 -3.35168 0.92643 69 76 121
1.08961 -3.35991 0.92991 43 47 99
1.08229 -3.37444 0.93166 29 30 87
1.07260 -3.40952 0.93358 31 28 76
1.06336 -3.42211 0.93593 34 47 88
1.04890 -3.42855 0.93993 66 69 100
1.04943 -3.45284 0.93918 74 75 112
1.03338 -3.46252 0.92724 91 105 126
1.04414 -3.47036 0.94026 78 85 109
1.02805 -3.48007 0.92830 98 102 118
1.03268 -3.48054 0.94331 86 95 101
1.02185 -3.49151 0.94616 92 104 108
1.01371 -3.50582 0.94815 97 106 119
1.00991 -3.52558 0.94875 95 101 120
0.99743 -3.55944 0.95151 93 101 106
1.00346 -3.59208 0.94896 88 94 95
0.99625 -3.60820 0.95064 78 77 93
0.98852 -3.62375 0.95248 65 64 86
0.98054 -3.63908 0.95440 48 44 60
0.97138 -3.64737 0.97358 30 36 68
0.96772 -3.64820 0.95786 32 32 56
0.94389 -3.69505 0.96356 15 22 70
0.95310 -3.68671 0.94427 23 23 62
0.94021 -3.69588 0.94775 19 21 65
0.93275 -3.70656 0.96649 30 39 91
0.92515 -3.72291 0.96827 87 105 138
0.92711 -3.75241 0.96697 134 154 170
0.91039 -3.76249 0.95455 143 155 165
0.90460 -3.80317 0.97219 135 148 153
0.91394 -3.79470 0.95261 141 154 163
0.90587 -3.83266 0.97110 105 115 107
0.91574 -3.87468 0.96721 44 43 37
0.89867 -3.88497 0.95452 40 31 30
1.00292 -4.27400 0.93217 37 37 29
1.01320 -4.26470 0.91064 36 38 26
0.99436 -4.29317 0.93417 47 47 43
0.98752 -4.31515 0.93559 51 54 55
0.96892 -4.32637 0.92176 55 55 61
0.98144 -4.33850 0.93676 50 54 54
0.97170 -4.35631 0.93912 55 61 66
0.95605 -4.39841 0.94259 50 53 58
0.95188 -4.39935 0.92467 54 66 67
0.94325 -4.44582 0.94510 57 58 52
0.92855 -4.45628 0.94907 63 66 66
0.92434 -4.45722 0.93104 62 64 54
0.92323 -4.51723 0.94909 54 55 56
0.93383 -4.50763 0.92687 53 56 52
0.91899 -4.51819 0.93089 50 52 51
0.90415 -4.52874 0.93490 44 47 43
0.91289 -4.53533 0.95162 47 52 46
0.89377 -4.54686 0.93740 42 46 36
0.90650 -4.56023 0.95284 45 50 40
0.88732 -4.57180 0.93858 46 43 37
0.89570 -4.57785 0.95551 56 56 46
0.87649 -4.58944 0.94123 39 32 38
0.88766 -4.60034 0.95727 49 47 49
0.86618 -4.63645 0.96256 46 45 41
0.85474 -4.65348 0.96543 51 51 50
0.84098 -4.66648 0.96907 60 60 56
0.83942 -4.70137 0.96866 69 74 69
0.82541 -4.71418 0.97238 108 115 115
0.80593 -4.72593 0.95789 118 123 118
0.77633 -4.73979 0.98587 116 124 122
0.74266 -4.75487 0.99520 127 127 119
0.73220 -4.77444 0.99773 115 120 109
0.71274 -4.78618 0.98326 98 98 99
0.71730 -4.78566 1.00174 105 111 102
0.69928 -4.83112 1.00580 106 115 112
0.67972 -4.84292 0.99126 116 121 118
0.68956 -4.85275 1.00807 116 119 114
0.66995 -4.86458 0.99349 117 120 121
