ply
format ascii 1.0
element face 0
property list uchar int vertex_indices
element vertex 1317
property float x
property float y
property float z
property uchar diffuse_red
property uchar diffuse_green
property uchar diffuse_blue
end_header
2.96215 -2.09797 0.99722 194 209 215
2.97330 -2.09726 1.01309 173 187 195
2.95559 -2.11155 1.00222 183 195 189
2.96729 -2.11103 1.01803 160 177 190
2.94955 -2.12534 1.00715 163 172 170
2.94294 -2.11860 1.02581 182 191 213
2.93661 -2.12778 1.04839 218 224 232
2.93093 -2.13033 1.03167 209 217 235
1.74661 -2.26194 1.34992 203 200 192
1.75199 -2.25414 1.33073 243 245 248
1.74178 -2.26410 1.33571 237 236 225
1.74229 -2.27475 1.35421 69 55 82
1.74012 -2.28866 1.35825 42 43 55
1.72504 -2.30082 1.34900 47 49 52
1.72889 -2.31323 1.36719 41 35 46
1.72325 -2.32556 1.37167 31 25 40
1.71783 -2.33342 1.39100 23 24 30
1.71297 -2.33560 1.37669 27 22 38
1.70811 -2.33777 1.36238 29 24 34
1.97958 -3.13412 1.51504 43 32 24
1.98972 -3.16081 1.51937 58 39 27
2.04258 -3.27810 1.53639 131 117 79
2.02415 -3.29296 1.52509 171 148 131
1.31421 -2.92073 1.62098 156 138 104
1.32483 -2.91036 1.61579 170 152 117
1.30705 -2.93363 1.62597 149 131 116
1.29139 -2.94627 1.61636 145 132 119
1.44270 -5.53785 2.25369 146 164 196
1.43455 -5.54967 2.28275 147 165 193
1.42724 -5.55294 2.26123 137 154 182
1.41993 -5.55622 2.23971 111 129 151
0.50451 -4.44063 2.20114 57 67 67
0.51079 -4.43152 2.17875 32 36 41
0.46853 -4.41599 2.20355 126 130 124
0.45114 -4.43002 2.19288 147 133 123
0.17040 -4.23950 2.23051 154 160 176
2.98278 -1.96535 0.95894 85 86 103
2.98901 -1.95631 0.93672 70 77 94
2.96538 -1.97939 0.94825 58 62 86
2.97964 -1.97959 0.96327 87 93 118
2.96220 -1.99365 0.95257 74 72 86
2.94387 -2.01418 0.98065 96 99 130
2.92961 -2.02495 0.98682 121 129 150
2.97678 -2.05578 0.98308 147 156 171
2.95916 -2.06999 0.97226 144 157 174
2.97601 -2.07115 0.98712 167 176 197
2.95835 -2.08540 0.97628 148 162 181
2.97228 -2.08561 0.99165 185 197 216
2.92716 -2.13353 1.01465 178 189 197
2.93350 -2.12434 0.99205 179 193 189
2.92083 -2.14272 1.03724 218 223 230
2.90946 -2.14781 1.00378 181 192 203
1.74853 -2.28228 1.33863 127 127 127
1.75393 -2.27444 1.31936 250 248 245
1.74618 -2.29614 1.34268 54 38 35
1.73529 -2.32099 1.35156 44 38 45
1.73205 -2.33457 1.35575 36 27 39
1.71686 -2.34682 1.34643 29 25 20
1.98284 -3.12277 1.49245 83 55 36
1.99497 -3.11092 1.48653 68 42 25
1.97710 -3.12534 1.47556 167 143 91
1.96496 -3.13719 1.48148 182 159 106
1.99371 -3.14985 1.49660 95 76 50
1.97574 -3.16435 1.48557 183 163 118
2.02857 -3.19314 1.49898 124 108 74
2.01039 -3.20780 1.48782 177 156 131
2.02652 -3.21210 1.50423 151 130 90
2.00830 -3.22680 1.49305 180 155 134
1.31510 -2.87342 1.59232 196 175 182
1.32564 -2.86312 1.58717 189 162 153
1.32009 -2.87119 1.60700 169 146 132
1.30954 -2.88148 1.61215 171 150 139
1.29777 -2.87886 1.59790 205 195 187
1.28724 -2.88914 1.60304 204 197 150
1.29997 -2.91629 1.60675 169 152 110
1.28692 -2.92484 1.61207 148 127 111
1.61309 -5.38509 2.14981 138 138 158
1.63591 -5.36668 2.16381 120 126 146
1.62858 -5.36996 2.14225 138 140 160
1.59028 -5.40349 2.13581 144 148 171
1.44224 -5.55082 2.23293 120 140 171
0.49536 -4.43787 2.18409 64 68 69
0.50163 -4.42877 2.16173 26 37 39
0.47099 -4.43064 2.18821 131 133 127
0.45355 -4.44471 2.17751 149 134 124
0.16646 -4.21543 2.20830 153 143 147
0.17222 -4.20707 2.18774 147 137 124
0.15494 -4.22516 2.21354 160 165 186
0.13884 -4.23815 2.20366 163 166 181
0.14451 -4.23665 2.21896 159 162 179
0.13875 -4.24501 2.23952 155 157 177
0.13358 -4.24732 2.22430 157 160 176
0.12841 -4.24964 2.20908 159 165 175
-0.35577 -3.70437 2.20714 181 174 164
-0.34663 -3.69545 2.20268 170 164 159
-0.35095 -3.69738 2.18996 159 147 142
-0.35145 -3.70244 2.21985 183 174 165
-0.36058 -3.71135 2.22431 183 172 168
-0.36490 -3.71329 2.21159 184 174 172
2.96973 -1.96553 0.94375 59 66 86
2.97595 -1.95651 0.92156 62 66 91
2.96415 -1.96803 0.92732 58 58 79
2.93765 -2.00116 0.96047 87 89 101
2.94387 -1.99213 0.93827 103 112 109
2.93195 -2.01465 0.96522 101 109 117
2.91807 -2.02553 0.97133 118 128 131
2.94523 -2.04983 0.97068 137 146 154
2.95049 -2.09850 0.98146 169 182 199
2.93849 -2.11022 0.98732 193 204 210
2.90706 -2.13109 1.00023 156 171 175
2.91337 -2.12192 0.97769 179 192 202
2.90139 -2.13362 0.98354 165 176 177
2.93851 -2.17400 1.00314 210 221 231
2.93212 -2.18326 1.02591 218 221 231
2.92639 -2.18583 1.00905 215 221 229
2.92717 -2.20227 1.01294 217 222 230
2.93291 -2.19970 1.02984 220 223 232
2.92077 -2.21156 1.03577 222 226 234
2.92289 -2.21697 1.01764 219 224 231
2.91648 -2.22627 1.04051 223 225 235
2.91073 -2.22885 1.02357 220 226 232
2.90498 -2.23142 1.00664 211 217 227
1.75838 -2.29159 1.32252 192 189 186
1.76380 -2.28372 1.30318 253 252 251
1.75351 -2.29376 1.30820 237 235 221
1.75626 -2.30563 1.32652 67 43 79
1.75088 -2.31813 1.33095 43 47 55
1.73568 -2.33039 1.32162 45 52 49
1.74276 -2.32930 1.33572 45 46 48
1.74012 -2.34323 1.33982 38 32 38
1.63609 -2.77559 1.47265 38 24 23
1.64702 -2.76492 1.46732 40 24 23
1.64185 -2.76723 1.45210 63 32 21
1.64126 -2.77328 1.48787 45 32 24
1.63033 -2.78395 1.49321 45 31 21
1.62516 -2.78626 1.47799 42 27 24
1.37089 -2.84734 1.55567 189 168 180
1.38149 -2.83699 1.55050 190 161 148
1.36531 -2.85545 1.57560 173 147 135
1.32352 -2.84966 1.56790 222 218 200
1.31488 -2.87904 1.57731 251 246 239
1.29932 -2.89159 1.56776 254 254 253
1.30534 -2.89009 1.58239 254 252 239
1.28236 -2.89143 1.58838 239 236 210
1.26714 -2.89829 1.59382 192 181 153
1.26915 -2.91773 1.59815 149 126 111
1.25171 -2.92295 1.60373 138 127 114
1.24616 -2.93100 1.62353 145 132 122
1.23401 -2.92790 1.60931 139 129 117
1.22848 -2.93594 1.62907 147 132 122
1.22351 -2.93816 1.61444 143 131 118
1.25817 -3.21185 1.67381 147 134 127
1.27444 -3.19872 1.68380 150 136 128
1.26922 -3.20106 1.66842 149 137 128
1.26399 -3.20340 1.65304 148 137 126
1.26340 -3.20951 1.68919 151 135 127
1.25235 -3.22030 1.69459 149 134 125
1.24944 -3.22455 1.67911 137 130 123
1.24361 -3.23301 1.69990 148 135 124
1.24074 -3.23730 1.68441 139 132 124
1.23490 -3.24577 1.70522 148 134 123
1.22967 -3.24811 1.68981 145 133 122
1.59100 -5.36898 2.12707 146 150 169
1.55493 -5.39218 2.14169 147 162 189
1.52823 -5.39209 2.14823 149 174 201
1.48762 -5.40864 2.16233 142 168 196
1.49845 -5.45942 2.17226 135 158 192
1.46929 -5.45556 2.17847 124 141 178
0.48666 -4.43576 2.16715 64 67 67
0.49292 -4.42667 2.14481 23 40 41
0.46750 -4.43633 2.17200 133 133 129
0.45005 -4.45041 2.16129 148 133 124
0.14352 -4.18901 2.19032 156 151 161
0.13889 -4.20975 2.19660 164 168 191
0.12286 -4.22267 2.18676 162 169 184
-0.38244 -3.69131 2.19620 178 171 172
-0.38722 -3.69825 2.21325 183 174 167
-0.39150 -3.70017 2.20063 182 175 166
2.91202 -1.99725 0.94745 101 105 113
2.91822 -1.98826 0.92533 120 128 135
2.89470 -2.01123 0.93682 98 100 119
2.90961 -2.01175 0.95160 100 103 115
2.90269 -2.02484 0.95653 112 119 126
2.88532 -2.03886 0.94587 114 119 131
2.91540 -2.04441 0.95817 128 134 142
2.94008 -2.06808 0.95785 141 151 160
2.93582 -2.08230 0.96239 147 159 169
2.91822 -2.09650 0.95159 152 159 168
2.92668 -2.09492 0.96776 148 157 168
2.92135 -2.10886 0.97250 160 169 187
2.88551 -2.14396 0.99003 156 167 172
2.89182 -2.13480 0.96751 168 183 194
2.87985 -2.14650 0.97336 153 169 177
2.86787 -2.15819 0.97920 166 177 193
2.93964 -2.17898 0.98516 192 206 216
2.94016 -2.19533 0.98904 207 213 225
2.92225 -2.20978 0.97805 198 202 216
2.92635 -2.20661 0.99524 207 210 221
2.90845 -2.22105 0.98425 199 203 217
2.92104 -2.22096 1.00008 208 212 223
2.90311 -2.23542 0.98908 202 207 221
1.74226 -2.30333 1.31334 95 103 110
1.74768 -2.29547 1.29401 252 250 241
1.74369 -2.34967 1.32436 42 40 41
1.73645 -2.36138 1.32903 33 28 26
1.73098 -2.36931 1.34854 25 24 27
1.73005 -2.37354 1.33360 34 24 26
1.72457 -2.38148 1.35313 21 21 29
1.71966 -2.38368 1.33867 28 22 22
1.56843 -2.68736 1.45076 37 23 17
1.60041 -2.72415 1.45184 50 27 17
1.63092 -2.77790 1.45744 77 45 41
1.40566 -2.82396 1.52474 201 191 183
1.41628 -2.81358 1.51955 189 167 172
1.40006 -2.83208 1.54471 189 161 130
1.40384 -2.84035 1.52921 222 217 194
1.36132 -2.84642 1.54127 252 247 239
1.34573 -2.85900 1.53170 254 254 254
1.34389 -2.85197 1.54697 254 253 242
1.32833 -2.86453 1.53741 254 254 254
1.31828 -2.85170 1.55327 254 254 246
1.30279 -2.86420 1.54375 254 254 254
1.26590 -2.88534 1.57454 249 248 239
1.27143 -2.87732 1.55482 254 254 254
1.25370 -2.89434 1.57978 215 207 186
1.25364 -2.91224 1.58419 153 134 115
1.23231 -2.91451 1.59005 126 113 103
1.22281 -2.92548 1.59510 127 117 112
1.21318 -2.93636 1.60016 132 123 114
1.20765 -2.94439 1.61989 145 134 119
1.20770 -2.95039 1.60497 137 130 120
1.20216 -2.95843 1.62472 147 135 122
1.19720 -2.96065 1.61009 142 133 125
1.25398 -3.21504 1.65838 137 124 119
1.23732 -3.22119 1.66403 92 88 103
1.23704 -3.24092 1.66894 111 107 116
1.23154 -3.25641 1.67411 134 127 127
1.22570 -3.26489 1.69495 145 132 123
1.22046 -3.26723 1.67952 142 132 126
1.57546 -5.39685 2.11367 138 147 172
1.52632 -5.40254 2.12728 132 154 183
1.50472 -5.40914 2.13427 122 145 171
1.50709 -5.44832 2.14329 111 129 158
1.49411 -5.46676 2.15104 100 107 146
1.48309 -5.48796 2.15898 90 88 131
1.46032 -5.50633 2.14500 79 81 99
1.46251 -5.49592 2.16605 84 86 119
1.43977 -5.51427 2.15209 79 88 104
0.47745 -4.43287 2.15017 66 70 63
0.48371 -4.42379 2.12786 24 37 42
0.46831 -4.44858 2.15630 134 134 129
0.45082 -4.46269 2.14556 146 132 126
0.15267 -4.18623 2.17042 148 134 122
0.16868 -4.17332 2.18024 146 136 120
0.16354 -4.17562 2.16511 150 136 123
0.15840 -4.17792 2.14998 153 138 130
0.13612 -4.18764 2.17487 158 153 170
0.12884 -4.20404 2.18071 164 169 194
2.93974 -1.96467 0.91420 78 77 93
2.95150 -1.95319 0.90846 59 63 89
2.94594 -1.95568 0.89210 65 66 88
2.92799 -1.97615 0.91994 107 107 117
2.89053 -1.99465 0.93384 108 114 127
2.89671 -1.98568 0.91179 121 129 140
2.87327 -2.00858 0.92324 104 103 114
2.89068 -2.02524 0.94122 106 109 123
2.90822 -2.06190 0.94571 126 133 145
2.91907 -2.08111 0.94764 144 152 163
2.90151 -2.09528 0.93686 141 146 163
2.90780 -2.10870 0.95716 144 151 167
2.90215 -2.11123 0.94052 144 152 164
2.89019 -2.12290 0.94635 141 145 165
2.89733 -2.12089 0.96275 154 159 183
2.94244 -2.20077 0.97079 195 207 220
2.93669 -2.20335 0.95383 181 195 209
2.92451 -2.21524 0.95978 196 202 217
1.76930 -2.32120 1.29481 177 175 157
1.77477 -2.31327 1.27532 254 254 251
1.76039 -2.33204 1.29968 59 35 42
1.74505 -2.35502 1.30911 47 46 46
1.74014 -2.35722 1.29465 49 54 48
1.73819 -2.36695 1.31373 40 38 39
1.73118 -2.37883 1.31837 44 38 31
1.71586 -2.39119 1.30897 31 25 30
1.72254 -2.38989 1.32323 34 24 33
1.71705 -2.39785 1.34280 25 24 23
1.71213 -2.40006 1.32831 26 20 25
1.70721 -2.40226 1.31382 28 19 26
1.51920 -2.61249 1.42832 42 24 17
1.51369 -2.62048 1.44797 35 29 25
1.54099 -2.64226 1.43006 55 28 16
1.55755 -2.68602 1.43651 78 60 32
1.54698 -2.69646 1.44170 115 97 62
1.46134 -2.66001 1.45438 154 126 80
1.37626 -2.80960 1.51205 254 253 240
1.36072 -2.82214 1.50251 254 254 254
1.35498 -2.81255 1.51811 254 254 244
1.33949 -2.82505 1.50860 254 254 254
1.33923 -2.81921 1.52368 254 254 251
1.32376 -2.83169 1.51419 254 254 254
1.25774 -2.88524 1.56018 254 253 247
1.24301 -2.89237 1.56561 233 227 209
1.22930 -2.90021 1.57095 168 152 135
1.21613 -2.90841 1.57625 116 95 95
1.20789 -2.92026 1.58120 110 98 105
1.20232 -2.93415 1.58597 116 106 110
1.19802 -2.94905 1.59066 124 117 116
1.20257 -2.97076 1.59478 132 126 120
1.19702 -2.97882 1.61460 147 134 121
1.21135 -2.99588 1.59867 140 130 120
1.20577 -3.00398 1.61859 150 134 123
1.20075 -3.00623 1.60384 146 132 124
1.19574 -3.00847 1.58909 139 128 120
1.25829 -3.20535 1.63768 147 136 124
1.27456 -3.19222 1.64767 145 135 119
1.26934 -3.19456 1.63229 143 133 120
1.26411 -3.19690 1.61691 143 132 120
1.24713 -3.21605 1.64308 132 114 115
1.23663 -3.22729 1.64844 63 55 84
1.23429 -3.24534 1.65341 72 78 96
1.23025 -3.26207 1.65848 114 114 118
1.22172 -3.27508 1.66378 135 129 125
1.21586 -3.28358 1.68467 145 132 124
1.21061 -3.28593 1.66921 142 133 123
1.57161 -5.44053 2.10108 109 125 154
1.56139 -5.46288 2.10907 101 117 145
1.54335 -5.51114 2.12530 86 94 111
1.50924 -5.50092 2.13140 80 77 97
1.48636 -5.51938 2.11735 78 78 85
1.47909 -5.49582 2.13774 77 71 97
1.45630 -5.51420 2.12375 76 81 88
0.47082 -4.43384 2.13354 70 73 62
0.47707 -4.42477 2.11124 27 35 39
0.46463 -4.45404 2.13999 134 134 131
0.44712 -4.46816 2.12925 145 132 129
0.13405 -4.16677 2.15340 152 138 134
0.13974 -4.15851 2.13308 154 139 133
0.12813 -4.18527 2.15937 164 164 174
0.12105 -4.20199 2.16520 168 170 194
0.11480 -4.22016 2.17118 160 168 184
0.10907 -4.22847 2.19162 161 168 180
0.11177 -4.24381 2.17768 160 167 183
0.10603 -4.25215 2.19818 160 163 179
0.09571 -4.25677 2.16782 157 149 155
0.10725 -4.26515 2.18399 162 163 182
0.10149 -4.27351 2.20455 157 159 178
0.09632 -4.27582 2.18933 158 162 181
-0.41001 -3.68582 2.17346 171 163 160
-0.40525 -3.67892 2.15651 157 143 124
2.92106 -1.96306 0.90019 94 95 106
2.92724 -1.95409 0.87814 76 77 97
2.91551 -1.96554 0.88386 101 103 115
2.89598 -1.97030 0.90829 115 118 130
2.87876 -1.98420 0.89772 118 125 135
2.87881 -1.99514 0.91861 114 121 131
2.87839 -2.02554 0.92600 102 105 110
2.87283 -2.02803 0.90963 100 102 107
2.86107 -2.03951 0.91537 102 110 122
2.87923 -2.04118 0.92954 108 116 124
2.87448 -2.05504 0.93407 113 120 137
2.85709 -2.06907 0.92340 114 120 142
2.88931 -2.07553 0.93522 125 130 151
1.76186 -2.32214 1.28073 232 230 207
1.76732 -2.31422 1.26125 254 254 254
1.75696 -2.32434 1.26630 252 249 236
1.74019 -2.32664 1.28731 86 76 84
1.75149 -2.34756 1.28945 47 41 49
1.73619 -2.35991 1.28006 47 54 59
1.73625 -2.37066 1.29886 41 40 42
1.73259 -2.38427 1.30306 34 35 33
1.71724 -2.39665 1.29364 31 25 28
1.58895 -2.54415 1.37788 30 26 24
1.60435 -2.53173 1.38733 36 31 28
1.59941 -2.53395 1.37278 34 27 22
1.59390 -2.54194 1.39243 36 30 30
1.58344 -2.55215 1.39754 37 30 36
1.56922 -2.54900 1.38405 29 25 26
1.56372 -2.55698 1.40366 39 29 28
1.55879 -2.55919 1.38914 31 24 17
1.51785 -2.55148 1.39770 38 22 15
1.52274 -2.54929 1.41210 41 28 24
1.51240 -2.55940 1.41715 36 26 22
1.52161 -2.56992 1.40116 46 20 11
1.51189 -2.58045 1.40616 54 24 18
1.50227 -2.59105 1.41114 70 42 34
1.51769 -2.61677 1.41339 100 81 61
1.50184 -2.67378 1.43109 193 175 132
1.49498 -2.68637 1.43585 199 171 132
1.50816 -2.72873 1.44266 191 157 143
1.49248 -2.74137 1.43304 252 248 234
1.25727 -2.87289 1.54095 252 254 254
1.26773 -2.86268 1.53585 254 254 254
1.24582 -2.88240 1.54614 249 253 251
1.23611 -2.89316 1.55119 236 237 224
1.20865 -2.89084 1.55760 184 170 155
1.20897 -2.90898 1.56187 113 87 89
1.19359 -2.92138 1.55243 101 83 81
1.20045 -2.92061 1.56683 101 87 90
1.19624 -2.93552 1.57147 104 94 101
1.19196 -2.95044 1.57613 112 101 106
1.19516 -2.97114 1.58029 121 115 110
1.21224 -3.00266 1.58351 131 124 115
1.25473 -3.20905 1.62220 144 132 122
1.26055 -3.20059 1.60142 143 131 117
1.24950 -3.21139 1.60682 142 129 119
1.24380 -3.21994 1.62759 138 120 114
1.23412 -3.23188 1.63291 73 68 75
1.22036 -3.24041 1.63845 55 60 65
1.22001 -3.26022 1.64329 92 93 99
1.21698 -3.27787 1.64829 122 117 115
1.20671 -3.28944 1.65368 137 130 122
1.20086 -3.29794 1.67457 144 133 121
1.19560 -3.30029 1.65910 142 133 122
0.89140 -4.14857 1.93977 118 113 108
0.90921 -4.13421 1.95070 121 105 87
0.90349 -4.13677 1.93387 121 105 88
0.89777 -4.13932 1.91704 122 104 90
0.88503 -4.15781 1.96250 132 147 155
0.87932 -4.16037 1.94567 139 154 172
1.57156 -5.41767 2.07132 93 106 132
1.54872 -5.43609 2.05731 87 98 116
1.56437 -5.44397 2.07946 89 102 125
1.56499 -5.48098 2.08817 86 98 117
1.53894 -5.51852 2.10379 83 88 99
1.51389 -5.52076 2.11069 80 80 88
1.49093 -5.53928 2.09660 73 76 82
0.47131 -4.44558 2.11769 74 73 60
0.47758 -4.43649 2.09534 26 33 38
0.46228 -4.46155 2.12382 136 133 132
0.44475 -4.47569 2.11306 143 131 125
0.12992 -4.17065 2.13848 154 144 142
0.13562 -4.16238 2.11815 154 140 134
0.12481 -4.17294 2.12343 152 143 138
0.12078 -4.18393 2.14399 166 164 169
0.11433 -4.20168 2.14988 161 152 165
0.11026 -4.22345 2.15614 148 147 156
0.09425 -4.23637 2.14631 150 139 123
0.10615 -4.24533 2.16243 154 153 161
0.09009 -4.25829 2.15257 156 135 118
-0.41349 -3.68916 2.16105 158 146 138
-0.40874 -3.68226 2.14409 153 144 122
-0.41776 -3.69107 2.14849 156 142 125
-0.42678 -3.69988 2.15290 159 143 138
-0.42858 -3.68673 2.16430 169 162 161
2.88334 -1.97053 0.89330 114 120 132
2.88950 -1.96160 0.87134 101 106 117
2.86614 -1.98441 0.88274 113 121 133
2.86606 -2.01052 0.90722 111 112 113
2.87223 -2.00155 0.88518 116 124 137
2.86051 -2.01300 0.89090 114 120 125
2.84879 -2.02444 0.89662 102 105 114
2.85300 -2.05223 0.92046 109 117 132
2.84743 -2.05473 0.90407 104 116 129
2.85952 -2.08545 0.92665 124 129 151
2.86357 -2.10247 0.92965 136 141 155
2.85169 -2.11407 0.93545 134 141 150
2.87834 -2.15503 0.93832 141 149 166
2.89033 -2.14331 0.93246 131 139 152
2.88401 -2.15249 0.95502 153 167 185
2.86634 -2.16674 0.94417 136 146 166
1.76795 -2.34509 1.26840 163 154 151
1.77344 -2.33712 1.24881 254 254 250
1.75155 -2.35225 1.27431 57 39 53
1.73691 -2.37571 1.28362 46 47 43
1.73164 -2.38852 1.28802 36 32 33
1.63390 -2.51004 1.34191 29 26 20
1.64933 -2.49759 1.35138 33 27 21
1.64437 -2.49980 1.33679 33 26 25
1.63942 -2.50202 1.32221 27 18 28
1.63885 -2.50782 1.35649 31 28 21
1.62837 -2.51805 1.36161 30 28 21
1.62371 -2.52043 1.34699 26 24 15
1.61818 -2.52844 1.36669 33 26 22
1.61323 -2.53066 1.35210 28 22 16
1.60188 -2.54039 1.35732 32 19 9
1.56280 -2.55035 1.36971 48 18 11
1.54581 -2.55670 1.37558 60 24 26
1.53406 -2.56607 1.38082 74 64 56
1.52366 -2.57623 1.38589 123 96 47
1.53976 -2.60220 1.38792 163 137 92
1.52947 -2.61254 1.39301 185 166 109
1.51586 -2.62087 1.39848 193 179 134
1.50808 -2.64940 1.40724 200 170 122
1.49441 -2.67449 1.41669 185 164 176
1.47665 -2.68023 1.42261 199 185 186
1.46109 -2.70421 1.43229 243 235 221
1.44559 -2.71672 1.42278 254 254 254
1.24733 -2.81867 1.51429 250 254 254
1.26258 -2.80637 1.52365 254 254 254
1.25768 -2.80856 1.50924 253 254 254
1.25222 -2.81648 1.52871 254 254 254
1.24187 -2.82659 1.53376 254 254 254
1.24678 -2.85338 1.52266 244 246 251
1.23914 -2.86557 1.52751 236 239 248
1.23157 -2.87783 1.53236 222 229 237
1.21635 -2.88449 1.53785 207 214 210
1.20438 -2.89352 1.54306 171 162 156
1.20505 -2.91194 1.54725 113 90 95
1.19169 -2.93804 1.55687 102 91 92
1.18674 -2.94025 1.54229 99 91 86
1.17627 -2.95047 1.54740 101 91 89
1.18829 -2.95364 1.56144 105 93 96
1.19432 -2.97654 1.56532 112 103 103
1.21035 -3.00732 1.56850 122 113 110
1.22890 -3.04036 1.57157 130 120 114
1.21818 -3.05082 1.57680 135 126 116
1.26851 -3.10936 1.57776 139 129 119
1.27366 -3.10706 1.59294 147 134 126
1.26276 -3.11771 1.59826 147 134 130
1.25760 -3.12001 1.58308 141 132 123
1.24305 -3.22599 1.61193 145 129 111
1.24889 -3.21752 1.59112 142 129 117
1.22983 -3.23500 1.61746 89 84 67
1.21354 -3.24814 1.60746 45 34 32
1.22268 -3.24908 1.62264 52 43 38
1.21412 -3.26201 1.62790 85 82 91
1.21284 -3.28117 1.63277 112 105 107
1.20366 -3.29367 1.63809 130 121 116
1.19331 -3.30520 1.64348 140 130 121
1.18745 -3.31370 1.66439 145 133 124
1.18219 -3.31606 1.64890 144 132 125
1.17693 -3.31841 1.63342 141 131 124
0.87530 -4.13846 1.92261 117 109 109
0.88165 -4.12925 1.89996 122 104 91
0.86960 -4.14101 1.90584 116 107 105
1.56332 -5.49201 2.06682 86 97 110
1.57156 -5.48006 2.03743 84 96 109
1.54961 -5.50990 2.07457 84 91 103
1.53339 -5.52435 2.08216 80 81 94
1.51362 -5.53389 2.08950 76 75 85
1.49062 -5.55244 2.07538 68 72 75
0.46725 -4.45046 2.10131 74 74 55
0.47351 -4.44137 2.07895 24 31 42
0.45988 -4.46901 2.10759 136 132 129
0.44234 -4.48317 2.09682 142 130 125
0.13590 -4.21931 2.13157 152 144 138
0.14165 -4.21097 2.11106 153 144 140
0.13074 -4.22162 2.11638 155 143 133
0.12937 -4.23718 2.13749 145 132 127
0.11327 -4.25017 2.12760 153 139 115
0.12155 -4.25302 2.14325 140 129 109
0.10543 -4.26603 2.13335 152 137 118
-0.47730 -3.65623 2.15552 177 175 164
-0.48197 -3.66301 2.17218 184 176 169
-0.48616 -3.66488 2.15985 183 178 169
-0.49035 -3.66676 2.14752 177 176 173
2.82509 -2.03191 0.90452 96 104 119
2.81889 -2.06055 0.91284 110 119 135
2.80161 -2.07450 0.90223 112 122 128
2.83121 -2.08021 0.91425 115 122 140
2.83772 -2.09802 0.91673 124 128 145
2.82030 -2.11208 0.90603 121 127 139
2.84701 -2.11690 0.91874 128 134 146
2.82951 -2.13102 0.90800 120 125 135
2.86008 -2.13724 0.92012 121 128 139
2.84249 -2.15143 0.90932 112 116 128
2.86401 -2.15451 0.92314 119 126 142
2.84637 -2.16874 0.91231 101 109 135
2.86622 -2.17126 0.92649 122 130 154
2.85989 -2.18045 0.94908 162 167 180
2.86680 -2.18752 0.93015 134 137 159
2.86045 -2.19673 0.95279 189 200 211
2.85476 -2.19927 0.93603 173 182 196
1.76424 -2.34790 1.25372 218 215 204
1.76973 -2.33993 1.23413 254 254 254
1.75931 -2.35010 1.23922 250 245 232
1.75190 -2.35710 1.25908 77 64 87
1.74739 -2.37027 1.26334 46 44 53
1.73203 -2.38266 1.25391 49 56 48
1.73829 -2.38113 1.26824 49 49 47
1.73122 -2.39305 1.27287 40 36 36
1.72231 -2.40404 1.27775 33 25 35
1.71680 -2.41203 1.29740 28 21 27
1.71186 -2.41424 1.28285 27 22 30
1.70692 -2.41645 1.26831 25 25 25
1.62927 -2.51244 1.32728 27 15 10
1.61911 -2.52284 1.33235 36 9 5
1.58778 -2.53738 1.34388 66 51 34
1.58295 -2.55082 1.34829 107 88 42
1.54027 -2.54234 1.35737 154 128 58
1.60099 -2.59404 1.35373 183 159 111
1.56599 -2.58998 1.36186 202 184 137
1.53717 -2.60582 1.37305 204 170 122
1.52227 -2.61340 1.37869 196 160 138
1.51091 -2.62309 1.38390 183 166 175
1.49836 -2.63204 1.38926 195 187 187
1.47106 -2.63189 1.39630 218 214 206
1.45572 -2.64427 1.38689 251 253 252
1.44128 -2.63006 1.40360 242 237 225
1.42602 -2.64237 1.39423 253 254 254
1.42508 -2.63653 1.40932 252 249 236
1.40985 -2.64882 1.39996 254 254 254
1.42070 -2.65038 1.41370 254 253 240
1.40544 -2.66269 1.40433 254 254 254
1.41734 -2.66494 1.41798 254 254 247
1.40205 -2.67727 1.40859 254 254 254
1.26727 -2.76897 1.48128 251 254 254
1.28245 -2.75672 1.49059 254 254 254
1.27757 -2.75890 1.47625 253 254 254
1.27214 -2.76679 1.49562 254 254 254
1.26184 -2.77685 1.50065 254 254 254
1.25913 -2.78054 1.48610 248 252 253
1.25369 -2.78842 1.50549 254 254 254
1.25090 -2.80942 1.49500 240 242 247
1.24273 -2.85622 1.50808 204 211 230
1.23203 -2.86619 1.51319 195 197 223
1.21668 -2.87856 1.50378 162 170 189
1.22181 -2.87651 1.51826 179 180 206
1.20643 -2.88303 1.52378 167 170 184
1.20232 -2.89785 1.52832 151 150 155
1.20099 -2.91481 1.53263 118 104 106
1.19368 -2.92737 1.53747 101 84 79
1.17827 -2.93980 1.52802 98 91 87
1.19541 -2.98343 1.55016 105 93 97
1.20098 -2.97535 1.53030 100 91 87
1.19041 -2.98566 1.53545 102 92 92
1.21778 -3.01920 1.55273 113 101 103
1.23772 -3.05344 1.55558 121 111 107
1.22187 -3.06622 1.54586 119 109 106
1.25441 -3.08547 1.55875 127 119 111
1.27143 -3.11805 1.56197 132 124 113
1.28267 -3.14635 1.56569 136 129 117
1.27687 -3.15477 1.58637 145 134 124
1.28440 -3.16728 1.57014 139 131 124
1.27858 -3.17573 1.59090 148 134 126
1.28398 -3.18663 1.57478 143 131 128
1.27814 -3.19509 1.59560 145 131 120
1.27290 -3.19744 1.58019 141 129 118
1.24451 -3.23388 1.59609 147 131 112
1.25036 -3.22540 1.57524 143 129 115
1.23259 -3.24401 1.60155 109 96 76
1.21598 -3.27037 1.61204 86 87 89
1.20961 -3.28525 1.61718 115 108 105
1.19324 -3.29847 1.60712 129 119 109
1.19858 -3.29618 1.62260 127 116 110
1.18220 -3.30940 1.61255 132 120 114
1.18811 -3.30760 1.62799 135 124 117
1.55306 -5.49142 2.04489 81 93 103
1.54505 -5.51708 2.05298 78 85 96
1.53338 -5.53784 2.06087 75 76 88
1.52696 -5.56597 2.06912 72 71 77
0.46588 -4.45947 2.08517 76 78 59
0.47216 -4.45036 2.06277 21 29 46
0.45786 -4.47708 2.09137 136 134 127
0.44029 -4.49125 2.08059 143 130 123
0.13358 -4.25498 2.12346 154 141 125
0.13936 -4.24658 2.10282 151 141 131
0.12839 -4.25730 2.10818 152 142 128
0.11741 -4.26802 2.11354 155 141 125
-0.46333 -3.66693 2.14055 155 143 137
-0.45863 -3.66012 2.12380 152 141 120
-0.46754 -3.66882 2.12815 155 140 125
-0.47644 -3.67752 2.13250 154 142 142
-0.49006 -3.64191 2.14162 165 160 165
2.80462 -2.01419 0.88748 112 116 118
2.81625 -2.00283 0.88180 118 124 131
2.81075 -2.00530 0.86561 119 123 132
2.80519 -2.02961 0.89090 100 104 110
2.78802 -2.04346 0.88036 103 107 116
2.80533 -2.04495 0.89442 101 108 117
2.79801 -2.05785 0.89932 108 118 126
2.81399 -2.09427 0.90356 115 123 132
2.80841 -2.09676 0.88715 115 124 128
2.79662 -2.10828 0.89290 118 124 134
2.86006 -2.18969 0.91358 106 119 151
2.92597 -2.22979 0.90558 149 157 180
2.91952 -2.23914 0.92857 186 191 210
2.91374 -2.24172 0.91155 171 178 201
2.90796 -2.24431 0.89453 160 171 184
2.89527 -2.36837 0.94571 221 224 231
2.91356 -2.35362 0.95693 221 224 233
2.90769 -2.35624 0.93965 216 220 229
2.90182 -2.35887 0.92236 210 214 228
2.90114 -2.36574 0.96299 225 229 235
2.88873 -2.37786 0.96905 227 230 238
2.90563 -2.38951 0.94789 224 228 236
2.89906 -2.39905 0.97134 230 233 240
2.89316 -2.40169 0.95398 230 233 242
1.76621 -2.36901 1.24179 144 133 135
1.77172 -2.36100 1.22211 254 252 247
1.75071 -2.37667 1.24762 54 38 31
1.73275 -2.39860 1.25741 47 44 39
1.72323 -2.40930 1.26238 33 29 39
1.65275 -2.48232 1.29776 29 5 6
1.66817 -2.46988 1.30722 16 18 14
1.65827 -2.47431 1.27807 77 60 44
1.65770 -2.48010 1.31233 19 23 19
1.64780 -2.48453 1.28318 130 90 25
1.64723 -2.49033 1.31744 24 24 22
1.64177 -2.49226 1.30293 39 8 6
1.63462 -2.50433 1.30760 51 23 19
1.62379 -2.51436 1.31276 90 71 39
1.69150 -2.58526 1.31143 176 149 94
1.61592 -2.59140 1.33266 203 182 133
1.57133 -2.59829 1.34594 176 152 141
1.55668 -2.60612 1.35160 165 143 134
1.53001 -2.60672 1.35873 201 193 173
1.49551 -2.60246 1.36678 235 229 218
1.47383 -2.60577 1.37323 242 243 234
1.45855 -2.61811 1.36385 226 227 232
1.45882 -2.61307 1.37885 243 248 239
1.44402 -2.62045 1.38444 247 250 248
1.28923 -2.73820 1.45227 249 252 253
1.30439 -2.72596 1.46157 254 254 254
1.29953 -2.72814 1.44724 251 254 254
1.29410 -2.73602 1.46660 254 254 254
1.28381 -2.74607 1.47162 254 254 254
1.28127 -2.74984 1.45705 248 249 251
1.27858 -2.76513 1.46129 241 244 250
1.26889 -2.77565 1.46627 229 237 244
1.25789 -2.78526 1.47138 217 228 238
1.25823 -2.80282 1.47535 211 215 232
1.26007 -2.82155 1.47921 202 203 221
1.24476 -2.83390 1.46981 165 175 190
1.25565 -2.83596 1.48370 184 186 204
1.24032 -2.84832 1.47429 167 177 188
1.24552 -2.84632 1.48875 169 173 194
1.23019 -2.85868 1.47934 170 178 187
1.22614 -2.86769 1.49878 160 169 193
1.21080 -2.88007 1.48937 168 176 186
1.20491 -2.88773 1.50899 168 174 183
1.19998 -2.88994 1.49449 170 177 185
1.20038 -2.90227 1.51354 163 164 159
1.20265 -2.92197 1.51750 131 121 109
1.19172 -2.93184 1.52265 102 87 78
1.17630 -2.94427 1.51319 100 90 87
1.20649 -3.01662 1.53840 107 96 97
1.21210 -3.00848 1.51839 102 93 90
1.20146 -3.01887 1.52359 104 94 92
1.19081 -3.02926 1.52878 108 98 95
1.24058 -3.06192 1.53996 113 103 100
1.27340 -3.12601 1.54619 124 116 110
1.28313 -3.15319 1.54993 127 121 110
1.27953 -3.16990 1.55475 124 116 110
1.28016 -3.19012 1.55926 117 109 108
1.27534 -3.20602 1.56421 130 121 122
1.26949 -3.21451 1.58507 141 128 116
1.26424 -3.21686 1.56962 137 124 116
1.24446 -3.24054 1.58029 147 130 116
1.25031 -3.23204 1.55941 141 129 114
1.23920 -3.24289 1.56483 145 130 123
1.23156 -3.24989 1.58583 131 112 97
1.22283 -3.26272 1.59109 44 33 49
1.21799 -3.27888 1.59610 85 90 88
1.54583 -5.45857 2.01474 80 93 104
1.56138 -5.44338 2.00715 82 95 108
1.55403 -5.44668 1.98550 78 92 103
1.54158 -5.48915 2.02293 77 88 98
1.52887 -5.50834 2.03071 73 79 91
1.52183 -5.53543 2.03882 69 69 84
1.51846 -5.56779 2.04720 66 66 77
1.50212 -5.58222 2.05482 62 68 75
1.49385 -5.59422 2.08433 65 76 85
1.48642 -5.59754 2.06248 58 71 78
1.47900 -5.60087 2.04063 45 58 63
0.46972 -4.47647 2.06945 76 77 69
0.47603 -4.46733 2.04697 20 31 51
0.45635 -4.48596 2.07515 136 136 126
0.43875 -4.50016 2.06435 143 130 127
-0.51808 -3.62362 2.13094 165 160 159
-0.51348 -3.61694 2.11451 155 141 131
-0.52269 -3.63031 2.14736 185 178 178
-0.53060 -3.62486 2.13450 177 175 174
-0.53520 -3.63153 2.15090 187 177 172
-0.53932 -3.63337 2.13876 184 179 171
2.77090 -2.00733 0.87663 126 129 126
2.75386 -2.02107 0.86617 142 143 138
2.77169 -2.02274 0.87995 118 120 117
2.77298 -2.05370 0.88668 103 112 121
2.76747 -2.05617 0.87046 102 108 110
2.77682 -2.07039 0.88948 110 122 124
2.75960 -2.08427 0.87892 115 122 130
2.82058 -2.14818 0.89569 115 119 125
2.83248 -2.13656 0.88988 120 125 134
2.82685 -2.13908 0.87331 121 124 135
2.84646 -2.17333 0.89459 91 99 118
2.82879 -2.18758 0.88375 72 77 89
2.84697 -2.18956 0.89816 83 93 125
2.86519 -2.21232 0.89855 127 133 155
2.84738 -2.22669 0.88761 149 159 172
2.90316 -2.37641 0.92602 215 219 229
2.88482 -2.39120 0.91477 215 221 231
2.91368 -2.39769 0.92810 220 224 233
2.89527 -2.41255 0.91680 222 226 234
1.76164 -2.37141 1.22716 208 202 192
1.76716 -2.36341 1.20748 254 254 253
1.75669 -2.37363 1.21259 246 241 226
1.74876 -2.38040 1.23263 68 48 80
1.73985 -2.39141 1.23751 46 51 53
1.72874 -2.40130 1.24271 46 50 47
1.72030 -2.41256 1.24752 29 34 43
1.70741 -2.42151 1.25298 23 25 26
1.70189 -2.42951 1.27265 24 23 14
1.69746 -2.43200 1.25801 26 15 6
1.69195 -2.44000 1.27769 19 20 21
1.68562 -2.44148 1.26332 28 8 8
1.68011 -2.44948 1.28298 19 18 26
1.67496 -2.45159 1.26845 37 8 11
1.66945 -2.45958 1.28812 17 15 20
1.65956 -2.46401 1.25900 185 160 109
1.69343 -2.52581 1.28054 164 138 68
1.67778 -2.53843 1.27094 183 166 136
1.61993 -2.59890 1.31672 163 141 135
1.60428 -2.61152 1.30711 168 147 130
1.55430 -2.60990 1.33661 162 145 137
1.50926 -2.59946 1.34615 218 224 215
1.47793 -2.59700 1.35389 239 241 242
1.46109 -2.60320 1.35976 229 229 233
1.42444 -2.61357 1.37184 230 232 235
1.40925 -2.62582 1.36252 227 229 230
1.40611 -2.61865 1.37786 240 244 242
1.39141 -2.62592 1.38341 247 250 250
1.38113 -2.63596 1.38843 252 252 253
1.30461 -2.70315 1.42406 249 250 253
1.29920 -2.71100 1.44336 253 254 254
1.29667 -2.71473 1.42881 244 246 251
1.28543 -2.75819 1.44173 213 219 231
1.28397 -2.77439 1.44582 202 204 225
1.27913 -2.78832 1.45029 184 186 210
1.26386 -2.80064 1.44091 164 175 186
1.26879 -2.79847 1.45535 168 173 197
1.25351 -2.81079 1.44597 168 177 186
1.25772 -2.80810 1.46048 161 171 195
1.24245 -2.82042 1.45111 171 179 187
1.24934 -2.81963 1.46534 163 173 193
1.23406 -2.83196 1.45596 170 180 187
1.20208 -2.90942 1.49839 168 170 168
1.20759 -2.90143 1.47874 169 178 184
1.20435 -2.92916 1.50230 141 136 122
1.19523 -2.94044 1.50730 105 94 83
1.17977 -2.95291 1.49781 100 89 80
1.26645 -3.10761 1.52667 113 102 101
1.27220 -3.09927 1.50615 106 95 91
1.26129 -3.10992 1.51148 109 97 96
1.27573 -3.13429 1.53032 116 106 104
1.27903 -3.15641 1.53450 116 107 98
1.28649 -3.18204 1.53839 94 87 85
1.27525 -3.19273 1.54381 69 66 81
1.27475 -3.21217 1.54839 103 104 118
1.26729 -3.22603 1.55353 131 120 115
1.23513 -3.25963 1.56974 140 124 114
1.24100 -3.25112 1.54881 143 130 127
1.22271 -3.26941 1.57526 53 40 75
1.21509 -3.28325 1.58044 79 78 83
1.20402 -3.29418 1.58588 125 125 112
1.19141 -3.30378 1.59141 136 126 114
1.18028 -3.31465 1.59684 134 121 115
1.54862 -5.47562 1.99355 75 89 97
1.53647 -5.49555 2.00133 71 82 92
1.52852 -5.52132 2.00933 66 73 84
1.51400 -5.53814 2.01702 60 64 73
1.50980 -5.56938 2.02528 56 58 67
1.48668 -5.58803 2.01109 33 40 47
1.50219 -5.59608 2.03339 50 57 65
1.47903 -5.61476 2.01918 27 32 45
0.47376 -4.49384 2.05364 76 78 73
0.48008 -4.48467 2.03108 18 31 53
0.46015 -4.50307 2.05935 136 136 128
0.44249 -4.51731 2.04851 142 131 121
0.19327 -4.28781 2.08079 147 139 142
0.20969 -4.27457 2.09087 152 141 134
0.20441 -4.27693 2.07535 153 139 135
0.19854 -4.28545 2.09631 152 142 138
0.18739 -4.29634 2.10175 151 143 135
0.17708 -4.29045 2.08568 145 138 132
0.16138 -4.29376 2.09060 148 141 128
0.15028 -4.30461 2.09602 152 142 130
-0.53081 -3.60899 2.11728 158 142 138
-0.52623 -3.60234 2.10093 151 142 125
-0.53492 -3.61083 2.10518 155 142 129
-0.54232 -3.61204 2.12102 167 159 144
2.86260 -1.96575 0.82458 94 91 105
2.87976 -1.95190 0.83512 90 91 97
2.87425 -1.95437 0.81889 93 87 102
2.86874 -1.95683 0.80267 96 88 108
2.85708 -1.96822 0.80836 90 89 105
2.85094 -1.97713 0.83027 105 113 125
2.75272 -1.99051 0.85957 118 122 132
2.76967 -1.97684 0.86998 114 119 129
2.76423 -1.97927 0.85396 112 117 128
2.75878 -1.98171 0.83793 109 118 131
2.74727 -1.99295 0.84355 119 125 134
2.73348 -1.99920 0.86668 132 135 137
2.71656 -2.01285 0.85629 154 154 156
2.74594 -2.03360 0.87112 124 125 121
2.75727 -2.06804 0.87587 106 116 123
2.75176 -2.07051 0.85965 106 110 123
2.74010 -2.08189 0.86534 114 122 131
2.83870 -2.17512 0.87828 99 106 108
2.84577 -2.20988 0.88424 102 103 121
2.82801 -2.22421 0.87334 137 145 160
2.90112 -2.36353 0.90415 202 208 227
2.91942 -2.34876 0.91539 200 207 219
2.91355 -2.35139 0.89809 191 199 212
2.90546 -2.38228 0.90723 209 215 230
1.74638 -2.38393 1.21768 116 106 124
1.75190 -2.37592 1.19800 249 245 242
1.74143 -2.38614 1.20311 166 169 158
1.74073 -2.39663 1.22206 56 27 33
1.72530 -2.40908 1.21258 101 78 19
1.72728 -2.40532 1.22762 50 29 24
1.71450 -2.41434 1.23308 43 17 20
1.69909 -2.42677 1.22362 181 157 118
1.70172 -2.42334 1.23853 46 13 26
1.68632 -2.43577 1.22907 201 188 137
1.70362 -2.44010 1.24181 58 50 58
1.68816 -2.45257 1.23232 206 192 143
1.69729 -2.45257 1.24632 113 86 46
1.68946 -2.46426 1.25106 156 128 71
1.68321 -2.49286 1.25919 204 187 126
1.67822 -2.49510 1.24450 180 156 145
1.66767 -2.50540 1.24965 163 145 137
1.65398 -2.49288 1.26701 205 191 125
1.63852 -2.50536 1.25752 153 132 130
1.67339 -2.58524 1.28269 161 140 133
1.67903 -2.57706 1.26258 165 142 129
1.66833 -2.58751 1.26780 166 145 130
1.65764 -2.59795 1.27302 167 148 128
1.55195 -2.61370 1.32161 156 140 139
1.55750 -2.60564 1.30179 167 145 133
1.51030 -2.60526 1.33084 213 209 215
1.46729 -2.59573 1.34019 249 247 248
1.45204 -2.60804 1.33083 253 254 254
1.44780 -2.60027 1.34643 254 252 247
1.43258 -2.61254 1.33709 254 254 253
1.43201 -2.60700 1.35218 249 251 244
1.41332 -2.61188 1.35828 234 236 234
1.38056 -2.62434 1.36986 231 232 234
1.36925 -2.63368 1.37500 240 241 243
1.36384 -2.64153 1.39428 254 254 254
1.35815 -2.64316 1.38011 248 250 251
1.35275 -2.65100 1.39939 254 254 254
1.34397 -2.65065 1.38559 250 252 253
1.33857 -2.65848 1.40485 254 254 254
1.32150 -2.66936 1.39583 245 249 252
1.31288 -2.68042 1.40064 235 244 249
1.30981 -2.69516 1.40479 223 237 244
1.30609 -2.70954 1.40903 217 225 239
1.29844 -2.72135 1.41375 208 207 233
1.30541 -2.74306 1.41679 185 185 212
1.29018 -2.75534 1.40744 161 170 185
1.30135 -2.75742 1.42112 167 174 197
1.28609 -2.76973 1.41176 163 171 182
1.29337 -2.76917 1.42591 160 171 191
1.27811 -2.78149 1.41654 162 170 178
1.20622 -2.91841 1.48294 168 176 178
1.21174 -2.91040 1.46324 168 178 187
1.20701 -2.93711 1.48696 149 150 144
1.20028 -2.95024 1.49172 111 101 94
1.29154 -3.15331 1.51319 111 99 92
1.29736 -3.14486 1.49243 107 97 95
1.28631 -3.15564 1.49782 106 95 89
1.29098 -3.17249 1.51767 108 94 86
1.28013 -3.18348 1.52306 80 73 77
1.27699 -3.20074 1.52780 37 39 71
1.26873 -3.21390 1.53298 74 80 87
1.26394 -3.22995 1.53789 118 113 113
1.25416 -3.24194 1.54322 134 126 114
1.23222 -3.26396 1.55406 146 131 120
1.22579 -3.27882 1.55914 71 63 79
1.21349 -3.28873 1.56467 72 65 69
1.19222 -3.31138 1.57548 142 133 125
1.18492 -3.32562 1.58065 140 126 121
1.17903 -3.33416 1.60164 136 124 121
1.17375 -3.33652 1.58610 138 124 121
1.16848 -3.33888 1.57055 141 128 120
1.57166 -5.44743 1.95659 74 89 102
1.59462 -5.42891 1.97068 82 91 107
1.58725 -5.43221 1.94898 77 89 103
1.57903 -5.44413 1.97829 80 92 108
1.55630 -5.46296 1.96421 71 88 96
1.53933 -5.47631 1.97177 66 83 86
1.52871 -5.49834 1.97958 60 74 76
1.50793 -5.50644 1.98697 53 61 67
1.49563 -5.52621 1.99473 46 52 58
1.50208 -5.57229 2.00342 41 47 50
1.47897 -5.59094 1.98923 16 18 29
0.47406 -4.50556 2.03741 74 80 70
0.48040 -4.49636 2.01480 20 30 52
0.47062 -4.53059 2.04399 135 136 126
0.45285 -4.54492 2.03308 141 130 113
0.20529 -4.28923 2.06043 156 141 132
0.22175 -4.27595 2.07054 150 138 131
0.21646 -4.27831 2.05498 150 140 126
0.21118 -4.28068 2.03942 150 139 123
0.19108 -4.29520 2.06558 129 117 130
0.17376 -4.29599 2.07040 122 112 112
0.15283 -4.31995 2.08141 147 140 139
0.14696 -4.32847 2.10236 154 142 131
0.14169 -4.33083 2.08685 155 142 139
0.13642 -4.33319 2.07134 151 140 134
-0.55154 -3.60395 2.10807 154 143 133
-0.54698 -3.59733 2.09180 151 145 126
-0.55563 -3.60578 2.09602 154 141 131
-0.57058 -3.61743 2.11621 176 175 170
-0.57514 -3.62404 2.13246 186 181 171
-0.57922 -3.62587 2.12043 184 181 172
2.72060 -1.99915 0.85214 134 137 143
2.72664 -1.99038 0.83057 120 126 138
2.71517 -2.00158 0.83617 137 141 146
2.69767 -2.02157 0.86334 151 149 143
2.73217 -2.04847 0.86002 121 119 119
2.85460 -2.20155 0.86110 91 89 100
2.86096 -2.19232 0.83841 133 135 144
2.84253 -2.21333 0.86699 90 86 111
2.82476 -2.22767 0.85608 116 123 135
2.93428 -2.38148 0.87972 192 197 216
2.93102 -2.39737 0.88415 201 206 221
2.94170 -2.41889 0.88607 211 215 227
2.95309 -2.44085 0.88789 219 223 234
2.95167 -2.45778 0.89205 226 229 239
2.95304 -2.47592 0.89573 236 239 243
2.94634 -2.48565 0.91965 242 245 248
2.94032 -2.48834 0.90194 244 247 249
1.73663 -2.39929 1.20734 74 18 11
1.74216 -2.39127 1.18763 168 163 169
1.73168 -2.40150 1.19274 83 56 34
1.72120 -2.41174 1.19786 174 176 114
1.71511 -2.41946 1.21765 149 131 68
1.71016 -2.42168 1.20307 208 194 134
1.69968 -2.43191 1.20818 197 181 165
1.69357 -2.47139 1.23506 204 185 142
1.69913 -2.46334 1.21526 171 150 149
1.68859 -2.47362 1.22040 161 139 142
1.67806 -2.48391 1.22554 158 140 146
1.54036 -2.61197 1.30784 159 138 140
1.54590 -2.60393 1.28806 169 148 132
1.51800 -2.61510 1.31458 205 194 201
1.46474 -2.59935 1.32546 242 244 246
1.40356 -2.61102 1.34459 253 252 249
1.38231 -2.61420 1.35105 239 246 242
1.36581 -2.62027 1.35686 222 226 229
1.34442 -2.62317 1.36329 214 223 231
1.34412 -2.63946 1.36700 213 229 235
1.33255 -2.64858 1.37217 214 231 240
1.31864 -2.65617 1.37762 214 223 241
1.31795 -2.67237 1.38142 206 206 236
1.32018 -2.69058 1.38488 185 181 210
1.30504 -2.70279 1.37559 160 168 175
1.31370 -2.70313 1.38943 166 171 194
1.29855 -2.71536 1.38013 163 168 177
1.30048 -2.72817 1.39859 157 170 191
1.28530 -2.74042 1.38927 162 171 179
1.29710 -2.74293 1.40280 157 169 188
1.21158 -2.92835 1.46729 169 178 184
1.21712 -2.92031 1.44753 169 178 190
1.20457 -2.94124 1.47206 155 157 154
1.20384 -2.95895 1.47621 119 110 104
1.19923 -2.97379 1.48077 101 88 80
1.19366 -2.98187 1.50064 100 93 88
1.18866 -2.98411 1.48593 99 93 87
1.18366 -2.98635 1.47121 101 93 87
1.28665 -3.17556 1.50217 103 92 81
1.29249 -3.16708 1.48134 104 93 89
1.28141 -3.17790 1.48675 101 91 82
1.27940 -3.18947 1.50723 94 84 73
1.27528 -3.20597 1.51203 48 46 57
1.26674 -3.21893 1.51723 60 59 69
1.25948 -3.23297 1.52233 104 98 107
1.25101 -3.24606 1.52754 126 115 107
1.24444 -3.26076 1.53259 139 128 123
1.23764 -3.27532 1.53768 146 133 121
1.22716 -3.28681 1.54308 93 82 71
1.20599 -3.28918 1.54933 68 56 45
1.21048 -3.31351 1.55354 114 116 108
1.19403 -3.31988 1.55941 144 137 136
1.17757 -3.33316 1.54931 143 133 124
1.17985 -3.32816 1.56509 145 133 124
1.16340 -3.34143 1.55500 142 130 122
1.56668 -5.45394 1.93496 61 77 85
1.54419 -5.45985 1.94235 55 69 80
1.51891 -5.46183 1.94962 48 61 68
1.52446 -5.50593 1.95797 39 50 55
1.52198 -5.53935 1.96610 34 37 45
1.51453 -5.56611 1.97408 27 28 39
1.51159 -5.59935 1.98229 21 23 34
1.48837 -5.61808 1.96804 8 10 13
0.48644 -4.53594 2.02200 73 82 68
0.49282 -4.52668 1.99924 22 29 50
0.47969 -4.55607 2.02832 134 137 124
0.46183 -4.57048 2.01735 142 130 114
0.20002 -4.29162 2.04488 158 145 135
0.20591 -4.28307 2.02386 150 140 126
0.17935 -4.28701 2.04944 111 94 101
0.16062 -4.28538 2.05413 93 67 54
0.15076 -4.29827 2.05967 82 74 61
0.14276 -4.31429 2.06541 132 130 125
-0.57472 -3.59378 2.09850 155 141 137
-0.57019 -3.58720 2.08233 152 144 120
-0.57879 -3.59560 2.08653 155 141 128
-0.58355 -3.60171 2.10266 164 156 155
2.69974 -2.01146 0.84256 151 156 160
2.70579 -2.00269 0.82100 132 140 145
2.68286 -2.02508 0.83219 140 148 161
2.68828 -2.02265 0.84815 155 158 160
2.67139 -2.03628 0.83779 126 135 146
2.70256 -2.04266 0.84866 133 136 139
2.72031 -2.06402 0.84853 110 112 127
2.70872 -2.07535 0.85419 114 118 131
2.70323 -2.07780 0.83805 109 112 133
2.84943 -2.22052 0.84777 82 86 109
2.83162 -2.23489 0.83684 85 93 101
2.92714 -2.36654 0.85874 175 177 199
2.93373 -2.35699 0.83526 166 169 187
2.93413 -2.38640 0.86121 182 187 206
2.93519 -2.40403 0.86481 192 197 210
2.94448 -2.42506 0.86691 202 208 219
2.95440 -2.44648 0.86892 213 218 233
2.95940 -2.46605 0.87187 223 228 236
2.96115 -2.48441 0.87544 235 238 244
2.96357 -2.50314 0.87891 244 248 249
2.95683 -2.51293 0.90296 252 252 253
2.95078 -2.51564 0.88515 250 252 252
1.51949 -2.60466 1.29543 163 141 132
1.52501 -2.59665 1.27574 171 149 132
1.51453 -2.60687 1.28085 167 145 133
1.48733 -2.60177 1.30357 181 167 171
1.45533 -2.59879 1.31165 231 239 241
1.42737 -2.59810 1.31913 249 252 253
1.40807 -2.60260 1.32539 246 252 253
1.38878 -2.60702 1.33163 237 249 253
1.36574 -2.60901 1.33836 230 247 246
1.35332 -2.61760 1.34364 213 217 222
1.37607 -2.64854 1.34425 181 175 196
1.35770 -2.65343 1.35034 150 146 171
1.34255 -2.66564 1.34105 137 138 150
1.34910 -2.66455 1.35514 135 142 174
1.33584 -2.67266 1.36055 136 154 185
1.32804 -2.68432 1.36524 145 159 184
1.31930 -2.69538 1.37007 155 163 174
1.30415 -2.70761 1.36076 161 172 176
1.28497 -2.75731 1.39308 163 171 183
1.28009 -2.75950 1.37869 174 183 189
1.26975 -2.76960 1.38374 172 183 194
1.21743 -2.93869 1.45149 171 180 188
1.22299 -2.93062 1.43167 169 178 188
1.21245 -2.94092 1.43681 170 179 185
1.20918 -2.95071 1.45639 161 167 167
1.20570 -2.96639 1.46080 129 125 121
1.19921 -2.97984 1.46553 101 90 83
1.18362 -2.99242 1.45597 101 93 90
1.27878 -3.19556 1.49136 95 86 71
1.28463 -3.18707 1.47048 103 92 82
1.27189 -3.20985 1.49639 58 49 47
1.26078 -3.22070 1.50181 43 39 57
1.25551 -3.23640 1.50671 91 93 97
1.24433 -3.24724 1.51215 118 103 97
1.23959 -3.26348 1.51702 129 123 121
1.23546 -3.28031 1.52186 140 129 123
1.23214 -3.29792 1.52665 112 94 83
1.20265 -3.29320 1.53366 88 70 55
1.20153 -3.33335 1.54281 137 129 128
1.18502 -3.34668 1.53267 137 127 123
1.54963 -5.48052 1.92101 32 29 43
1.53994 -5.54072 1.93692 19 17 36
1.51680 -5.55939 1.92271 7 7 11
1.52876 -5.56234 1.94474 16 15 26
1.50559 -5.58104 1.93051 7 7 9
1.50890 -5.57195 1.95227 13 14 18
1.48575 -5.59062 1.93806 7 8 12
1.51624 -5.61971 1.96080 9 11 16
1.49294 -5.63850 1.94650 9 11 12
0.49647 -4.56284 2.00621 69 73 65
0.50289 -4.55353 1.98332 23 27 47
0.48767 -4.57997 2.01239 133 135 121
0.46971 -4.59445 2.00137 143 130 120
0.19638 -4.29666 2.02946 155 144 129
0.20227 -4.28810 2.00843 149 141 129
0.16892 -4.28092 2.03349 112 99 90
0.15327 -4.28427 2.03850 96 75 49
0.14219 -4.29510 2.04391 82 77 62
0.13144 -4.30648 2.04935 126 125 116
0.11817 -4.31364 2.05455 148 141 135
0.11234 -4.32211 2.07538 155 143 128
0.10710 -4.32446 2.05996 153 142 140
0.10186 -4.32680 2.04453 149 139 137
-0.59435 -3.59019 2.08959 153 140 137
-0.58984 -3.58364 2.07349 152 144 119
-0.59840 -3.59201 2.07767 155 143 128
-0.61161 -3.60664 2.09792 176 175 169
-0.61612 -3.61319 2.11402 186 179 166
-0.62017 -3.61500 2.10210 184 180 171
2.86196 -1.99340 0.77593 104 112 124
2.85642 -1.99588 0.75961 105 112 124
2.84470 -2.00732 0.76533 106 115 128
2.69109 -2.01280 0.82725 141 152 157
2.69713 -2.00403 0.80570 122 128 135
2.67421 -2.02641 0.81689 123 131 144
2.71474 -2.06645 0.83240 110 116 130
2.70926 -2.06890 0.81626 106 112 128
2.92953 -2.37243 0.83978 169 172 192
2.93612 -2.36286 0.81626 163 166 182
2.92361 -2.37507 0.82236 165 168 185
2.93405 -2.39136 0.84265 175 180 195
2.93156 -2.40761 0.84688 183 190 199
2.94120 -2.42881 0.84883 192 200 210
2.95742 -2.45280 0.84958 203 211 222
2.97150 -2.47613 0.85077 217 222 232
2.96707 -2.49202 0.85545 229 233 237
2.96820 -2.51028 0.85911 239 241 246
1.48906 -2.60801 1.28812 170 153 152
1.49456 -2.60004 1.26850 171 148 131
1.47665 -2.61699 1.29350 212 219 220
1.43468 -2.60777 1.30306 223 220 241
1.44448 -2.63034 1.30527 209 204 235
1.42917 -2.64269 1.29587 172 180 197
1.42173 -2.63278 1.31207 187 182 209
1.40648 -2.64509 1.30270 178 185 192
1.40204 -2.63703 1.31842 170 173 198
1.38682 -2.64931 1.30908 180 184 190
1.38653 -2.64384 1.32418 164 171 193
1.35463 -2.65675 1.33578 145 144 154
1.33101 -2.67486 1.34623 140 145 163
1.32504 -2.68772 1.35068 153 164 172
1.31444 -2.69756 1.35574 165 175 175
1.29632 -2.71930 1.36547 157 166 173
1.29040 -2.73231 1.36993 167 177 183
1.27521 -2.74456 1.36061 172 182 190
1.28416 -2.74514 1.37444 174 182 187
1.26896 -2.75741 1.36511 172 182 191
1.21768 -2.96316 1.44021 167 173 171
1.22327 -2.95506 1.42029 168 179 187
1.21303 -2.97803 1.44473 142 139 134
1.19980 -2.98638 1.45019 104 95 92
1.18419 -2.99897 1.44061 101 93 87
1.28457 -3.20688 1.47481 98 88 70
1.27818 -3.22164 1.47978 71 60 47
1.25916 -3.22605 1.48598 30 21 51
1.25776 -3.24498 1.49049 85 90 90
1.24391 -3.25364 1.49619 112 101 98
1.23670 -3.26784 1.50127 119 112 114
1.23225 -3.28443 1.50611 134 124 119
1.21221 -3.32889 1.52130 133 114 104
1.20215 -3.34088 1.52669 133 120 115
1.53698 -5.44036 1.89125 19 13 33
1.54517 -5.42848 1.86203 11 10 13
1.52963 -5.44365 1.86961 10 8 15
1.51409 -5.45882 1.87720 9 10 13
1.54386 -5.48603 1.89929 15 12 24
1.52084 -5.50461 1.88516 9 10 12
1.54604 -5.52570 1.90732 11 11 19
1.52291 -5.54436 1.89312 10 10 15
0.49985 -4.57957 1.98983 69 74 62
0.48682 -4.59022 1.99574 135 134 122
0.46884 -4.60473 1.98470 143 129 115
0.18665 -4.29179 2.01354 153 143 127
0.19253 -4.28325 1.99255 149 141 133
0.15687 -4.27210 2.01747 122 108 90
0.14251 -4.27747 2.02259 95 84 58
0.12854 -4.28343 2.02774 98 97 85
0.11843 -4.29579 2.03322 123 123 107
0.10579 -4.30389 2.03846 141 135 133
-0.61077 -3.59273 2.08124 158 143 133
-0.60627 -3.58620 2.06518 150 147 121
-0.61481 -3.59454 2.06935 155 144 127
-0.61852 -3.60267 2.08554 162 156 145
-0.63035 -3.60433 2.08916 176 173 169
-0.63485 -3.61085 2.10520 188 179 172
-0.63888 -3.61266 2.09332 187 179 174
2.72573 -2.02875 0.80305 126 135 141
2.70872 -2.04248 0.79261 108 116 129
2.71821 -2.08742 0.81775 102 104 129
2.71207 -2.09632 0.83964 122 133 143
2.72717 -2.10607 0.81926 112 117 139
2.72101 -2.11501 0.84124 134 145 149
2.71548 -2.11748 0.82497 132 141 154
2.70995 -2.11996 0.80869 114 123 141
2.95518 -2.40472 0.81994 167 172 187
2.96183 -2.39507 0.79622 162 166 181
2.94922 -2.40739 0.80238 163 167 181
2.95116 -2.42046 0.82444 174 180 194
2.94998 -2.43741 0.82841 183 190 204
2.95309 -2.45617 0.83158 192 202 211
2.97260 -2.48175 0.83164 204 214 222
2.98158 -2.50320 0.83375 217 224 234
2.97033 -2.51640 0.83972 232 234 238
2.97714 -2.53717 0.84229 238 242 246
2.63545 -2.82284 0.99877 252 253 252
2.65431 -2.80763 1.01035 254 254 254
2.64826 -2.81034 0.99252 254 254 254
2.64151 -2.82013 1.01660 254 254 254
2.58976 -2.81853 1.01056 195 202 211
2.58306 -2.82826 1.03448 149 138 165
2.57705 -2.83095 1.01677 139 126 109
2.57103 -2.83364 0.99907 112 112 108
1.48790 -2.61251 1.27304 163 147 136
1.49341 -2.60453 1.25340 173 151 140
1.47006 -2.61818 1.27922 176 175 175
1.45117 -2.62314 1.28555 170 176 198
1.43586 -2.63549 1.27615 181 186 196
1.44062 -2.63320 1.29064 169 176 202
1.42531 -2.64555 1.28124 179 185 196
1.35773 -2.66406 1.32035 168 174 178
1.34677 -2.67371 1.32547 150 149 151
1.33154 -2.68055 1.33118 136 141 156
1.32798 -2.69503 1.33529 149 162 172
1.31130 -2.70088 1.34118 169 180 182
1.30510 -2.71367 1.34566 161 170 174
1.29251 -2.72219 1.35099 142 150 155
1.28778 -2.73602 1.35528 159 169 178
1.22410 -2.97407 1.42414 168 177 180
1.22970 -2.96594 1.40416 169 180 187
1.21036 -2.98206 1.42969 147 147 146
1.20397 -2.99569 1.43439 109 101 101
1.18832 -3.00832 1.42478 100 93 80
1.30334 -3.20878 1.45251 105 95 87
1.31981 -3.19550 1.46262 105 93 90
1.31452 -3.19786 1.44705 107 96 91
1.30924 -3.20023 1.43148 108 99 94
1.29806 -3.21115 1.43694 107 98 93
1.29098 -3.21873 1.45809 100 92 78
1.27625 -3.22674 1.46391 86 69 57
1.26077 -3.23408 1.46979 28 17 42
1.25314 -3.24790 1.47489 77 81 80
1.24565 -3.26188 1.47997 111 103 102
1.23682 -3.27476 1.48520 113 101 105
1.23096 -3.29019 1.49015 132 121 109
