ply
format ascii 1.0
element face 0
property list uchar int vertex_indices
element vertex 1348
property float x
property float y
property float z
property uchar diffuse_red
property uchar diffuse_green
property uchar diffuse_blue
end_header
0.72603 -3.63208 2.41482 32 33 41
0.73568 -3.67858 2.44770 54 66 82
0.72920 -3.69273 2.45484 79 94 110
0.71348 -3.70548 2.44721 85 96 110
0.30037 -4.07618 2.70302 96 110 125
0.31592 -4.06357 2.71057 96 110 123
0.30991 -4.06620 2.69690 97 109 124
0.30391 -4.06882 2.68323 96 110 121
0.29106 -4.08658 2.70924 72 91 105
0.28438 -4.10153 2.71676 28 30 46
0.26881 -4.11417 2.70920 17 21 28
0.27480 -4.11150 2.72287 17 17 27
0.25922 -4.12413 2.71531 19 25 26
0.19922 -4.05787 2.71733 16 21 26
0.20857 -4.04808 2.71134 17 18 23
0.20269 -4.05065 2.69795 20 24 36
0.19333 -4.06044 2.70394 21 26 36
0.15467 -4.03071 2.71588 19 30 45
-0.02207 -4.18317 2.81589 14 21 33
-0.03704 -4.19531 2.80862 16 16 29
-0.03050 -4.19436 2.82226 18 23 35
-0.04547 -4.20651 2.81498 15 18 30
-0.03796 -4.23655 2.84101 18 30 38
-0.05302 -4.24877 2.83370 15 17 26
1.66594 -2.11731 1.59811 49 38 36
1.65172 -2.12884 1.59121 42 45 44
1.65613 -2.13957 1.60924 41 39 37
1.64738 -2.14872 1.61485 34 28 30
1.66252 -4.23607 2.45474 94 79 52
1.66698 -4.22680 2.42984 95 80 60
1.66064 -4.25992 2.46479 56 44 51
1.64101 -4.27585 2.45525 42 37 35
0.71765 -3.64356 2.42129 33 34 50
0.72119 -3.63619 2.40148 28 30 34
0.73800 -3.69201 2.43643 57 68 86
0.72979 -3.70401 2.44306 80 94 109
0.71403 -3.71679 2.43541 85 96 106
0.29473 -4.07944 2.68952 89 103 114
0.28747 -4.09339 2.69674 42 52 72
0.27190 -4.10602 2.68917 13 18 34
0.27801 -4.10354 2.70290 17 14 33
0.26244 -4.11618 2.69534 18 25 25
1.66145 -2.14765 1.59661 41 42 36
1.65593 -2.15007 1.58405 40 44 39
1.65859 -2.15995 1.60218 34 29 33
1.65533 -2.16673 1.62039 33 25 29
1.64980 -2.16915 1.60781 32 22 34
1.64427 -2.17157 1.59523 30 23 35
1.66904 -4.25499 2.44070 95 77 46
1.67351 -4.24569 2.41570 94 78 61
1.66125 -4.27238 2.44940 53 40 51
1.64157 -4.28834 2.43984 44 40 35
0.71997 -3.65687 2.41005 36 37 49
0.72352 -3.64948 2.39018 32 29 41
0.73650 -3.70058 2.42395 61 71 84
0.72638 -3.71014 2.43002 81 95 104
0.71061 -3.72294 2.42236 84 95 105
0.29637 -4.06882 2.66885 95 109 111
0.31191 -4.05622 2.67640 95 108 124
0.30590 -4.05884 2.66274 95 107 122
0.28744 -4.07985 2.67525 60 78 79
0.27189 -4.09246 2.66770 17 15 42
0.28099 -4.09520 2.68283 23 22 43
0.26542 -4.10782 2.67527 20 23 31
0.07257 -4.06519 2.71677 15 18 25
0.08750 -4.05307 2.72403 9 9 15
0.08173 -4.05560 2.71090 10 11 17
0.06340 -4.07478 2.72264 27 26 31
0.05763 -4.07731 2.70952 19 25 26
-0.01780 -4.13562 2.76498 27 26 37
-0.02693 -4.14518 2.77083 17 20 29
-0.03268 -4.14769 2.75775 15 18 34
1.69325 -2.12819 1.56699 150 148 139
1.67826 -2.13419 1.57273 64 57 59
1.67859 -2.14814 1.57822 43 39 35
1.66424 -2.15978 1.57125 40 45 47
1.66448 -2.16842 1.58946 35 32 36
1.65012 -2.18007 1.58248 30 26 37
1.67155 -4.26955 2.42565 93 76 44
1.67603 -4.26022 2.40058 93 77 71
1.66662 -4.29023 2.43500 56 42 49
1.64687 -4.30625 2.42540 42 36 30
0.71884 -3.66581 2.39774 43 42 59
0.72853 -3.70082 2.40953 65 77 88
0.72139 -3.71424 2.41648 80 96 102
0.70561 -3.72704 2.40882 84 96 109
0.29725 -4.05695 2.64787 94 107 118
0.31277 -4.04436 2.65541 96 107 124
0.30678 -4.04698 2.64177 93 107 119
0.30078 -4.04960 2.62813 95 107 117
0.28895 -4.06902 2.65454 85 88 97
0.28200 -4.08346 2.66185 30 39 34
0.04209 -4.10194 2.72281 30 33 47
0.05704 -4.08980 2.73007 22 26 22
0.05127 -4.09233 2.71693 15 22 24
0.03631 -4.10446 2.70966 33 39 55
0.03290 -4.11154 2.72869 31 34 44
0.02695 -4.12753 2.73639 22 27 35
0.02116 -4.13006 2.72322 19 24 26
0.02354 -4.13462 2.75545 18 22 39
0.01775 -4.13715 2.74229 23 23 38
-0.01606 -4.12526 2.74510 26 25 43
-0.00694 -4.11572 2.73925 28 28 41
-0.01268 -4.11823 2.72619 33 28 38
-0.03092 -4.13732 2.73788 16 17 24
-0.03043 -4.12413 2.74786 19 20 33
-0.04526 -4.13615 2.74066 14 16 25
-0.06969 -4.15622 2.76942 19 21 26
-0.07305 -4.16323 2.78825 15 17 33
2.66686 -2.44869 1.45898 208 212 219
2.67775 -2.43730 1.45200 213 218 225
2.67090 -2.44029 1.43641 212 216 225
2.65597 -2.46008 1.46595 198 202 208
1.67554 -2.12433 1.55466 169 167 161
1.67863 -2.15348 1.56551 45 36 31
1.66426 -2.16514 1.55853 40 45 52
1.67297 -4.28296 2.41028 91 75 47
1.67747 -4.27361 2.38514 93 77 65
1.66036 -4.29511 2.41794 52 37 46
1.64061 -4.31114 2.40835 42 37 33
0.73191 -3.67058 2.38051 33 31 42
0.74761 -3.65784 2.38813 37 37 34
0.74155 -3.66049 2.37433 35 38 31
0.71615 -3.67278 2.38494 46 48 59
0.72450 -3.70615 2.39627 68 84 87
0.70872 -3.71895 2.38861 82 97 105
0.71482 -3.71628 2.40248 80 98 106
0.69904 -3.72908 2.39481 83 97 106
0.28768 -4.05346 2.63262 94 104 106
0.28168 -4.06946 2.64031 56 55 71
0.27120 -4.07777 2.64597 21 17 18
0.26261 -4.08936 2.65251 21 22 39
0.25368 -4.10038 2.65889 25 28 35
0.25015 -4.10773 2.67864 23 29 25
0.24415 -4.11035 2.66500 29 31 35
0.23815 -4.11298 2.65135 35 36 41
0.15239 -4.05258 2.66286 21 25 39
0.16753 -4.04030 2.67021 24 31 38
0.16168 -4.04285 2.65691 24 30 40
0.13613 -4.04951 2.66532 14 14 25
0.12104 -4.06174 2.65799 6 9 15
0.05679 -4.03517 2.67758 17 19 29
0.04195 -4.04720 2.67038 29 28 50
0.01877 -4.09761 2.71091 29 31 39
0.02216 -4.09056 2.69197 27 28 39
0.01301 -4.10013 2.69782 23 24 30
-0.02936 -4.11245 2.72767 23 23 34
-0.04417 -4.12446 2.72048 12 18 22
-0.07214 -4.13707 2.74710 34 34 37
-0.09851 -4.19614 2.77646 29 23 26
-0.10189 -4.20316 2.79533 14 20 24
-0.10762 -4.20566 2.78229 14 16 20
1.68093 -2.13239 1.54183 183 181 176
1.68626 -2.14896 1.54712 115 100 90
1.67877 -2.15890 1.55275 46 34 33
1.66438 -2.17058 1.54576 42 42 46
1.66947 -4.29092 2.39379 88 72 46
1.67397 -4.28156 2.36862 92 78 68
1.66183 -4.29426 2.37640 83 71 57
1.64969 -4.30696 2.38418 59 38 35
1.66049 -4.30719 2.40224 54 38 43
1.64070 -4.32325 2.39263 45 36 33
0.78589 -3.70473 2.36536 41 42 40
0.80184 -3.69180 2.37310 47 39 40
0.79568 -3.69449 2.35909 48 52 59
0.78952 -3.69719 2.34507 47 31 30
0.79205 -3.70204 2.37937 42 40 33
0.75974 -3.69409 2.36715 34 38 33
0.73025 -3.67890 2.36792 30 29 39
0.71135 -3.67704 2.37152 48 51 64
0.71954 -3.71029 2.38273 71 86 94
0.70375 -3.72309 2.37506 84 96 104
0.28858 -4.04164 2.61174 111 113 114
0.30406 -4.02909 2.61926 95 106 116
0.29808 -4.03170 2.60566 110 111 114
0.29210 -4.03432 2.59205 128 122 112
0.28113 -4.05511 2.61874 89 83 87
0.26751 -4.05795 2.62298 25 25 27
0.26071 -4.07257 2.63029 18 22 23
0.25211 -4.08411 2.63679 29 31 39
0.23662 -4.09667 2.62927 44 44 49
0.24289 -4.09455 2.64302 34 35 43
0.22740 -4.10712 2.63549 38 42 44
0.17384 -4.07809 2.65234 22 27 32
0.18911 -4.06570 2.65976 26 30 45
0.18321 -4.06828 2.64634 26 29 39
0.15642 -4.07318 2.65440 15 19 27
0.14122 -4.08552 2.64701 8 9 11
0.05030 -4.03624 2.66415 21 24 33
-0.00611 -4.08983 2.69815 24 25 35
-0.00274 -4.08282 2.67930 20 22 28
-0.01183 -4.09234 2.68512 27 28 32
-0.03178 -4.09375 2.70556 30 28 40
-0.04273 -4.09939 2.71029 16 22 30
-0.05748 -4.11135 2.70313 15 16 16
-0.07509 -4.14531 2.73577 78 90 96
-0.10306 -4.20119 2.76415 60 52 40
-0.11712 -4.19997 2.76689 20 19 21
-0.13192 -4.21198 2.75970 12 16 21
1.70761 -2.15153 1.52830 190 191 189
1.67636 -2.14912 1.53460 132 125 112
1.67914 -2.16445 1.53995 49 41 38
0.77730 -3.70434 2.35070 41 28 22
0.78092 -3.69680 2.33043 80 62 29
0.75827 -3.70273 2.35448 40 29 18
0.73189 -3.69149 2.35619 40 24 26
0.70380 -3.67776 2.35733 58 54 65
0.68814 -3.69047 2.34972 94 98 105
0.71192 -3.71097 2.36843 79 88 98
0.69615 -3.72377 2.36077 86 95 108
0.28012 -4.04003 2.59706 124 115 104
0.26274 -4.03636 2.59965 62 46 62
0.24733 -4.04886 2.59217 14 15 36
0.25711 -4.05289 2.60742 20 13 24
0.25096 -4.06861 2.61498 22 31 34
0.24415 -4.08323 2.62228 35 40 45
0.22867 -4.09579 2.61476 43 45 58
0.19098 -4.09556 2.63941 23 28 33
0.20634 -4.08309 2.64687 30 33 42
0.20041 -4.08569 2.63337 30 34 42
0.17272 -4.08936 2.64122 17 22 22
0.15742 -4.10177 2.63378 7 11 13
0.15937 -4.09192 2.64531 10 14 18
0.14409 -4.10430 2.63789 6 9 10
-0.04934 -4.10002 2.69681 14 18 22
-0.07136 -4.11081 2.70613 14 16 29
-0.08676 -4.13528 2.71926 113 128 148
-0.10809 -4.20522 2.75154 57 57 51
-0.12294 -4.21727 2.74433 9 12 17
3.25712 -1.93917 1.06774 235 238 242
3.25301 -1.94771 1.09070 232 236 242
3.24604 -1.95076 1.07484 237 239 245
3.23907 -1.95381 1.05898 243 245 247
1.73205 -2.16959 1.51463 196 198 198
1.73536 -2.16269 1.49608 199 202 212
1.67444 -2.15345 1.52186 145 142 133
1.67873 -2.16961 1.52713 61 53 54
1.67735 -2.18286 1.53260 45 37 38
1.67406 -2.18971 1.55100 42 40 43
1.66847 -2.19216 1.53828 42 42 43
1.66288 -2.19460 1.52557 40 44 47
0.79833 -3.74169 2.34378 97 81 40
0.73797 -3.68722 2.33678 105 93 57
0.73076 -3.70058 2.34366 114 100 72
0.71568 -3.70372 2.34841 108 101 91
0.39395 -3.93283 2.51276 116 116 115
0.39043 -3.94017 2.53248 93 103 117
0.38444 -3.94279 2.51886 121 119 121
0.28366 -4.03274 2.57740 133 125 106
0.29912 -4.02019 2.58491 129 120 116
0.29315 -4.02281 2.57132 136 123 112
0.27244 -4.03970 2.58273 113 98 82
0.25351 -4.03331 2.58468 28 16 29
0.24178 -4.06560 2.59997 23 32 38
0.23650 -4.08290 2.60792 34 44 54
0.21813 -4.10386 2.62037 36 41 47
0.20234 -4.10245 2.62352 25 32 40
0.18626 -4.10035 2.62647 17 23 28
0.17088 -4.11282 2.61901 7 12 16
0.16873 -4.09545 2.62868 12 17 18
0.15342 -4.10787 2.62124 7 9 12
0.04774 -4.11308 2.66388 30 19 34
0.05697 -4.10343 2.65797 22 15 25
0.05354 -4.11054 2.67710 21 16 28
0.04193 -4.11563 2.65066 38 31 42
0.04431 -4.12020 2.68301 32 25 29
0.03851 -4.12274 2.66979 27 16 29
-0.06874 -4.10234 2.68701 12 10 12
-0.06540 -4.09538 2.66831 14 14 21
-0.08262 -4.12996 2.70098 95 113 126
-0.09129 -4.14022 2.70700 137 153 174
-0.09980 -4.15081 2.71311 147 156 179
3.24406 -1.92512 1.04673 241 242 244
3.22607 -1.93971 1.03799 250 253 253
3.23284 -1.93661 1.05382 246 248 248
1.74736 -2.18299 1.50106 199 202 202
1.75070 -2.17605 1.48241 200 204 213
1.69357 -2.16886 1.50837 165 163 151
1.66524 -2.16786 1.51470 84 73 66
1.67734 -2.18829 1.51971 44 35 35
1.66286 -2.20004 1.51267 39 47 50
0.76774 -3.71323 2.32340 138 128 80
0.73925 -3.69939 2.32482 137 128 92
0.72004 -3.69726 2.32855 134 124 100
0.70758 -3.70377 2.33401 123 114 99
0.69181 -3.71655 2.32636 97 98 99
0.40913 -3.94384 2.49735 115 119 111
0.41268 -3.93647 2.47754 92 103 107
0.28818 -4.02712 2.55815 131 126 116
0.30365 -4.01457 2.56566 136 126 114
0.29767 -4.01719 2.55206 134 127 118
0.27712 -4.03438 2.56357 131 126 105
0.26281 -4.03601 2.56759 97 78 61
0.24608 -4.03333 2.57052 23 6 13
0.23071 -4.04580 2.56306 13 14 25
0.23943 -4.04806 2.57778 11 13 34
0.22404 -4.06054 2.57030 15 14 23
0.23175 -4.06104 2.58461 17 26 34
0.22596 -4.07744 2.59230 26 35 49
0.21939 -4.09251 2.59967 31 35 56
0.20977 -4.10220 2.60569 27 31 40
0.19661 -4.10546 2.61007 17 24 29
0.18118 -4.11798 2.60258 7 8 16
0.18688 -4.11489 2.61601 11 15 20
0.17145 -4.12740 2.60852 6 10 17
0.05885 -4.12089 2.64868 25 18 26
0.07394 -4.10864 2.65602 27 16 23
0.06811 -4.11119 2.64275 26 15 28
0.06228 -4.11374 2.62948 15 12 27
-0.08735 -4.13446 2.68858 131 148 169
-0.09613 -4.14451 2.69454 153 169 195
-0.10542 -4.15346 2.70019 152 162 182
3.23675 -1.91297 1.02519 237 240 244
3.24084 -1.90447 1.00235 230 234 242
3.22681 -1.95513 1.04372 243 249 249
3.22823 -1.97084 1.04939 231 236 242
3.21901 -1.98307 1.05629 220 225 236
2.71129 -2.51859 1.38316 214 219 226
2.71541 -2.51003 1.36015 211 217 225
2.70431 -2.52165 1.36726 215 222 229
1.75214 -2.19093 1.48776 200 205 205
1.75549 -2.18397 1.46906 198 204 214
1.67636 -2.17915 1.50143 107 99 84
1.68205 -2.19624 1.50661 41 37 36
1.66752 -2.20803 1.49955 41 46 46
1.67351 -2.21995 1.51774 38 39 36
1.67020 -2.22685 1.53627 30 25 32
1.66457 -2.22931 1.52347 31 29 30
0.73410 -3.70331 2.31115 125 111 100
0.73770 -3.69581 2.29099 122 107 95
0.72798 -3.70599 2.29722 122 104 95
0.71826 -3.71616 2.30345 121 102 96
0.71748 -3.70452 2.31559 124 107 100
0.70168 -3.71733 2.30792 111 101 97
0.70512 -3.71118 2.32111 115 104 96
0.68933 -3.72398 2.31344 93 98 100
0.40291 -3.94616 2.48359 116 115 106
0.40646 -3.93878 2.46377 97 104 104
0.39690 -3.94879 2.46990 117 115 102
0.38173 -3.96286 2.49507 140 135 123
0.33707 -4.01798 2.52689 138 132 118
0.35266 -4.00534 2.53446 139 130 117
0.34664 -4.00797 2.52076 141 132 120
0.34309 -4.01535 2.54059 137 129 116
0.33352 -4.02536 2.54671 136 127 117
0.32548 -4.02462 2.53221 132 130 117
0.32194 -4.03199 2.55202 137 125 118
0.30452 -4.01546 2.53373 128 127 112
0.28055 -4.02692 2.54387 108 103 108
0.27114 -4.03698 2.54998 101 97 89
0.25021 -4.02715 2.55123 79 58 49
0.24255 -4.04010 2.55804 23 9 15
0.22716 -4.05259 2.55056 17 19 25
0.22541 -4.08964 2.58112 18 18 25
0.21931 -4.10566 2.58871 18 20 27
0.21313 -4.12161 2.59630 14 16 21
0.20020 -4.12539 2.60086 10 12 18
0.06766 -4.15196 2.64282 26 20 32
0.06178 -4.15453 2.62946 25 20 40
0.05911 -4.16327 2.64921 29 25 32
0.04977 -4.17304 2.65519 23 20 24
-0.09292 -4.13723 2.67570 147 169 189
-0.10202 -4.14659 2.68147 157 171 192
-0.11156 -4.15500 2.68698 141 146 165
3.20953 -1.90950 1.01186 231 241 247
3.20019 -1.92151 1.01870 229 241 250
3.19579 -1.93514 1.02495 227 238 247
3.17367 -1.98853 1.05062 211 218 224
2.74421 -2.55830 1.37152 208 211 219
2.74837 -2.54964 1.34825 217 223 228
2.72591 -2.57314 1.36263 202 206 215
1.75123 -2.21015 1.48005 190 191 183
1.68768 -2.19060 1.48804 126 123 105
1.68610 -2.20388 1.49347 47 44 40
1.68399 -2.23119 1.50436 39 42 36
1.67834 -2.23366 1.49150 41 42 41
0.38086 -3.94846 2.47366 127 116 110
0.37486 -3.95108 2.46001 125 116 109
0.37123 -3.95828 2.47974 134 125 121
0.36137 -3.96773 2.48572 141 129 127
0.35784 -3.97508 2.50548 143 131 125
0.35184 -3.97771 2.49183 141 134 122
0.32130 -4.03031 2.51925 92 99 94
0.30572 -4.04296 2.51168 11 22 32
0.29278 -4.00837 2.51782 73 88 77
0.27733 -4.02091 2.51032 8 8 21
0.27360 -4.00183 2.51999 62 61 65
0.26016 -4.00488 2.52441 51 40 64
0.24766 -4.00945 2.52918 44 36 41
0.23232 -4.02189 2.52173 20 18 22
0.24159 -4.02509 2.53660 41 31 29
0.23781 -4.04481 2.54502 21 14 22
0.22939 -4.08314 2.56164 21 21 22
0.22286 -4.09836 2.56901 22 14 19
0.21528 -4.11178 2.57596 17 14 14
0.20654 -4.12315 2.58240 14 10 15
0.20086 -4.14010 2.59023 13 7 16
0.19867 -4.16356 2.59968 12 6 17
0.18910 -4.17358 2.60581 11 10 17
0.05575 -4.17079 2.63711 22 17 27
0.04051 -4.18315 2.62971 18 16 16
0.03910 -4.16610 2.63936 18 15 20
0.03565 -4.17329 2.65867 30 27 23
0.02392 -4.17841 2.63199 20 19 20
-0.07437 -4.10529 2.64377 23 27 41
-0.08418 -4.11314 2.64913 84 98 117
-0.09038 -4.12853 2.65649 141 158 183
-0.10817 -4.14810 2.66825 152 162 179
-0.11835 -4.15512 2.67339 103 101 121
3.19749 -1.89591 0.99114 229 237 243
3.21531 -1.88146 0.99979 226 230 238
3.20843 -1.88447 0.98413 229 233 238
3.20154 -1.88748 0.96846 232 237 241
3.15250 -1.89643 1.00237 198 206 233
3.11940 -1.90059 1.01207 181 184 223
3.13180 -1.91951 1.01617 182 191 213
3.14118 -1.93756 1.02068 184 191 212
3.14882 -1.95515 1.02545 185 192 210
3.13847 -1.96682 1.03240 188 196 216
3.14634 -1.98466 1.03721 193 202 217
2.76658 -2.57588 1.35369 211 216 222
2.77077 -2.56717 1.33028 216 222 230
1.74820 -2.21406 1.46696 196 199 197
1.75156 -2.20707 1.44817 201 205 215
1.71365 -2.20993 1.47388 141 141 131
1.68905 -2.21096 1.48030 61 54 59
1.69151 -2.22653 1.48558 46 38 45
1.67686 -2.23841 1.47846 41 44 48
0.36644 -3.96285 2.46652 129 118 115
0.36997 -3.95549 2.44675 120 116 105
0.35785 -3.97438 2.47298 133 122 119
0.35114 -3.98898 2.48015 128 124 116
0.34446 -4.00372 2.48735 107 107 104
0.28419 -3.98072 2.49346 29 32 48
0.26882 -3.99319 2.48599 7 13 23
0.25868 -4.01511 2.51270 10 7 22
0.26218 -4.00783 2.49313 13 11 22
0.24329 -4.02759 2.50523 30 24 28
0.24816 -4.02313 2.51831 16 13 16
0.23725 -4.05685 2.53373 25 25 15
0.23070 -4.09869 2.55114 32 36 24
0.22957 -4.12369 2.56086 38 36 38
0.23715 -4.16458 2.57444 43 42 41
0.22144 -4.17732 2.56681 65 62 67
0.22618 -4.17227 2.58003 43 37 42
0.20874 -4.16810 2.58274 38 27 35
0.20346 -4.18609 2.59083 31 22 33
0.19412 -4.19669 2.59712 25 19 19
0.19056 -4.20411 2.61707 11 12 14
0.18618 -4.20989 2.60406 20 15 15
0.18261 -4.21732 2.62402 12 14 14
0.17655 -4.21997 2.61023 21 14 16
0.17049 -4.22262 2.59644 38 31 30
0.09063 -4.16861 2.61192 33 30 38
0.07530 -4.18105 2.60447 35 36 45
-0.01622 -4.12590 2.62201 18 19 23
-0.01282 -4.11883 2.60301 27 26 33
-0.01962 -4.13297 2.64101 28 32 32
-0.02539 -4.13549 2.62788 20 22 26
-0.05590 -4.10134 2.62247 29 26 24
-0.05020 -4.09884 2.63545 30 32 37
-0.06161 -4.10383 2.60949 23 18 17
-0.06911 -4.10227 2.62607 18 19 29
-0.07942 -4.10910 2.63118 51 61 84
-0.08813 -4.11924 2.63714 119 137 161
-0.09495 -4.13339 2.64416 153 172 196
-0.10400 -4.14286 2.64996 158 172 193
-0.11512 -4.14789 2.65459 131 134 149
-0.10978 -4.18840 2.66857 61 58 64
3.16430 -1.89053 0.97885 210 219 228
3.10710 -1.90178 0.99727 161 171 200
3.12093 -1.92118 1.00111 194 196 207
3.13030 -1.93923 1.00556 202 208 217
3.13694 -1.95650 1.01038 186 192 200
3.13156 -1.96983 1.01672 165 175 202
3.07176 -1.96468 1.02963 156 165 190
3.08423 -1.98403 1.03379 180 193 214
3.07484 -1.99596 1.04059 197 207 224
3.07080 -2.00436 1.06319 208 213 224
3.06394 -2.00736 1.04758 204 211 226
2.76652 -2.58247 1.33707 214 219 226
2.77072 -2.57375 1.31362 215 221 230
2.75940 -2.58559 1.32087 218 222 229
1.74050 -2.21549 1.45407 201 204 207
1.74386 -2.20850 1.43530 201 206 216
1.72242 -2.22014 1.46030 162 161 156
1.69951 -2.22211 1.46673 83 71 73
1.69424 -2.23356 1.47233 47 35 42
1.67955 -2.24547 1.46520 40 44 53
1.68528 -2.25742 1.48350 36 33 37
0.36360 -3.97060 2.45400 126 119 105
0.36714 -3.96323 2.43420 103 111 106
0.35524 -3.98253 2.46055 115 107 104
0.34472 -3.99096 2.46632 79 79 80
0.29697 -3.96334 2.46781 15 17 25
0.28161 -3.97580 2.46035 11 11 20
0.26602 -3.96270 2.47525 5 10 30
0.25074 -3.97510 2.46783 15 17 18
0.24160 -4.05100 2.51443 44 42 35
0.24099 -4.07650 2.52415 65 64 32
0.24286 -4.10662 2.53497 66 57 27
0.23372 -4.17200 2.56176 54 57 56
0.21593 -4.19499 2.57480 66 63 65
0.20019 -4.20776 2.56716 55 59 63
0.20014 -4.22179 2.58877 51 47 41
0.18438 -4.23458 2.58111 65 66 64
0.18146 -4.21505 2.59088 44 39 35
0.14754 -4.20740 2.59643 26 28 37
0.13195 -4.22005 2.58885 44 46 57
0.12671 -4.19587 2.59727 24 32 40
0.11121 -4.20844 2.58974 41 40 62
-0.07491 -4.10454 2.61306 14 24 37
-0.08501 -4.11180 2.61829 50 86 115
-0.09227 -4.12499 2.62504 104 138 171
-0.10058 -4.13601 2.63123 129 154 184
-0.10992 -4.14487 2.63687 132 145 169
-0.12016 -4.15178 2.64200 90 87 100
-0.12652 -4.16706 2.64931 35 26 32
-0.14127 -4.17903 2.64215 10 14 23
3.14945 -1.87614 0.95880 230 234 239
3.16712 -1.86181 0.96738 229 234 240
3.16029 -1.86480 0.95186 230 233 241
3.15347 -1.86778 0.93633 229 234 243
3.10097 -1.87543 0.97071 188 196 216
3.08343 -1.88966 0.96219 170 175 189
3.10227 -1.89059 0.97603 168 170 187
3.10900 -1.92249 0.98621 222 227 232
3.10697 -1.93677 0.99204 234 243 231
3.13793 -1.96215 0.99372 196 204 191
3.04524 -1.94599 1.01097 136 147 182
3.08196 -1.97347 1.01198 108 121 156
3.04428 -1.97565 1.02225 133 149 171
3.05119 -1.99313 1.02702 170 187 210
3.04372 -2.00569 1.03358 194 205 221
3.03969 -2.01407 1.05611 206 211 223
3.03285 -2.01706 1.04054 202 210 223
3.03415 -2.03278 1.04607 202 210 222
3.04101 -2.02978 1.06167 206 212 223
3.03011 -2.04118 1.06865 205 212 222
3.04182 -2.05085 1.05087 201 210 218
3.03776 -2.05929 1.07355 207 212 220
3.04872 -2.06877 1.05581 204 210 218
3.04465 -2.07724 1.07857 208 213 221
3.05054 -2.08494 1.06137 204 211 218
3.04646 -2.09343 1.08419 209 213 221
3.04250 -2.09755 1.06809 205 211 219
3.03841 -2.10604 1.09092 209 213 222
3.03148 -2.10907 1.07515 206 212 221
1.73572 -2.21848 1.44105 202 207 210
1.73908 -2.21149 1.42227 203 207 216
1.72728 -2.22829 1.44683 181 180 169
1.69315 -2.22421 1.45387 105 94 81
1.69518 -2.23965 1.45911 45 35 38
1.68047 -2.25158 1.45196 41 42 51
1.68413 -2.26242 1.47036 38 36 42
1.68080 -2.27507 1.47591 32 25 31
1.66604 -2.28704 1.46874 26 24 24
0.36312 -3.98220 2.44227 108 110 94
0.35146 -3.98882 2.44766 70 71 65
0.33588 -4.00146 2.44009 16 9 16
0.33739 -3.99142 2.45216 27 26 29
0.32184 -4.00404 2.44461 13 9 17
0.30919 -3.97051 2.45145 12 13 27
0.29377 -3.98302 2.44396 9 11 17
0.25321 -4.00524 2.47844 22 18 22
0.24728 -4.00784 2.46493 64 54 30
0.22233 -4.08349 2.51532 109 93 74
0.23379 -4.15823 2.54028 66 46 50
0.22999 -4.17892 2.54894 52 38 41
0.22280 -4.19355 2.55619 56 38 48
0.21146 -4.20062 2.56167 56 48 69
0.15574 -4.23714 2.58925 52 53 53
0.14005 -4.24988 2.58163 61 62 60
-0.02836 -4.12973 2.59545 29 39 44
-0.02496 -4.12266 2.57646 27 33 31
-0.03412 -4.13225 2.58233 30 34 42
-0.04329 -4.14184 2.58820 29 37 52
-0.06444 -4.11225 2.59800 31 28 33
-0.07923 -4.12425 2.59081 37 40 41
-0.08027 -4.10770 2.60028 24 27 39
-0.09501 -4.11966 2.59312 30 33 49
-0.09075 -4.11417 2.60531 23 41 70
-0.10081 -4.12147 2.61056 45 65 116
-0.10903 -4.13264 2.61678 67 86 138
-0.11801 -4.14222 2.62260 70 76 126
-0.12682 -4.15217 2.62852 39 36 61
-0.14155 -4.16412 2.62137 15 16 19
3.13127 -1.87551 0.94482 222 227 233
3.08089 -1.87412 0.95709 187 183 201
3.06340 -1.88831 0.94860 174 179 184
3.06085 -1.89705 0.97065 162 176 204
3.12589 -1.97861 0.98430 100 109 128
3.09062 -1.98178 0.99442 84 98 125
3.08267 -1.99422 1.00104 96 113 124
3.01690 -1.98656 1.01490 127 146 162
3.01989 -2.00272 1.02011 165 177 204
3.01941 -2.01772 1.02578 186 201 212
3.04330 -2.05688 1.03420 174 188 206
3.04259 -2.07207 1.04000 181 192 203
3.02470 -2.08659 1.03131 159 169 188
3.04101 -2.08701 1.04592 183 196 209
3.02309 -2.10155 1.03721 158 152 198
3.03567 -2.10062 1.05231 185 196 215
3.01659 -2.10914 1.06030 197 206 218
3.01252 -2.11762 1.08309 208 214 222
3.00360 -2.11989 1.06757 204 212 222
2.99952 -2.12837 1.09035 210 214 220
2.99260 -2.13139 1.07461 208 213 220
1.72877 -2.22031 1.42814 203 207 212
1.73213 -2.21332 1.40937 204 209 216
1.72307 -2.22280 1.41517 204 208 213
1.72051 -2.23022 1.43390 192 192 182
1.67815 -2.22163 1.44148 125 118 106
1.69554 -2.24544 1.44587 47 41 47
1.68239 -2.26710 1.45721 40 37 44
1.67669 -2.26959 1.44425 41 39 45
1.67767 -2.27900 1.46281 31 27 33
1.66290 -2.29098 1.45564 24 25 25
0.35649 -3.98386 2.42835 64 76 76
0.36363 -4.02126 2.44037 26 28 27
0.34792 -4.03400 2.43274 12 10 10
0.26937 -3.96778 2.44451 17 18 16
0.24757 -3.95658 2.44591 38 26 19
0.24807 -3.98320 2.45562 52 36 23
0.20840 -4.04527 2.48863 106 103 101
0.20668 -4.06886 2.49779 111 104 103
0.20113 -4.08578 2.50546 111 103 91
0.19404 -4.12720 2.52257 104 95 80
0.20651 -4.17752 2.53801 88 78 72
0.20482 -4.20226 2.54759 72 57 70
0.17416 -4.22946 2.56542 58 43 41
0.15991 -4.23084 2.56955 56 54 57
0.15378 -4.24764 2.57732 57 60 48
0.13805 -4.26040 2.56968 54 32 32
-0.10501 -4.12709 2.59841 24 25 57
-0.10166 -4.12012 2.57967 37 36 44
-0.11070 -4.12958 2.58546 37 38 47
-0.11974 -4.13904 2.59125 36 41 51
-0.11398 -4.13672 2.60424 18 20 59
-0.12495 -4.14203 2.60899 15 15 48
-0.13453 -4.15028 2.61447 16 13 24
-0.16921 -4.22105 2.64943 19 19 19
-0.15442 -4.20904 2.65662 11 17 14
-0.16013 -4.21154 2.64362 13 17 13
3.09800 -1.87004 0.93302 207 210 216
3.10199 -1.86174 0.91071 220 226 234
3.09122 -1.87300 0.91761 203 198 217
3.06540 -1.87426 0.94293 204 202 184
3.04873 -1.89825 0.95601 169 177 202
3.14008 -1.97356 0.96022 93 107 157
3.08912 -1.97147 0.97253 78 86 108
3.07832 -1.98292 0.97950 67 70 92
3.08230 -1.99949 0.98456 98 108 107
3.03191 -1.99715 0.99663 102 120 117
2.95766 -1.98617 1.01164 111 135 147
2.97046 -2.00574 1.01554 122 146 183
2.93822 -2.00931 1.02512 118 109 177
2.96182 -2.03293 1.02774 127 128 160
3.02271 -2.07037 1.02586 152 162 178
2.98338 -2.10233 1.04768 168 172 188
2.98909 -2.12005 1.05272 185 198 216
2.98397 -2.13377 1.05907 201 210 223
2.97989 -2.14224 1.08185 211 212 220
2.97298 -2.14526 1.06611 209 213 221
1.71416 -2.23236 1.42097 201 201 196
1.71752 -2.22537 1.40219 204 210 215
1.67961 -2.22797 1.42822 140 137 134
1.69552 -2.25103 1.43260 58 51 61
1.69596 -2.26576 1.43789 44 37 41
1.68117 -2.27776 1.43071 40 42 46
1.68229 -2.28728 1.44930 31 29 35
1.66747 -2.29930 1.44211 26 24 28
1.22029 -3.07382 1.85652 99 76 55
1.23588 -3.06118 1.86409 92 79 63
1.22986 -3.06381 1.85039 91 74 50
1.22631 -3.07119 1.87022 96 80 63
1.21675 -3.08120 1.87635 97 80 67
1.20470 -3.08647 1.84895 134 114 77
1.20907 -3.08235 1.86253 104 78 61
1.20553 -3.08973 1.88235 96 81 69
1.19349 -3.09499 1.85496 144 122 87
0.40430 -4.02233 2.41400 86 100 112
0.42013 -4.00949 2.42169 86 99 116
0.41401 -4.01216 2.40777 87 98 114
0.40790 -4.01484 2.39386 88 98 110
0.38641 -4.01925 2.41745 78 90 95
0.37044 -4.01911 2.42150 27 34 42
0.35471 -4.03187 2.41386 8 10 9
0.35488 -4.01950 2.42563 13 11 17
0.33919 -4.03223 2.41801 8 10 9
0.28265 -3.97697 2.42855 9 10 16
0.29209 -3.96708 2.42250 10 9 11
0.25781 -3.96083 2.42899 44 47 27
0.24127 -3.95846 2.43236 96 83 64
0.23624 -3.97564 2.43996 119 100 79
0.21784 -4.02204 2.46171 126 119 102
0.20441 -4.02480 2.46617 120 117 110
0.18910 -4.03721 2.45874 130 115 109
0.19931 -4.04226 2.47389 118 118 119
0.19637 -4.06368 2.48251 124 119 118
0.18099 -4.07616 2.47504 135 122 118
0.19260 -4.08377 2.49085 127 118 105
0.17718 -4.09628 2.48336 137 126 121
0.19493 -4.11507 2.50174 124 110 97
0.18875 -4.13112 2.50922 120 104 96
0.18803 -4.15732 2.51902 113 97 91
0.18064 -4.17138 2.52608 111 98 85
0.17041 -4.18021 2.53194 115 101 80
0.16394 -4.22429 2.54978 97 78 57
0.15143 -4.22889 2.55468 75 52 55
0.15251 -4.25953 2.56565 56 38 36
-0.11425 -4.17988 2.60483 35 39 45
-0.11087 -4.17285 2.58595 31 32 39
-0.11998 -4.18239 2.59178 35 34 39
-0.12910 -4.19193 2.59762 40 35 38
-0.12458 -4.18677 2.61001 35 34 36
-0.17819 -4.21618 2.63456 27 27 28
3.04740 -1.88825 0.93453 174 173 197
3.04212 -1.90125 0.94063 193 191 221
3.00280 -1.91770 0.95682 150 154 196
3.07757 -1.97287 0.95754 77 85 100
3.06594 -1.98402 0.96462 52 49 64
3.03495 -1.98844 0.97427 82 101 103
3.00936 -1.99463 0.98316 76 84 99
2.99703 -2.00542 0.99028 61 65 94
2.96655 -2.00972 0.99976 52 61 116
2.90827 -2.00392 1.01275 90 85 125
2.97346 -2.04259 1.00994 149 152 164
3.02222 -2.07572 1.00937 177 186 192
3.00092 -2.09891 1.02335 194 198 208
2.96892 -2.10249 1.03295 162 167 163
2.94888 -2.11047 1.04105 147 154 163
2.96395 -2.13179 1.04491 177 193 216
2.95522 -2.14412 1.05167 202 210 222
2.95116 -2.15257 1.07439 210 215 221
2.94426 -2.15559 1.05869 208 214 220
1.71149 -2.26544 1.41835 81 68 67
1.70089 -2.27415 1.42428 44 35 35
1.68605 -2.28619 1.41707 38 44 48
1.22998 -3.07190 1.83709 109 94 37
1.24560 -3.05923 1.84467 92 77 60
1.23957 -3.06187 1.83095 92 76 51
1.21436 -3.08457 1.82950 164 150 109
1.21043 -3.07302 1.84256 122 107 61
1.19486 -3.08565 1.83500 161 149 109
0.41013 -4.04432 2.40402 86 98 109
0.41375 -4.03679 2.38378 88 98 107
0.41179 -4.07315 2.41410 62 74 86
0.38122 -4.04940 2.41337 23 15 17
0.36537 -4.06225 2.40567 7 6 8
0.29931 -3.99170 2.41358 7 8 12
0.30283 -3.98437 2.39389 6 7 11
0.29333 -3.99432 2.39997 4 9 20
0.27098 -3.96992 2.41299 26 29 19
0.23968 -3.94267 2.41117 95 93 64
0.22448 -3.95499 2.40379 134 131 125
0.24524 -3.97786 2.42256 138 128 113
0.22910 -3.97607 2.42609 144 140 136
0.21384 -3.98845 2.41868 129 127 126
0.19571 -4.02246 2.45165 129 117 112
0.19431 -4.15494 2.50029 143 130 119
0.19786 -4.14754 2.48042 152 142 131
0.18827 -4.15757 2.48656 151 140 130
0.17869 -4.16760 2.49270 149 139 135
0.18779 -4.19852 2.51786 144 128 109
0.16120 -4.20494 2.52710 137 120 96
0.14996 -4.21190 2.53255 134 112 97
0.14025 -4.22174 2.53865 128 109 89
0.12715 -4.25369 2.55369 103 85 51
0.12358 -4.26112 2.57365 55 40 47
-0.13242 -4.21419 2.60660 35 31 31
-0.15007 -4.20490 2.60779 23 26 22
-0.16490 -4.21693 2.60059 23 24 18
3.04235 -1.89175 0.91894 165 162 204
3.02489 -1.90591 0.91046 217 241 246
3.06534 -1.92898 0.92638 208 218 231
3.02224 -1.92944 0.93785 113 107 167
3.04932 -1.96855 0.94490 65 71 100
3.04966 -1.98377 0.95031 63 68 78
3.03195 -1.99814 0.94171 53 46 67
3.01652 -1.98739 0.96031 53 63 76
3.03138 -2.00774 0.96378 42 32 60
2.97208 -2.00197 0.97723 61 71 92
2.95453 -2.01621 0.96870 94 92 108
2.94790 -2.00845 0.98591 99 102 105
2.93380 -2.01848 0.99323 122 134 139
2.96056 -2.04336 0.99522 131 144 168
2.95697 -2.05733 1.00122 136 148 168
2.96411 -2.07532 1.00585 151 154 175
2.97369 -2.09434 1.01022 172 183 210
2.93222 -2.10975 1.02667 153 169 159
2.93005 -2.12447 1.03256 138 149 155
2.94488 -2.14581 1.03639 185 200 214
2.94173 -2.16031 1.04246 205 214 221
2.93766 -2.16877 1.06520 210 215 221
2.93076 -2.17179 1.04949 209 215 221
2.92385 -2.17481 1.03378 205 212 223
1.71502 -2.27305 1.40472 105 91 80
1.70868 -2.28417 1.41041 42 35 36
1.69379 -2.29625 1.40317 40 43 44
1.22314 -3.05531 1.81661 100 88 66
1.23871 -3.04268 1.82417 89 77 60
1.23270 -3.04531 1.81049 89 75 60
1.22669 -3.04794 1.79681 91 76 61
1.20693 -3.05937 1.82233 150 143 100
1.19139 -3.07197 1.81479 144 133 124
0.42277 -4.07749 2.39614 86 97 107
0.42642 -4.06989 2.37573 89 98 110
0.40702 -4.07813 2.40050 46 59 75
0.39847 -4.09050 2.40722 21 10 10
0.38246 -4.10349 2.39944 8 4 7
0.24709 -3.94215 2.39322 54 65 43
0.25055 -3.93494 2.37385 2 7 21
0.24031 -3.95629 2.40011 120 120 105
0.22581 -3.98314 2.41363 121 122 132
0.18726 -4.02052 2.43725 150 140 123
0.17200 -4.03290 2.42983 154 142 128
0.18307 -4.20370 2.50461 145 134 122
0.18665 -4.19626 2.48461 148 138 131
0.17700 -4.20636 2.49080 146 136 125
0.16735 -4.21645 2.49698 145 133 120
0.17173 -4.21063 2.51009 142 130 111
0.15602 -4.22337 2.50246 143 130 114
0.15583 -4.20886 2.51362 140 127 106
0.14017 -4.22157 2.50601 141 129 114
0.14452 -4.21569 2.51905 137 124 107
0.12887 -4.22838 2.51145 140 129 113
0.13356 -4.22315 2.52462 135 122 104
0.11782 -4.22131 2.52808 133 119 95
0.10701 -4.22891 2.53367 131 114 87
0.08213 -4.23756 2.54332 123 102 80
3.03508 -1.92412 0.91430 162 180 207
3.07433 -1.95225 0.91400 93 93 139
3.06263 -1.96334 0.92109 85 95 111
3.03245 -1.96809 0.93078 54 57 87
3.01481 -1.98240 0.92221 61 52 74
2.98841 -1.99800 0.95319 94 76 62
2.97081 -2.01228 0.94464 121 125 134
2.93374 -1.99371 0.96613 111 120 121
2.91304 -2.01637 0.97975 105 112 122
2.98423 -2.05746 0.97564 131 144 161
2.96442 -2.06557 0.98380 153 161 169
2.96482 -2.08112 0.98928 159 164 170
2.95997 -2.09479 0.99547 142 139 146
2.94499 -2.10466 1.00299 161 172 203
2.93213 -2.11532 1.01022 191 201 203
2.93071 -2.13036 1.01600 136 136 157
2.91221 -2.13884 1.02394 162 163 189
2.93259 -2.16245 1.02703 197 206 224
1.75203 -2.26979 1.37824 207 212 211
1.75544 -2.26270 1.35918 210 215 215
1.74625 -2.27232 1.36507 209 213 214
1.72996 -2.28700 1.39027 123 118 96
1.71560 -2.29373 1.39649 45 42 35
1.70333 -2.31637 1.40787 39 37 35
1.69992 -2.32346 1.42692 28 25 30
1.69414 -2.32599 1.41376 31 27 27
1.21289 -3.05417 1.80270 94 85 70
1.21643 -3.04681 1.78292 88 72 60
1.20519 -3.06581 1.80892 136 128 119
1.18964 -3.07843 1.80136 142 127 116
0.43779 -4.11471 2.38881 87 97 104
0.44147 -4.10705 2.36822 90 98 117
0.41128 -4.09794 2.38982 40 51 61
0.38745 -4.08522 2.39156 17 11 4
0.37147 -4.09818 2.38380 7 7 4
0.24877 -3.95754 2.38244 61 76 77
0.23524 -3.96027 2.38700 119 130 122
0.22663 -3.97134 2.39326 127 128 119
0.21501 -3.97724 2.39845 108 99 100
0.21294 -3.99973 2.40708 130 125 119
0.20187 -4.00658 2.41247 147 142 125
0.11254 -4.22540 2.51470 137 127 108
0.11609 -4.21801 2.49486 142 129 121
0.10652 -4.22803 2.50099 140 128 118
0.09695 -4.23805 2.50713 139 126 115
0.10127 -4.23210 2.52009 135 120 108
0.08569 -4.24474 2.51252 138 123 113
3.08183 -1.90022 0.87499 169 175 209
3.06421 -1.91451 0.86644 213 230 246
3.05290 -1.93533 0.89524 127 129 171
3.07025 -1.95618 0.89803 88 89 105
3.05010 -1.96439 0.90635 78 87 99
3.03241 -1.97874 0.89776 53 54 69
3.01735 -1.96821 0.91648 56 52 73
2.99590 -1.99090 0.93030 70 70 76
2.94785 -1.98904 0.94250 104 108 114
2.93037 -2.00321 0.93401 120 121 129
2.91899 -2.00882 0.95728 100 106 114
2.90154 -2.02298 0.94880 84 93 94
2.90112 -2.01744 0.96513 87 97 110
2.89482 -2.03024 0.97138 110 124 131
2.93987 -2.06202 0.97065 136 146 162
2.92839 -2.07311 0.97768 160 165 183
2.92288 -2.08644 0.98390 165 169 161
2.94514 -2.11032 0.98645 135 129 155
2.90419 -2.11026 0.99740 162 171 197
2.91791 -2.13108 1.00114 175 187 201
2.93196 -2.15217 1.00490 147 115 184
2.92465 -2.16507 1.01145 182 191 214
2.92842 -2.18236 1.01661 200 207 219
2.92434 -2.19084 1.03940 206 212 220
2.93423 -2.20056 1.02154 202 209 218
2.93013 -2.20907 1.04442 207 214 221
2.92319 -2.21211 1.02861 204 211 220
1.74903 -2.28854 1.37011 204 206 197
1.75245 -2.28142 1.35098 210 215 216
1.73708 -2.29669 1.37621 137 136 122
1.72558 -2.30506 1.38227 57 50 51
1.72533 -2.31974 1.38757 43 37 41
1.71028 -2.33195 1.38026 39 41 45
1.71717 -2.33002 1.39342 40 38 39
1.71328 -2.34274 1.39900 32 27 29
1.70985 -2.34987 1.41817 25 24 23
1.70402 -2.35242 1.40492 24 22 23
1.69820 -2.35497 1.39167 26 22 27
1.20514 -3.05525 1.78895 92 84 67
1.20868 -3.04789 1.76918 98 65 51
1.19949 -3.06871 1.79526 132 124 111
1.18393 -3.08133 1.78770 140 127 112
0.44402 -4.13783 2.37851 88 98 103
0.44772 -4.13013 2.35781 90 98 117
0.40573 -4.10175 2.37590 35 45 53
0.38842 -4.09975 2.37982 13 12 8
0.37239 -4.11275 2.37204 6 8 4
0.30635 -4.04178 2.38113 11 18 24
0.32201 -4.02908 2.38873 6 6 9
0.30992 -4.03437 2.36121 12 13 13
0.24202 -3.95869 2.36873 58 83 91
0.23229 -3.96789 2.37461 93 104 109
0.21959 -3.97195 2.37946 100 100 98
0.21011 -3.98153 2.38541 111 99 95
0.20725 -4.00268 2.39372 131 123 109
0.19195 -4.01509 2.38629 138 124 109
0.19565 -4.00861 2.39893 140 128 115
0.17987 -4.00704 2.40260 147 139 119
0.17052 -4.01682 2.40858 151 142 122
3.05709 -1.95703 0.88340 83 87 96
3.02640 -1.96160 0.89332 75 78 92
3.00877 -1.97590 0.88476 56 52 82
3.00335 -1.98376 0.90739 72 63 81
2.97457 -1.98876 0.91695 97 101 107
2.95701 -2.00301 0.90842 106 113 125
2.94810 -1.99447 0.92613 108 113 124
2.93059 -2.00867 0.91762 111 118 131
2.90760 -2.01009 0.94260 112 118 117
2.89544 -2.03588 0.95502 88 105 117
2.89283 -2.05011 0.96075 112 126 136
2.91195 -2.07249 0.96350 138 148 172
2.91072 -2.08741 0.96911 159 169 190
2.91953 -2.10620 0.97337 159 168 169
2.91784 -2.12109 0.97910 133 128 145
2.90357 -2.13119 0.98653 173 185 197
2.91892 -2.15280 0.99002 150 134 178
2.89862 -2.16057 0.99826 164 162 184
2.92343 -2.20206 1.00623 194 198 210
2.91876 -2.21616 1.01248 197 203 213
2.91467 -2.22468 1.03537 208 214 222
2.93063 -2.23702 1.01665 202 208 218
2.92651 -2.24557 1.03965 209 215 219
2.91953 -2.24863 1.02376 206 212 223
1.75703 -2.29870 1.35586 210 212 208
1.76046 -2.29155 1.33666 211 216 220
1.72232 -2.29424 1.36367 164 158 154
1.72765 -2.31200 1.36851 79 64 71
1.72661 -2.32628 1.37384 43 35 41
1.71153 -2.33852 1.36652 38 44 48
1.71363 -2.34882 1.38532 33 29 33
1.69853 -2.36107 1.37799 27 24 25
1.19484 -3.05403 1.77509 106 80 62
1.17933 -3.06662 1.76756 147 131 112
1.19735 -3.07482 1.78177 136 124 107
1.18177 -3.08745 1.77420 138 128 115
0.44882 -4.15874 2.36764 82 93 98
0.43247 -4.17200 2.35970 19 21 37
0.36521 -4.04785 2.35103 27 37 45
0.36536 -4.07443 2.36039 10 10 16
0.25247 -3.96329 2.35160 44 64 52
0.24656 -3.96588 2.33813 76 91 81
0.23918 -3.96649 2.35633 77 96 96
0.23840 -3.99111 2.36525 53 39 65
0.21827 -3.98244 2.36762 44 53 76
0.20699 -3.98893 2.37297 97 107 107
0.20088 -4.00445 2.38011 129 126 108
0.18559 -4.01685 2.37269 134 125 110
0.17289 -4.00766 2.38882 142 129 115
0.16701 -4.01023 2.37544 140 123 109
3.02509 -1.90677 0.85603 207 229 238
3.01048 -1.96145 0.87922 74 74 94
2.99288 -1.97573 0.87067 50 58 94
2.98763 -1.98362 0.89324 80 72 95
2.96714 -1.99150 0.90161 100 110 123
2.94958 -2.00574 0.89308 105 113 124
2.88986 -2.00906 0.92889 116 122 125
2.88315 -2.01200 0.91360 112 122 129
2.87140 -2.01739 0.93686 102 103 98
2.85292 -2.02566 0.94481 90 92 111
2.85976 -2.04329 0.94913 101 110 132
2.87891 -2.06564 0.95175 119 128 143
2.90249 -2.08986 0.95380 142 149 173
2.90561 -2.10650 0.95879 165 166 186
2.92069 -2.14347 0.96765 145 145 147
2.89977 -2.15102 0.97602 156 168 189
2.92646 -2.17725 0.97794 133 123 156
2.92266 -2.19163 0.98402 173 189 207
2.92522 -2.22462 0.99490 188 191 205
2.91825 -2.22767 0.97905 184 187 201
2.93961 -2.24657 0.99868 193 198 209
2.95899 -2.27074 1.00187 200 205 222
2.95484 -2.27938 1.02509 209 215 225
2.96916 -2.29131 1.00631 206 213 223
2.96499 -2.29998 1.02963 208 216 223
2.95790 -2.30308 1.01352 209 216 223
1.76078 -2.30655 1.34184 213 216 214
1.76423 -2.29939 1.32259 214 218 222
1.73300 -2.30595 1.34922 187 183 173
1.72633 -2.31706 1.35494 102 88 82
1.72972 -2.33388 1.35992 41 35 40
1.71460 -2.34615 1.35258 40 45 43
1.71418 -2.35503 1.37159 35 34 33
1.28270 -2.99192 1.71309 80 58 37
1.29831 -2.97926 1.72066 82 70 55
1.29228 -2.98190 1.70695 77 61 50
1.27915 -2.99931 1.73293 84 69 50
1.25071 -2.98277 1.71862 90 56 35
1.24718 -2.99011 1.73833 85 69 56
1.24120 -2.99272 1.72471 95 59 43
1.23521 -2.99534 1.71109 147 127 86
1.18533 -3.03508 1.75484 146 121 75
1.20078 -3.02254 1.76235 89 62 50
1.19481 -3.02515 1.74877 121 94 70
1.18884 -3.02777 1.73519 170 154 125
1.16987 -3.04761 1.74734 167 145 114
1.19306 -3.06042 1.76163 155 130 93
0.46140 -4.16546 2.34950 90 99 114
0.47781 -4.15215 2.35747 87 98 116
0.47147 -4.15492 2.34305 87 99 117
0.46513 -4.15769 2.32862 86 100 115
0.44499 -4.17877 2.34153 37 47 58
0.36671 -4.08962 2.34874 9 11 14
0.36055 -4.09232 2.33472 9 9 10
0.35075 -4.10257 2.34099 19 23 24
0.34583 -4.08126 2.35152 7 6 8
0.24115 -3.98258 2.34547 51 44 59
0.22580 -3.99503 2.33802 5 4 6
0.22905 -3.98782 2.35062 14 5 17
0.21588 -3.99111 2.35537 3 11 36
0.18924 -3.97075 2.35551 47 73 91
0.19224 -4.00222 2.36573 105 119 113
0.14224 -3.99223 2.37589 144 127 113
0.14568 -3.98508 2.35667 134 124 111
0.13640 -3.99478 2.36261 140 124 110
0.12353 -3.98483 2.37840 149 140 126
0.12011 -3.99195 2.39753 153 141 130
0.11430 -3.99449 2.38431 152 142 135
3.06659 -1.94076 0.83814 115 121 153
3.04043 -1.94695 0.84752 84 86 99
3.00702 -1.96558 0.86323 81 86 96
2.98941 -1.97986 0.85468 52 49 94
2.98504 -1.98807 0.87714 85 93 100
2.96055 -1.99453 0.88615 102 110 125
2.94299 -2.00878 0.87762 102 107 124
2.85072 -2.01520 0.92367 114 117 115
2.85466 -2.00701 0.90164 108 115 128
2.83397 -2.02406 0.93138 87 91 109
2.82974 -2.03755 0.93724 93 103 124
2.86556 -2.08142 0.94264 119 129 143
2.90335 -2.11123 0.94260 141 149 174
2.92106 -2.14930 0.95097 113 116 142
2.89331 -2.15418 0.96033 151 159 176
2.91701 -2.17928 0.96253 112 102 138
2.90569 -2.19066 0.96962 160 176 189
2.92067 -2.21260 0.97313 184 191 201
2.90266 -2.22721 0.96438 182 191 197
2.93803 -2.25185 0.98201 186 190 200
2.93102 -2.25492 0.96605 184 190 195
2.95325 -2.27437 0.98566 191 198 207
2.97184 -2.29846 0.98892 199 206 212
2.98173 -2.31911 0.99338 205 212 219
2.97753 -2.32784 1.01685 211 217 225
2.97041 -2.33096 1.00064 210 216 224
1.75492 -2.30910 1.32854 214 217 217
1.75837 -2.30194 1.30930 217 220 224
1.74108 -2.31626 1.33486 200 198 188
1.73177 -2.32595 1.34081 121 112 107
1.72873 -2.33919 1.34626 44 41 46
1.71085 -2.35903 1.35811 37 38 32
1.70443 -2.37043 1.36385 28 24 23
1.70099 -2.37760 1.38312 25 22 23
1.69514 -2.38016 1.36980 25 20 20
1.68928 -2.38272 1.35649 24 19 21
1.30445 -2.98176 1.68725 89 62 47
1.32010 -2.96907 1.69484 75 64 49
1.31405 -2.97171 1.68109 84 56 35
1.31049 -2.97911 1.70100 75 63 54
1.28913 -2.98697 1.69329 93 69 57
1.27935 -2.99683 1.69943 107 84 58
1.17202 -3.03114 1.74101 169 149 110
1.17553 -3.02385 1.72140 141 125 115
0.44554 -4.15264 2.33227 84 96 104
0.26537 -3.98463 2.32347 71 85 83
0.24994 -3.99715 2.31598 18 18 19
0.24885 -3.98250 2.32729 56 54 62
0.23693 -3.98811 2.33253 15 6 16
0.22157 -4.00057 2.32507 3 4 5
0.20890 -3.99184 2.34157 4 4 11
0.20299 -3.99442 2.32813 4 3 5
0.19035 -3.98557 2.34451 2 18 35
0.16261 -3.96281 2.34424 46 74 87
0.11096 -3.97507 2.36276 144 129 119
0.10517 -3.97760 2.34959 141 126 114
0.09559 -3.97339 2.36642 148 139 133
0.09219 -3.98046 2.38543 152 141 133
0.08642 -3.98299 2.37230 152 143 134
3.05370 -1.89697 0.80810 179 184 218
3.03077 -1.90424 0.81700 210 230 240
3.01878 -1.94489 0.83440 77 85 94
3.00015 -1.96853 0.84777 88 94 100
2.98254 -1.98281 0.83921 48 36 95
2.98083 -1.99195 0.86125 87 96 99
2.95701 -1.99865 0.87021 100 106 120
2.93944 -2.01290 0.86168 98 105 120
2.82199 -2.01003 0.91179 116 120 122
2.82592 -2.00187 0.88987 107 111 126
2.81534 -2.01294 0.89665 116 120 129
2.81323 -2.02178 0.91830 101 107 107
2.81567 -2.03772 0.92313 88 91 99
2.79690 -2.04575 0.93114 100 109 125
2.80096 -2.06240 0.93576 114 116 134
2.86069 -2.10049 0.93228 121 130 154
2.88120 -2.12387 0.93464 142 150 159
2.88264 -2.14003 0.93983 115 132 139
2.90252 -2.16351 0.94240 132 127 124
2.90010 -2.17835 0.94821 109 124 149
2.89616 -2.19264 0.95425 147 149 173
2.92686 -2.22094 0.95547 178 188 199
2.95651 -2.28171 0.96821 188 193 201
2.96068 -2.27305 0.94493 180 185 191
2.95962 -2.29943 0.97347 192 198 212
2.96265 -2.31721 0.97877 198 204 218
2.97960 -2.34098 0.98226 206 214 220
2.97539 -2.34974 1.00580 212 218 227
2.96824 -2.35287 0.98954 211 218 226
1.73979 -2.32137 1.32120 211 211 204
1.72676 -2.32897 1.32746 137 134 136
1.72947 -2.34549 1.33241 56 52 58
1.71946 -2.35483 1.33843 43 41 36
1.70430 -2.36712 1.33107 40 42 41
1.70985 -2.36439 1.34442 39 40 35
1.70232 -2.37516 1.35024 30 26 27
1.28730 -2.93909 1.66093 141 119 71
1.30280 -2.92652 1.66846 84 50 28
1.29682 -2.92914 1.65483 124 95 48
1.29329 -2.93648 1.67455 85 52 31
1.27180 -2.95167 1.65340 167 154 110
1.30289 -2.97007 1.66729 152 137 87
1.29570 -2.98212 1.67346 166 152 107
1.27098 -2.97933 1.67939 171 160 118
1.28537 -3.00977 1.68590 174 162 120
1.26254 -3.00847 1.69182 170 158 119
1.24692 -3.02114 1.68424 138 124 111
0.45418 -4.15294 2.31289 86 101 113
0.47056 -4.13965 2.32084 87 99 114
0.46423 -4.14242 2.30645 88 99 113
0.45791 -4.14519 2.29205 88 100 115
0.43761 -4.15274 2.31744 74 80 95
0.37068 -4.06905 2.30717 25 24 33
0.36098 -4.07942 2.31346 7 8 17
0.33894 -4.06910 2.31604 13 13 17
0.26723 -3.97454 2.30334 53 72 50
0.26353 -3.99424 2.31118 58 77 78
0.23170 -3.99191 2.31925 4 3 7
0.22576 -3.99450 2.30575 4 3 5
0.21633 -4.00437 2.31179 3 3 5
0.18243 -3.98455 2.33045 3 4 8
0.18589 -3.97735 2.31109 5 3 4
0.17655 -3.98712 2.31708 3 4 5
0.16409 -3.97834 2.33342 2 15 35
0.13544 -3.95348 2.33281 49 71 91
0.13076 -3.97127 2.34027 108 116 115
0.11603 -3.97097 2.34427 134 125 113
0.08577 -3.96847 2.35184 143 129 122
0.08001 -3.97099 2.33873 142 126 111
0.07451 -3.97415 2.35694 148 141 126
0.07112 -3.98120 2.37590 155 143 140
0.06537 -3.98372 2.36280 153 146 135
3.06753 -1.87707 0.77900 165 175 193
3.04182 -1.89827 0.79352 189 197 226
3.02281 -1.90680 0.80180 199 214 230
3.01056 -1.91756 0.80894 133 131 174
3.02526 -1.93740 0.81161 81 85 110
2.99375 -1.94165 0.82194 74 75 103
2.99988 -1.95872 0.82607 98 107 118
2.99331 -1.97149 0.83230 94 94 110
2.97393 -1.99489 0.84579 86 94 99
2.94890 -2.00115 0.85498 99 102 115
2.93133 -2.01539 0.84645 97 106 123
2.77147 -2.01164 0.90855 123 122 119
2.78157 -2.03036 0.91213 96 98 101
2.76444 -2.03891 0.91989 94 100 120
2.77746 -2.05892 0.92308 106 110 128
2.82002 -2.09043 0.92191 115 115 140
2.85871 -2.13635 0.92676 133 140 139
2.86776 -2.15553 0.93079 106 100 123
2.88528 -2.17823 0.93364 103 126 145
2.86797 -2.18714 0.94158 117 117 140
2.90732 -2.21891 0.94139 162 177 191
2.92083 -2.24049 0.94499 178 186 191
2.90272 -2.25518 0.93620 174 182 189
2.94971 -2.28491 0.95209 182 187 197
2.95428 -2.30326 0.95710 187 194 211
2.96842 -2.32574 0.96083 193 201 213
2.96804 -2.34223 0.96659 201 209 216
1.74404 -2.32960 1.30700 216 217 212
1.74750 -2.32242 1.28770 217 221 226
1.73818 -2.33216 1.29367 216 218 216
1.72923 -2.33623 1.31345 163 159 151
1.71838 -2.34507 1.31954 79 66 60
1.71794 -2.35988 1.32474 44 37 31
1.70276 -2.37219 1.31737 40 43 47
1.70316 -2.38162 1.33636 35 30 32
1.69615 -2.39274 1.34215 28 23 23
1.69269 -2.39994 1.36149 23 21 18
1.68682 -2.40251 1.34813 24 22 16
1.68094 -2.40507 1.33477 26 21 18
1.30244 -2.88815 1.62298 177 163 125
1.29893 -2.89545 1.64260 99 79 48
1.29297 -2.89805 1.62904 179 165 121
1.30015 -2.93948 1.64124 176 165 111
1.28102 -2.97746 1.65965 158 147 123
1.26543 -2.99010 1.65208 136 123 119
1.26651 -3.00145 1.67197 145 131 121
1.25090 -3.01411 1.66438 139 123 109
0.44105 -4.14456 2.29659 86 103 110
0.44477 -4.13683 2.27581 89 102 117
0.41515 -4.12887 2.29850 55 59 80
0.37760 -4.09347 2.29693 17 11 16
0.35560 -4.08341 2.29968 5 6 10
0.31116 -4.03530 2.29569 39 45 43
0.28142 -4.01130 2.29583 81 94 84
0.26586 -4.02392 2.28828 15 5 7
0.26556 -4.01052 2.30003 28 30 28
0.25005 -4.02310 2.29250 5 3 5
0.24586 -4.00299 2.30300 6 4 8
0.23042 -4.01551 2.29550 4 3 3
0.15321 -3.97195 2.31845 3 4 11
0.15665 -3.96479 2.29922 4 4 5
0.14737 -3.97450 2.30516 3 4 6
0.13810 -3.98421 2.31111 4 4 13
0.13512 -3.96584 2.32145 3 13 36
0.12007 -3.97805 2.31414 3 16 38
0.10660 -3.94067 2.32084 53 74 92
0.09956 -3.95408 2.32743 109 115 117
0.06171 -3.96357 2.34134 143 129 115
0.05598 -3.96608 2.32829 140 127 113
0.04321 -3.95551 2.34379 149 141 132
0.03984 -3.96250 2.36259 153 145 133
0.03414 -3.96500 2.34960 156 146 135
3.14617 -1.86290 0.73344 213 221 230
3.16392 -1.84851 0.74206 218 220 230
3.15706 -1.85150 0.72646 215 221 229
3.15021 -1.85450 0.71086 216 222 231
3.12804 -1.87201 0.74169 194 204 218
3.11031 -1.88639 0.73308 164 172 191
3.09358 -1.87583 0.75279 168 174 195
3.04707 -1.89037 0.77097 166 182 212
3.06073 -1.93963 0.78385 103 105 142
3.02393 -1.94223 0.79521 75 76 103
3.01366 -1.95374 0.80204 97 93 104
2.99603 -1.96804 0.79348 119 127 137
3.00971 -1.96743 0.80783 110 128 130
3.02608 -2.00345 0.81543 44 51 79
2.97470 -2.00055 0.82906 86 95 97
2.95705 -2.01486 0.82049 97 105 106
2.93746 -2.00245 0.84030 98 104 116
2.91991 -2.01669 0.83178 97 105 110
2.75794 -1.99710 0.88955 116 116 129
2.76841 -1.98615 0.88284 108 110 124
2.76182 -1.98903 0.86785 109 111 126
2.74149 -2.00582 0.89719 125 127 135
2.73074 -2.01665 0.90394 130 132 142
2.74372 -2.03647 0.90699 105 87 106
2.75195 -2.05462 0.91083 100 104 122
2.78839 -2.08378 0.91039 108 113 129
2.82656 -2.11391 0.90978 116 121 132
2.83475 -2.13261 0.91382 126 132 136
2.86469 -2.16003 0.91463 112 119 126
2.85802 -2.17312 0.92099 99 102 105
2.85037 -2.18585 0.92749 83 89 109
2.90595 -2.22422 0.92474 140 158 169
2.94861 -2.29048 0.93516 177 182 196
2.96003 -2.31173 0.93914 183 188 205
2.97409 -2.33426 0.94281 188 197 207
2.97141 -2.34983 0.94887 196 203 214
1.73651 -2.34624 1.29894 187 181 165
1.73997 -2.33905 1.27960 215 218 219
1.73064 -2.34881 1.28558 199 197 187
1.70944 -2.34586 1.30651 103 86 69
1.71926 -2.36658 1.31077 44 36 34
1.70405 -2.37892 1.30338 42 44 48
1.70755 -2.39019 1.32213 38 36 36
1.70079 -2.40150 1.32790 30 27 26
1.68554 -2.41387 1.32050 24 19 19
1.30058 -2.87651 1.60342 166 153 122
1.30409 -2.86923 1.58384 143 106 104
1.29464 -2.87911 1.58989 142 114 112
1.29435 -2.88901 1.60945 161 145 123
1.28507 -2.89906 1.61550 158 135 108
1.28804 -2.91921 1.62152 155 129 101
1.27164 -2.94124 1.63368 139 125 105
1.25616 -2.95380 1.62616 138 123 106
1.27574 -2.96264 1.63980 135 126 116
1.26019 -2.97525 1.63225 139 126 110
1.26685 -2.97318 1.64591 134 124 118
1.25130 -2.98579 1.63836 139 126 113
0.43504 -4.14781 2.28232 86 98 101
0.39843 -4.11430 2.28133 31 34 41
0.38662 -4.12152 2.28714 8 9 15
0.37049 -4.13461 2.27930 48 70 47
0.37164 -4.12336 2.29203 16 22 22
0.29311 -4.04404 2.28737 57 52 62
0.27742 -4.05676 2.27975 7 4 4
0.08417 -3.93903 2.31107 52 70 90
0.08755 -3.93200 2.29218 4 4 7
0.07844 -3.94154 2.29802 3 14 34
0.07429 -3.94716 2.31665 110 116 115
0.03050 -3.94485 2.32832 143 129 126
0.03385 -3.93788 2.30959 136 128 115
0.02481 -3.94733 2.31538 141 128 117
0.01730 -3.94643 2.33261 152 140 132
0.01396 -3.95338 2.35130 157 146 137
0.00828 -3.95586 2.33839 157 146 138
3.15133 -1.86970 0.71566 209 216 226
3.12009 -1.87465 0.72631 180 184 210
3.10237 -1.88902 0.71770 163 176 199
3.08082 -1.89172 0.74336 165 176 194
3.05250 -1.89734 0.75339 178 187 212
3.03811 -1.92235 0.76597 146 155 177
3.04652 -1.94014 0.76956 90 86 109
3.02102 -1.94653 0.77904 68 65 87
3.00357 -1.95559 0.78711 115 119 100
2.98422 -1.97901 0.80058 101 101 113
3.07596 -2.02643 0.79024 55 62 85
2.98959 -2.01124 0.80992 86 97 96
2.97186 -2.02561 0.80131 100 104 110
2.74661 -1.99822 0.87533 119 118 133
2.72597 -2.00535 0.88367 130 131 143
2.69116 -2.00708 0.89425 146 153 151
