ply
format ascii 1.0
element face 0
property list uchar int vertex_indices
element vertex 1320
property float x
property float y
property float z
property uchar diffuse_red
property uchar diffuse_green
property uchar diffuse_blue
end_header
1.27272 -3.31176 1.43624 121 117 116
1.25630 -3.32038 1.42490 123 118 118
1.23913 -3.48465 1.45946 159 150 140
1.25605 -3.47577 1.47115 163 150 144
1.25229 -3.47669 1.45576 161 150 142
1.24289 -3.48373 1.47485 163 151 143
1.23026 -3.49812 1.46268 155 147 140
1.22292 -3.51364 1.46574 154 133 132
1.21745 -3.53169 1.46861 147 124 132
1.20929 -3.54637 1.47179 163 143 172
1.23435 -3.60502 1.47141 202 209 181
1.19064 -3.57294 1.47841 184 178 117
1.19158 -3.60010 1.48065 134 113 67
1.18581 -3.61847 1.48361 124 113 114
1.17622 -3.62565 1.50309 133 123 122
1.16999 -3.62334 1.48763 127 120 115
1.16041 -3.63051 1.50709 132 123 123
1.15657 -3.63145 1.49140 131 121 116
1.02142 -4.03790 1.55871 121 111 93
1.03976 -4.02827 1.57138 125 115 99
1.03568 -4.02927 1.55470 125 113 106
1.03160 -4.03027 1.53801 122 106 99
1.02550 -4.03690 1.57539 123 110 98
1.01136 -4.05336 1.56238 115 105 88
1.00077 -4.06807 1.56610 102 94 87
0.97220 -4.11813 1.57709 94 98 88
0.98248 -4.11043 1.55621 91 85 79
0.96808 -4.11914 1.56025 98 98 90
0.95907 -4.12898 1.58104 78 76 84
0.94546 -4.13904 1.58503 76 74 83
0.93183 -4.14910 1.58903 81 78 83
0.91123 -4.14710 1.59351 88 92 84
0.88938 -4.17666 1.60113 90 87 87
0.88061 -4.19543 1.60480 74 76 82
0.86981 -4.21071 1.60863 75 79 77
0.85142 -4.21240 1.61295 83 87 80
0.83743 -4.22199 1.61698 89 90 73
0.83108 -4.24562 1.62055 84 78 55
0.81709 -4.25536 1.62460 64 63 55
0.80258 -4.26414 1.62867 49 59 64
0.53103 -4.78913 1.73755 86 88 76
0.52266 -4.81561 1.74184 139 136 121
0.50271 -4.82608 1.72806 146 132 120
0.23264 -4.54808 1.78333 149 136 120
0.24288 -4.54041 1.76251 154 142 132
0.21753 -4.55471 1.78734 101 91 99
0.20343 -4.56407 1.79138 108 105 113
0.18824 -4.57042 1.79539 131 126 132
0.17801 -4.57809 1.81619 157 143 135
0.16963 -4.56716 1.79931 156 146 143
0.15943 -4.57481 1.82005 157 145 137
0.15533 -4.57581 1.80333 158 145 136
0.15124 -4.57681 1.78660 156 146 135
-0.30717 -4.11724 1.86660 161 145 126
-0.29834 -4.11063 1.84866 164 152 146
-0.31070 -4.11811 1.85213 165 152 140
-0.32039 -4.12161 1.86998 153 138 103
-0.33628 -4.12996 1.85901 165 154 143
-0.33280 -4.12888 1.87345 158 150 134
-0.34870 -4.13722 1.86247 164 154 148
-0.37051 -4.14888 1.88379 164 150 136
-0.36169 -4.14227 1.86588 164 154 143
-0.39799 -4.09772 1.88539 122 99 90
-0.40186 -4.13769 1.88988 91 72 58
-0.40719 -4.17273 1.89425 53 42 38
-0.41916 -4.18173 1.89777 25 21 25
-0.43506 -4.19007 1.88679 18 16 15
-0.82165 -3.59717 1.93608 9 12 31
-0.81438 -3.59172 1.92130 13 13 15
-0.82457 -3.59788 1.92416 13 12 15
-0.84187 -3.61044 1.94185 64 78 92
2.80724 -2.91031 1.03509 243 242 247
1.76247 -2.39783 1.22901 56 49 48
1.75252 -2.40544 1.23195 54 58 68
1.73027 -2.40405 1.23690 51 56 59
1.70592 -2.41590 1.24350 53 49 58
1.69800 -2.42184 1.25960 60 66 73
1.69278 -2.42109 1.24695 59 60 59
1.68486 -2.42702 1.26304 58 52 63
1.68420 -2.42969 1.24966 82 68 70
1.67627 -2.43563 1.26576 52 44 56
1.68705 -2.44699 1.25051 113 93 69
1.69527 -2.46851 1.25051 139 123 106
1.70060 -2.48800 1.25099 175 154 123
1.68641 -2.50817 1.25598 207 186 141
1.67595 -2.51567 1.25903 193 170 142
1.67450 -2.53030 1.26063 177 161 142
1.65990 -2.53796 1.25054 156 134 130
1.67405 -2.54581 1.26208 166 147 138
1.65940 -2.55350 1.25196 160 137 135
1.66027 -2.55079 1.26566 162 138 131
1.64563 -2.55848 1.25555 159 142 135
1.51267 -2.60736 1.30429 156 136 130
1.52074 -2.60131 1.28790 167 144 132
1.50944 -2.60815 1.29108 163 142 125
1.49707 -2.61048 1.30812 174 163 168
1.46286 -2.59740 1.31479 219 225 236
1.44811 -2.60105 1.31848 248 252 254
1.43693 -2.60781 1.32162 254 254 254
1.41857 -2.60821 1.32585 253 254 254
1.40509 -2.61289 1.32933 247 253 254
1.38826 -2.61452 1.33332 240 252 252
1.37093 -2.61564 1.33737 236 231 239
1.35600 -2.61886 1.34106 216 212 221
1.35701 -2.63663 1.34238 181 185 201
1.35891 -2.65536 1.34357 148 153 182
1.35523 -2.66908 1.34561 129 130 145
1.34081 -2.67664 1.33565 133 136 149
1.34411 -2.67594 1.34875 129 139 165
1.33252 -2.68237 1.35195 142 155 171
1.32508 -2.69271 1.35455 156 165 184
1.31064 -2.70029 1.34458 172 182 198
1.31273 -2.69843 1.35787 166 174 189
1.30862 -2.71204 1.35999 157 168 176
1.29416 -2.71963 1.35000 131 130 145
1.29711 -2.71858 1.36319 141 148 162
1.29218 -2.73153 1.36544 160 175 184
1.28413 -2.73756 1.38179 165 177 186
1.28091 -2.73835 1.36861 167 182 190
1.27768 -2.73914 1.35543 167 182 190
1.23667 -2.99599 1.40114 172 176 185
1.24515 -2.98963 1.38391 168 178 190
1.23327 -2.99682 1.38725 173 179 186
1.22230 -3.00044 1.40481 162 163 161
1.22324 -3.02179 1.40645 127 117 114
1.21165 -3.02937 1.40976 108 99 98
1.20313 -3.03575 1.42706 107 104 97
1.19972 -3.03658 1.41311 109 104 99
1.19631 -3.03742 1.39916 112 102 103
1.30943 -3.24702 1.40639 111 103 92
1.31846 -3.24026 1.38803 113 105 101
1.30580 -3.24791 1.39159 113 105 99
1.30893 -3.26880 1.40840 94 85 81
1.29868 -3.27936 1.41166 73 60 66
1.28571 -3.28677 1.41526 83 72 79
1.26935 -3.29535 1.40396 117 110 111
1.28490 -3.30858 1.41735 110 106 110
1.26846 -3.31721 1.40600 117 112 112
1.25196 -3.40909 1.43362 147 141 137
1.26495 -3.40124 1.42997 141 135 134
1.25568 -3.40818 1.44881 151 141 136
1.24269 -3.41604 1.45245 155 145 137
1.25174 -3.43287 1.43574 148 146 140
1.24243 -3.43985 1.45466 158 148 142
1.25314 -3.45892 1.43769 145 148 138
1.24451 -3.47253 1.44084 147 143 129
1.23510 -3.48524 1.44410 147 126 118
1.22456 -3.49657 1.44749 141 117 124
1.21587 -3.51033 1.45067 158 137 162
1.23284 -3.55762 1.45092 198 197 201
1.20477 -3.54637 1.45634 231 233 230
1.18770 -3.55532 1.44455 252 253 251
1.19571 -3.55996 1.45960 245 248 234
1.18803 -3.57547 1.46270 238 235 197
1.16736 -3.57368 1.46726 176 166 125
1.16486 -3.62252 1.47209 115 106 103
1.01702 -4.03839 1.54205 116 97 87
1.00717 -4.05420 1.54568 106 92 84
0.99519 -4.06664 1.54949 91 85 78
0.98403 -4.08048 1.55325 92 90 88
0.94620 -4.11517 1.56490 94 93 93
0.94209 -4.11617 1.54812 77 76 95
0.92989 -4.12050 1.56909 104 108 115
0.91564 -4.12933 1.57312 110 109 113
0.90061 -4.13681 1.57720 109 112 107
0.88655 -4.14597 1.58121 109 110 101
0.87472 -4.15907 1.58505 108 108 100
0.86133 -4.16947 1.58901 105 104 105
0.84139 -4.16815 1.59345 108 110 106
0.81785 -4.16012 1.59812 108 113 106
0.80411 -4.16970 1.60210 105 110 102
0.79811 -4.19357 1.60554 100 106 92
0.80026 -4.23283 1.60847 75 80 77
0.78812 -4.24585 1.61237 44 58 62
0.77781 -4.25358 1.63333 46 61 73
0.77368 -4.25459 1.61643 41 59 66
0.76954 -4.25561 1.59954 39 51 61
0.53222 -4.80368 1.71937 91 91 86
0.52217 -4.82626 1.72363 139 136 127
0.50217 -4.83676 1.70982 144 132 120
0.22905 -4.55048 1.76654 150 133 111
0.23929 -4.54280 1.74572 153 142 133
0.20687 -4.53794 1.77051 88 61 60
0.19632 -4.55684 1.77457 56 45 64
0.18278 -4.56767 1.77860 101 99 122
0.16402 -4.56390 1.78256 148 149 138
0.14564 -4.57354 1.76986 154 145 128
-0.32324 -4.12496 1.85559 166 153 134
-0.31442 -4.11834 1.83766 164 152 141
-0.32678 -4.12582 1.84113 164 152 140
-0.33915 -4.13330 1.84461 163 152 145
-0.37267 -4.15499 1.86949 162 145 126
-0.39378 -4.12846 1.87200 115 95 72
-0.39953 -4.16155 1.87620 84 71 50
-0.41142 -4.17082 1.87972 50 38 36
-0.42446 -4.17546 1.88310 25 19 22
-0.44033 -4.18378 1.87214 19 16 16
-0.84956 -3.58260 1.92854 17 25 41
1.75798 -2.39767 1.21620 62 53 47
1.76593 -2.39171 1.20004 172 148 114
1.75479 -2.39845 1.20317 92 83 67
1.74365 -2.40519 1.20630 43 41 53
1.74588 -2.40371 1.21949 44 44 62
1.72705 -2.40479 1.22392 49 44 59
1.71409 -2.41014 1.22735 56 45 56
1.70674 -2.41966 1.22984 98 71 60
1.71912 -2.44398 1.22903 129 119 86
1.72515 -2.46375 1.22930 161 147 121
1.71019 -2.46775 1.23308 192 174 123
1.70325 -2.47784 1.23552 208 187 150
1.69943 -2.49038 1.23745 201 183 154
1.68934 -2.49813 1.24043 186 169 145
1.67481 -2.50576 1.23039 159 136 127
1.67541 -2.50292 1.24403 177 154 133
1.66090 -2.51054 1.23401 158 137 132
1.66867 -2.51331 1.24646 166 142 134
1.65414 -2.52094 1.23642 157 136 128
1.67086 -2.53078 1.24742 155 135 123
1.65626 -2.53845 1.23733 160 139 131
1.49370 -2.61114 1.29495 165 147 142
1.50175 -2.60511 1.27859 166 145 126
1.48700 -2.62195 1.29740 182 189 201
1.44175 -2.59907 1.30590 232 243 241
1.43092 -2.60612 1.30899 246 251 252
1.41517 -2.60882 1.31284 238 235 245
1.40359 -2.61517 1.31604 216 216 238
1.38539 -2.61558 1.32027 193 201 220
1.37109 -2.62309 1.31038 171 179 194
1.37688 -2.62467 1.32299 186 189 213
1.36257 -2.63218 1.31310 173 182 192
1.36628 -2.63188 1.32603 180 180 199
1.35196 -2.63940 1.31614 174 184 189
1.35794 -2.64118 1.32873 171 178 187
1.35201 -2.65273 1.33107 162 170 179
1.34976 -2.66777 1.33284 140 145 142
1.33032 -2.68410 1.33869 135 143 157
1.32711 -2.68489 1.32558 130 138 139
1.32349 -2.69504 1.34118 154 166 186
1.30741 -2.71476 1.34653 161 170 171
1.29514 -2.73834 1.35134 157 169 186
1.22956 -3.01299 1.38946 169 174 168
1.23806 -3.00662 1.37218 169 182 187
1.22898 -3.03277 1.39125 132 127 121
1.21907 -3.04230 1.39433 110 101 104
1.20367 -3.05038 1.38369 111 102 104
1.30983 -3.27498 1.39293 111 103 94
1.31892 -3.26817 1.37447 111 103 102
1.30619 -3.27587 1.37804 115 105 101
1.29346 -3.28357 1.38162 116 108 105
1.30582 -3.29289 1.39536 110 99 94
1.28940 -3.30151 1.38401 115 108 108
1.27338 -3.34626 1.40730 120 115 114
1.28256 -3.33939 1.38865 114 109 108
1.26420 -3.35314 1.42595 127 124 125
1.26791 -3.36301 1.40996 124 122 119
1.25871 -3.36991 1.42867 133 130 129
1.26921 -3.38817 1.41177 128 128 123
1.26094 -3.40179 1.41482 133 134 129
1.25736 -3.42132 1.41728 135 127 126
1.25134 -3.43796 1.42006 117 92 98
1.24440 -3.45356 1.42297 100 82 73
1.23814 -3.47015 1.42580 123 108 104
1.23160 -3.48650 1.42868 154 143 163
1.23384 -3.51428 1.43049 189 187 189
1.21900 -3.52021 1.43440 217 216 218
1.20199 -3.52914 1.42265 230 235 241
1.20899 -3.53241 1.43773 234 234 237
1.19765 -3.54293 1.44122 249 252 249
1.18060 -3.55188 1.42944 251 253 254
1.17417 -3.56301 1.44831 251 251 244
1.17037 -3.56394 1.43279 251 252 252
1.15614 -3.56463 1.45260 232 230 210
1.14041 -3.56928 1.45661 169 158 121
1.15022 -3.60872 1.45766 120 86 68
1.13304 -3.61773 1.44580 114 85 70
1.05545 -3.95150 1.50821 124 113 97
1.07359 -3.94198 1.52074 129 117 104
1.06955 -3.94297 1.50425 126 116 98
1.05949 -3.95051 1.52470 127 114 102
1.04539 -3.95904 1.52866 126 112 100
1.04135 -3.96003 1.51217 122 107 98
1.04196 -3.99178 1.51469 116 100 94
1.03184 -3.99936 1.53527 123 109 98
1.03183 -4.00681 1.51829 113 101 98
1.02161 -4.02180 1.52190 116 120 108
1.01050 -4.03546 1.52560 121 121 112
0.99865 -4.04799 1.52938 121 119 107
0.98471 -4.05714 1.53336 121 123 103
0.97649 -4.07578 1.53681 101 110 107
0.95809 -4.08544 1.52411 106 110 107
0.96451 -4.08831 1.54062 93 97 97
0.94938 -4.09560 1.54472 93 95 95
0.92647 -4.12269 1.55226 77 79 107
0.90797 -4.12419 1.55665 99 109 127
0.89066 -4.12764 1.56092 117 125 128
0.87609 -4.13582 1.56497 129 131 128
0.86197 -4.14480 1.56897 138 140 139
0.84846 -4.15486 1.57292 138 143 143
0.83687 -4.16839 1.57673 138 142 133
0.81614 -4.16543 1.58125 123 119 119
0.79968 -4.17008 1.58543 105 107 114
0.78574 -4.17932 1.58942 98 103 111
0.79375 -4.22942 1.59177 69 64 83
0.77521 -4.23915 1.57896 36 39 52
0.53173 -4.81427 1.70113 93 91 84
0.52861 -4.85383 1.70516 139 137 125
0.50851 -4.86438 1.69127 144 131 117
0.19043 -4.55291 1.75782 45 35 33
0.17685 -4.56357 1.76184 89 99 104
0.15606 -4.55401 1.76583 142 142 130
-0.36409 -4.14744 1.85154 165 155 140
-0.35173 -4.13996 1.84806 162 153 148
-0.35527 -4.14082 1.83361 162 152 143
-0.37525 -4.15956 1.85512 154 138 111
-0.39195 -4.15016 1.85818 110 93 61
-0.39971 -4.17569 1.86211 75 68 45
-0.41498 -4.17156 1.86528 47 35 38
-0.42874 -4.17329 1.86859 27 17 25
-0.44459 -4.18161 1.85764 18 16 12
-0.85118 -3.59097 1.91707 8 12 18
-0.84395 -3.58555 1.90237 10 14 12
-0.85408 -3.59168 1.90522 10 15 11
-0.86421 -3.59781 1.90807 9 14 14
-0.87238 -3.59734 1.92248 20 38 58
2.77752 -2.84460 1.00158 246 245 247
2.79544 -2.83520 1.01396 253 254 253
2.79145 -2.83617 0.99766 252 253 253
2.78747 -2.83715 0.98136 252 253 254
2.77353 -2.84558 0.98528 250 250 252
2.77832 -2.97105 1.01157 142 152 173
2.75997 -2.98068 0.99890 123 131 152
2.70521 -2.97575 1.02893 178 184 195
2.69510 -2.98332 1.04948 183 186 197
2.69105 -2.98431 1.03291 181 184 194
1.74301 -2.41966 1.20762 88 77 89
1.73981 -2.42044 1.19454 120 113 117
1.73359 -2.44281 1.21167 179 157 108
1.71341 -2.44288 1.21636 204 189 140
1.71103 -2.45631 1.21800 211 192 160
1.70974 -2.47064 1.21945 198 180 157
1.69996 -2.47858 1.22236 184 166 150
1.68547 -2.48618 1.21235 158 136 133
1.69016 -2.48652 1.22528 172 150 145
1.67567 -2.49413 1.21526 159 137 138
1.68109 -2.49504 1.22807 162 140 138
1.66659 -2.50266 1.21805 161 139 135
1.49086 -2.61227 1.28170 163 144 135
1.49891 -2.60623 1.26533 166 146 130
1.48856 -2.62692 1.28341 169 171 176
1.46261 -2.62094 1.28895 204 208 211
1.43110 -2.60988 1.29538 218 229 237
1.44941 -2.64284 1.29378 192 192 210
1.43488 -2.65046 1.28375 170 177 192
1.42475 -2.63772 1.29910 177 180 210
1.41029 -2.64531 1.28911 175 183 190
1.40391 -2.63589 1.30379 170 176 192
1.38950 -2.64345 1.29384 178 186 191
1.35153 -2.65602 1.31758 175 184 186
1.35950 -2.65004 1.30137 175 183 189
1.34833 -2.65680 1.30451 175 182 188
1.34767 -2.66959 1.31957 163 169 165
1.33986 -2.67954 1.32219 148 151 149
1.32252 -2.69796 1.32770 134 148 167
1.31931 -2.69875 1.31455 130 135 143
1.31361 -2.70698 1.33049 156 167 180
1.30630 -2.71757 1.33304 163 176 181
1.29181 -2.72517 1.32303 148 159 167
1.30794 -2.73689 1.33422 141 144 158
1.29533 -2.76042 1.33904 165 182 192
1.28722 -2.76649 1.35552 168 181 190
1.28397 -2.76729 1.34223 167 181 190
1.23495 -3.02352 1.37426 166 176 171
1.23450 -3.04353 1.37598 133 133 126
1.22222 -3.05048 1.37939 112 104 106
1.20678 -3.05859 1.36872 109 100 103
1.27905 -3.35845 1.39100 115 112 108
1.27505 -3.37709 1.39343 117 117 110
1.27401 -3.39950 1.39548 117 120 110
1.26293 -3.40974 1.39887 112 111 101
1.25522 -3.42420 1.40183 105 72 80
1.25402 -3.44691 1.40394 97 44 70
1.24482 -3.45973 1.40711 104 99 110
1.23969 -3.47781 1.40976 169 173 169
1.22131 -3.47909 1.41413 206 210 215
1.20443 -3.48795 1.40246 218 225 238
1.20735 -3.48595 1.41792 218 223 229
1.19047 -3.49481 1.40626 224 230 242
1.20735 -3.51093 1.41993 226 232 239
1.19039 -3.51983 1.40821 228 234 241
1.18839 -3.53665 1.42641 245 246 248
1.14224 -3.55194 1.43836 248 249 245
1.15166 -3.54489 1.41922 250 253 253
1.13846 -3.55287 1.42293 249 251 251
1.12739 -3.55767 1.44227 230 228 206
1.10665 -3.55533 1.44690 170 156 121
1.07786 -3.90278 1.48157 125 115 97
1.09588 -3.89332 1.49402 129 118 111
1.09187 -3.89431 1.47764 128 116 107
1.08187 -3.90180 1.49796 128 117 103
1.06786 -3.91028 1.50190 127 116 99
1.06930 -3.91961 1.48492 122 113 92
1.05834 -3.93287 1.48853 116 106 94
1.04916 -3.94896 1.49196 113 100 99
1.04425 -3.97190 1.49495 116 109 100
1.03716 -3.99160 1.49818 99 92 89
1.02806 -4.00827 1.50164 85 86 85
1.01534 -4.01927 1.50548 91 98 100
1.00114 -4.02790 1.50947 118 128 132
0.98382 -4.03142 1.51378 157 167 154
0.97015 -4.04090 1.51772 141 148 144
0.96829 -4.06998 1.52049 104 106 104
0.92986 -4.10336 1.53211 87 84 97
0.91670 -4.11397 1.53602 90 93 102
0.89829 -4.12363 1.52330 117 120 117
0.90415 -4.12567 1.53988 102 114 127
0.88702 -4.12944 1.54416 122 129 137
0.87188 -4.13663 1.54825 138 144 148
0.85553 -4.14163 1.55245 142 150 161
0.84396 -4.15513 1.55623 135 143 155
0.83276 -4.16938 1.55998 132 141 144
0.81105 -4.16460 1.56464 120 125 123
0.79517 -4.17029 1.56878 95 97 92
0.79453 -4.20413 1.57166 67 68 73
0.77607 -4.21381 1.55890 34 35 40
0.78447 -4.22081 1.57534 43 38 59
0.54336 -4.67093 1.66759 65 62 58
0.56288 -4.66068 1.68108 95 105 103
0.55854 -4.66175 1.66333 98 106 102
0.58185 -4.80584 1.66952 24 20 24
0.56706 -4.81716 1.67387 16 26 37
0.53581 -4.83593 1.68264 96 93 85
0.53114 -4.87200 1.68663 139 135 121
0.51097 -4.88259 1.67269 144 131 116
0.21182 -4.52816 1.73310 154 142 121
0.22201 -4.52053 1.71239 154 143 128
0.19519 -4.53039 1.73714 135 110 79
0.18359 -4.54633 1.74112 53 31 24
0.16651 -4.54717 1.74515 61 72 90
0.14595 -4.53802 1.74919 118 126 127
0.13050 -4.54304 1.75318 148 142 131
0.12037 -4.55063 1.77376 155 144 133
0.11631 -4.55162 1.75717 153 143 131
-0.36710 -4.15032 1.83712 167 154 135
-0.35828 -4.14370 1.81918 162 154 138
-0.37367 -4.18021 1.84105 146 129 98
-0.38713 -4.18371 1.84446 106 87 54
-0.39872 -4.19453 1.84802 67 62 44
-0.41846 -4.17267 1.85085 41 34 35
-0.43428 -4.16592 1.85398 26 17 20
-0.45011 -4.17423 1.84305 16 17 12
-0.87527 -3.59809 1.91066 8 13 24
-0.86805 -3.59269 1.89599 11 15 15
-0.87816 -3.59880 1.89883 11 13 15
-0.88694 -3.59422 1.91306 17 22 40
-0.89637 -3.60455 1.91608 42 52 71
-0.90358 -3.60995 1.93073 145 142 135
-0.90647 -3.61066 1.91892 85 100 113
-1.00356 -3.52904 1.93489 181 175 175
-1.01050 -3.53424 1.94900 191 183 178
-1.01607 -3.53560 1.92625 175 168 170
2.70868 -2.98200 1.01102 158 167 186
1.72286 -2.42292 1.19871 202 198 159
1.73083 -2.41695 1.18252 80 79 83
1.72048 -2.43622 1.20029 206 189 150
1.71191 -2.44495 1.20297 192 174 154
1.71023 -2.45891 1.20445 182 161 150
1.69578 -2.46650 1.19447 161 141 136
1.70808 -2.47262 1.20601 170 149 145
1.69359 -2.48022 1.19600 163 140 135
1.69751 -2.47996 1.20905 161 140 136
1.68302 -2.48757 1.19904 162 139 131
1.49408 -2.61865 1.26742 165 142 135
1.50215 -2.61260 1.25102 167 148 132
1.49085 -2.61944 1.25420 167 141 132
1.48831 -2.63032 1.26968 170 160 158
1.47752 -2.63764 1.27277 181 179 190
1.45731 -2.63665 1.27743 200 208 217
1.45290 -2.64961 1.27946 177 181 195
1.34543 -2.67127 1.30631 173 180 183
1.35343 -2.66528 1.29005 174 180 187
1.34222 -2.67206 1.29320 171 180 189
1.33101 -2.67884 1.29635 172 181 188
1.33889 -2.68243 1.30870 168 174 172
1.33011 -2.69153 1.31146 142 156 151
1.31545 -2.71261 1.31652 134 142 160
1.30957 -2.72462 1.31883 152 162 170
1.29919 -2.76820 1.32463 152 162 180
1.28671 -2.77402 1.32800 164 177 190
1.27859 -2.78011 1.34452 171 180 190
1.27533 -2.78090 1.33120 169 180 189
1.27207 -2.78170 1.31789 169 180 187
1.26108 -3.01604 1.35272 166 181 194
1.27648 -3.00795 1.36336 170 180 190
1.27306 -3.00879 1.34935 171 182 194
1.26451 -3.01520 1.36673 169 180 190
1.25209 -3.02657 1.35563 158 174 182
1.23774 -3.03122 1.35935 151 160 163
1.23295 -3.04647 1.36165 128 131 136
1.23280 -3.06701 1.36328 112 106 110
1.21728 -3.07516 1.35256 107 99 100
1.29005 -3.35371 1.37203 107 106 101
1.30297 -3.34590 1.36840 108 106 104
1.27345 -3.36242 1.36056 89 82 84
1.28583 -3.37202 1.37444 104 103 98
1.27744 -3.38543 1.37743 102 99 100
1.27717 -3.40885 1.37931 100 92 96
1.26078 -3.41260 1.38344 99 88 88
1.25609 -3.43084 1.38595 117 103 105
1.26147 -3.46186 1.38708 147 139 139
1.23403 -3.45176 1.39273 179 191 194
1.22627 -3.46646 1.39568 212 224 229
1.20942 -3.47530 1.38404 226 235 243
1.21527 -3.47707 1.39908 223 230 238
1.17681 -3.52730 1.41197 236 241 244
1.18622 -3.52024 1.39284 225 233 240
1.16393 -3.53568 1.41564 245 249 249
1.11288 -3.54400 1.42824 250 250 244
1.12225 -3.53698 1.40919 250 251 251
1.10912 -3.54492 1.41288 250 251 251
1.09026 -3.53896 1.43315 231 228 205
1.08237 -3.55403 1.43616 164 151 123
1.06926 -3.56196 1.43984 102 84 72
1.08001 -3.88341 1.46217 122 112 98
1.09798 -3.87398 1.47458 129 117 111
1.09398 -3.87496 1.45825 125 114 103
1.06204 -3.89284 1.44976 100 98 94
1.07495 -3.90544 1.46506 115 105 92
1.06306 -3.91718 1.46875 103 94 88
1.05189 -3.93009 1.47237 92 84 87
1.04166 -3.94455 1.47588 94 93 103
0.97770 -4.02906 1.49739 157 177 169
0.96894 -4.04661 1.50080 137 138 133
0.95955 -4.06323 1.50429 107 100 96
0.94773 -4.07592 1.50804 104 107 105
0.92134 -4.09682 1.51583 109 103 99
0.90812 -4.10727 1.51974 119 124 110
0.88052 -4.12624 1.52767 120 125 131
0.86719 -4.13657 1.53159 126 134 144
0.85221 -4.14399 1.53567 102 111 131
0.84216 -4.16024 1.53928 87 97 116
0.82837 -4.16986 1.54325 92 102 111
0.80117 -4.15505 1.54848 86 89 94
0.79357 -4.21096 1.55458 47 42 44
0.77508 -4.22066 1.54181 38 38 38
0.59447 -4.75557 1.64332 100 105 101
0.56814 -4.73974 1.64826 59 53 53
0.56902 -4.83351 1.65530 16 25 35
0.55754 -4.85297 1.65949 38 42 56
0.53676 -4.89779 1.66782 141 135 122
0.51648 -4.90844 1.65381 145 131 116
0.20645 -4.52567 1.71643 154 143 127
0.21663 -4.51804 1.69574 154 141 131
0.20236 -4.52667 1.69975 155 142 135
0.19178 -4.53320 1.72045 150 134 105
0.17360 -4.53101 1.72454 96 73 48
0.16289 -4.54945 1.72847 45 38 46
0.14285 -4.54174 1.73257 74 89 84
0.12000 -4.52563 1.73667 125 128 130
0.10573 -4.53376 1.74065 145 139 128
0.09564 -4.54131 1.76114 158 143 134
0.09160 -4.54230 1.74462 154 142 132
-0.36857 -4.15910 1.82278 166 155 133
-0.35973 -4.15247 1.80481 163 155 139
-0.37126 -4.20420 1.82690 136 118 97
-0.38938 -4.18973 1.83002 100 81 53
-0.40054 -4.20235 1.83361 59 53 44
-0.42182 -4.17422 1.83642 33 29 32
-0.43770 -4.18255 1.82545 19 18 15
-0.43742 -4.16835 1.83962 22 18 17
-0.45325 -4.17665 1.82869 16 17 13
-0.89025 -3.59216 1.90115 10 10 16
-0.88306 -3.58677 1.88653 12 12 16
-0.89314 -3.59287 1.88936 12 11 14
-0.90321 -3.59896 1.89220 9 11 16
-0.90009 -3.59983 1.90405 6 11 29
-0.91203 -3.59342 1.90635 23 38 66
-0.91920 -3.59879 1.92092 128 136 135
-0.92208 -3.59949 1.90917 66 81 104
1.73364 -2.43407 1.18313 161 167 153
1.74163 -2.42808 1.16687 57 62 44
1.73043 -2.43486 1.17002 104 105 103
1.72481 -2.44263 1.18585 177 161 153
1.71039 -2.45020 1.17588 165 143 143
1.71713 -2.45207 1.18836 166 144 145
1.70269 -2.45965 1.17838 165 144 137
1.71430 -2.46522 1.19000 163 141 137
1.69982 -2.47282 1.18000 165 144 138
1.48859 -2.63419 1.25582 166 144 144
1.49668 -2.62812 1.23937 168 145 128
1.48373 -2.64675 1.25790 176 174 184
1.47794 -2.65855 1.26014 200 200 206
1.46307 -2.66235 1.26394 193 200 207
1.44337 -2.66176 1.26855 177 180 190
1.43203 -2.66862 1.27173 177 184 194
1.42878 -2.66942 1.25847 176 182 195
1.33341 -2.69848 1.29724 166 176 178
1.34145 -2.69246 1.28090 168 179 188
1.33018 -2.69927 1.28406 175 181 192
1.32609 -2.70905 1.29975 149 151 158
1.31653 -2.71752 1.30263 132 134 148
1.31382 -2.73262 1.30439 133 139 144
1.29925 -2.74027 1.29433 123 132 135
1.31007 -2.74683 1.30633 131 144 155
1.30055 -2.77354 1.31056 131 138 160
1.29262 -2.78390 1.31319 158 166 179
1.27793 -2.79161 1.30304 170 179 189
1.27477 -3.01520 1.33454 167 180 193
1.29021 -3.00710 1.34520 171 182 192
1.28677 -3.00794 1.33116 170 183 191
1.26386 -3.02366 1.33774 155 166 182
1.24842 -3.03176 1.32707 148 155 168
1.25423 -3.03353 1.34074 144 154 172
1.24239 -3.04099 1.34409 146 156 165
1.23437 -3.05271 1.34686 132 142 142
1.24050 -3.08036 1.34746 115 110 109
1.30016 -3.30182 1.34976 103 101 106
1.31662 -3.29319 1.36113 110 105 107
1.31296 -3.29408 1.34616 105 101 106
1.30382 -3.30093 1.36472 109 106 109
1.29103 -3.30867 1.36832 109 106 109
1.29315 -3.31643 1.35250 101 100 103
1.28975 -3.33543 1.35471 99 97 95
1.28680 -3.35515 1.35686 95 91 90
1.27172 -3.38388 1.36255 88 82 90
1.27576 -3.41262 1.36373 101 101 118
1.27191 -3.43190 1.36606 129 134 144
1.26012 -3.44144 1.36955 162 177 183
1.24659 -3.44882 1.37330 189 206 214
1.23236 -3.45531 1.37714 211 226 236
1.22045 -3.46473 1.38065 221 233 245
1.20360 -3.47357 1.36901 233 242 247
1.16455 -3.51701 1.39772 229 235 241
1.17394 -3.50998 1.37866 225 232 239
1.16079 -3.51793 1.38235 226 231 238
1.14969 -3.52267 1.40165 237 242 246
1.13756 -3.53196 1.40521 246 250 250
1.12065 -3.54083 1.39353 248 250 249
1.06034 -3.52969 1.42328 225 222 200
1.05403 -3.54689 1.42604 150 141 112
1.04471 -3.55387 1.44497 96 90 91
1.04098 -3.55478 1.42971 100 84 66
1.08229 -3.86438 1.44287 113 102 96
1.10020 -3.85498 1.45525 125 113 105
1.09223 -3.85694 1.42267 98 93 78
1.07830 -3.86536 1.42659 94 92 82
1.06438 -3.87378 1.43050 89 91 95
1.07166 -3.87781 1.44638 105 99 97
1.05530 -3.91240 1.45280 97 93 94
1.04429 -3.92554 1.45637 91 86 97
1.03639 -3.94360 1.45958 100 104 116
1.02854 -3.96188 1.46279 120 130 141
1.02105 -3.98090 1.46596 118 115 127
0.98606 -4.01860 1.47702 104 104 100
0.97365 -4.03007 1.48080 127 136 131
0.95942 -4.03859 1.48479 116 123 118
0.93199 -4.05734 1.49266 139 142 135
0.92629 -4.08031 1.49571 106 106 109
0.91415 -4.09253 1.49948 111 116 115
0.90782 -4.11479 1.50262 128 138 133
0.88954 -4.11656 1.50707 118 124 127
0.87241 -4.12020 1.51139 102 108 115
0.86093 -4.13375 1.51510 98 106 113
0.84887 -4.14634 1.51888 69 76 88
0.83049 -4.15599 1.50618 51 56 63
0.83892 -4.16279 1.52245 51 61 73
0.82050 -4.17246 1.50972 53 57 64
0.82931 -4.17998 1.52599 59 67 76
0.81591 -4.19041 1.52993 61 62 68
0.79745 -4.20010 1.51717 45 47 50
0.80586 -4.20703 1.53353 53 49 51
0.99360 -5.23279 1.56513 44 51 63
1.01595 -5.22106 1.58057 38 49 52
1.01098 -5.22228 1.56025 39 50 55
0.99857 -5.23157 1.58546 42 53 59
0.98120 -5.24208 1.59034 46 57 63
0.96636 -5.22218 1.57078 50 56 71
0.94947 -5.23354 1.57561 57 63 75
0.93711 -5.24280 1.60072 54 66 74
0.93216 -5.24401 1.58048 63 69 80
0.92720 -5.24522 1.56023 76 87 88
0.61835 -4.77663 1.61999 101 111 108
0.62947 -4.76830 1.59739 89 92 97
0.61389 -4.77773 1.60177 106 115 111
0.59959 -4.77873 1.62458 102 104 97
0.59566 -4.81524 1.62821 57 48 49
0.59108 -4.85078 1.63192 22 20 21
0.57713 -4.86453 1.63624 16 24 33
0.56785 -4.88958 1.64029 38 43 59
0.54706 -4.88704 1.64501 102 101 100
0.54250 -4.92400 1.64882 143 136 126
0.52211 -4.93470 1.63474 144 131 116
0.18697 -4.53223 1.70379 154 141 125
0.19715 -4.52460 1.68311 154 141 136
0.18289 -4.53322 1.68712 155 143 134
0.16751 -4.52641 1.70796 142 122 93
0.15548 -4.54111 1.71189 83 65 46
0.14187 -4.55148 1.71587 48 42 34
0.12111 -4.54139 1.72003 74 78 91
0.09685 -4.52074 1.72423 118 122 118
0.06408 -4.52412 1.73222 152 143 130
0.05405 -4.53163 1.75259 154 145 137
0.05004 -4.53262 1.73616 155 145 135
-0.36615 -4.18288 1.80857 165 155 133
-0.35726 -4.17621 1.79050 165 155 147
-0.37354 -4.21016 1.81234 128 112 99
-0.39248 -4.19242 1.81550 93 79 61
-0.40793 -4.18791 1.81882 54 46 40
-0.42479 -4.17737 1.82202 27 24 28
-0.44068 -4.18571 1.81104 20 17 15
-0.91473 -3.59534 1.89465 7 12 26
-0.90755 -3.58996 1.88007 11 12 13
-0.91760 -3.59604 1.88290 10 13 16
-0.92589 -3.59375 1.89717 16 22 50
-0.93304 -3.59912 1.91171 112 120 125
1.72346 -2.44481 1.17239 158 148 147
1.72025 -2.44559 1.15926 140 138 141
1.70903 -2.45238 1.16242 164 147 145
1.48803 -2.63733 1.24208 162 134 135
1.48584 -2.65226 1.24366 179 172 182
1.48198 -2.66583 1.24554 197 191 201
1.46730 -2.67353 1.23540 212 220 209
1.32708 -2.71386 1.28584 167 174 184
1.33514 -2.70782 1.26945 172 180 192
1.32384 -2.71465 1.27262 172 181 188
1.31860 -2.72340 1.28853 155 157 158
1.31557 -2.73824 1.29030 136 141 136
1.30754 -2.76631 1.29420 122 132 140
1.30427 -2.76711 1.28086 118 126 134
1.29955 -2.77658 1.29683 122 134 150
1.29894 -2.79421 1.29822 156 166 177
1.28419 -2.80195 1.28804 171 179 190
1.29734 -3.00366 1.31343 167 180 193
1.31279 -2.99556 1.32410 172 181 192
1.30935 -2.99640 1.31005 173 184 192
1.30078 -3.00282 1.32748 172 182 191
1.28361 -3.00907 1.31708 163 176 188
1.27013 -3.01473 1.32069 153 161 180
1.26015 -3.02420 1.32374 146 152 169
1.24100 -3.04411 1.32971 153 165 172
1.23756 -3.04495 1.31564 152 164 174
1.23385 -3.05682 1.33231 137 150 146
1.25072 -3.09658 1.33111 114 110 110
1.24217 -3.10806 1.33396 103 94 99
1.23347 -3.11458 1.35165 105 100 101
1.22998 -3.11544 1.33738 101 97 98
1.22648 -3.11629 1.32312 96 91 94
1.31507 -3.27907 1.32870 99 96 100
1.33148 -3.27046 1.34004 105 102 104
1.32783 -3.27135 1.32511 101 97 100
1.32417 -3.27225 1.31019 95 91 94
1.31872 -3.27818 1.34363 105 102 107
1.31725 -3.30430 1.32996 97 95 96
1.30075 -3.31296 1.31856 82 75 77
1.30297 -3.31035 1.33379 94 92 94
1.29498 -3.32386 1.33665 90 89 88
1.29347 -3.34519 1.33852 88 81 76
1.27628 -3.37125 1.34446 89 94 103
1.27065 -3.38801 1.34699 107 119 130
1.26242 -3.40172 1.34992 129 149 172
1.24883 -3.40885 1.35366 154 178 206
1.24560 -3.42890 1.35585 176 203 228
1.23440 -3.43913 1.35924 193 215 239
1.22524 -3.45196 1.36233 209 226 245
1.21504 -3.46353 1.36558 222 236 246
1.19821 -3.47237 1.35395 239 246 249
1.13542 -3.50958 1.38780 231 236 244
1.14476 -3.50258 1.36882 226 230 238
1.13168 -3.51050 1.37250 227 231 242
1.11965 -3.51388 1.39186 240 245 246
1.04514 -3.51472 1.40967 249 250 240
1.05439 -3.50779 1.39088 249 252 253
1.04144 -3.51563 1.39452 249 251 250
1.03956 -3.53283 1.41228 219 217 191
1.04111 -3.56112 1.41391 140 134 106
1.03178 -3.56811 1.43287 95 86 84
1.02804 -3.56903 1.41758 92 76 63
1.02430 -3.56994 1.40230 124 116 86
1.05722 -3.89256 1.43353 95 101 100
1.04760 -3.90770 1.43690 106 116 117
1.03901 -3.92454 1.44013 108 116 136
1.01785 -3.95236 1.44714 139 148 148
0.99785 -3.98238 1.45403 117 137 122
0.98900 -3.99941 1.45734 87 90 102
0.96569 -4.02466 1.46468 128 140 131
0.95247 -4.03480 1.46855 98 106 116
0.93826 -4.04331 1.47253 118 135 139
0.93378 -4.06819 1.47536 131 136 139
0.92185 -4.08070 1.47909 103 108 110
0.90816 -4.09025 1.48303 89 98 109
0.89756 -4.10516 1.48661 106 107 117
0.88118 -4.11012 1.49086 91 93 104
0.86593 -4.11700 1.49498 70 79 82
0.85546 -4.13229 1.49855 65 74 77
0.83710 -4.14193 1.48587 60 62 68
0.84531 -4.14829 1.50210 58 63 69
0.82692 -4.15795 1.48940 58 62 66
0.82079 -4.20785 1.51216 50 53 59
0.83108 -4.20014 1.49125 56 59 64
0.81666 -4.20886 1.49530 53 55 61
0.79996 -4.24019 1.51941 43 42 42
0.78549 -4.24894 1.52347 40 38 39
0.78135 -4.24995 1.50655 40 38 42
1.01676 -5.24617 1.53897 37 49 62
1.03921 -5.23438 1.55448 41 48 49
1.03422 -5.23561 1.53407 41 48 54
0.98521 -5.22675 1.54511 49 59 72
0.95822 -5.21655 1.55082 63 73 80
0.93918 -5.22321 1.55582 71 80 85
0.91697 -5.23487 1.54048 78 86 82
0.61118 -4.81696 1.60519 101 102 87
0.62238 -4.80857 1.58244 106 118 111
0.59771 -4.87814 1.61273 24 19 21
0.58136 -4.88646 1.61721 17 23 30
0.56822 -4.90246 1.62148 39 45 59
0.55320 -4.91403 1.62587 104 104 108
0.54252 -4.93631 1.62999 142 135 128
0.52209 -4.94703 1.61588 143 131 116
0.15954 -4.51654 1.69150 156 141 124
0.16966 -4.50896 1.67094 154 142 134
0.15548 -4.51753 1.67492 157 143 133
0.13970 -4.50919 1.69570 137 118 92
0.13416 -4.54214 1.69936 90 69 38
0.11704 -4.54234 1.70345 50 41 40
0.09381 -4.52461 1.70772 63 73 84
0.07130 -4.50839 1.71194 101 109 101
0.05604 -4.51316 1.71591 132 130 118
0.03978 -4.51484 1.71990 146 142 130
0.02980 -4.52232 1.74018 159 145 133
0.02134 -4.50976 1.72393 154 148 132
0.01139 -4.51721 1.74415 158 146 134
0.00416 -4.50819 1.72792 150 146 134
-0.00577 -4.51563 1.74809 158 148 136
-0.00975 -4.51660 1.73182 153 147 137
-0.36497 -4.20205 1.79416 164 153 133
-0.35603 -4.19535 1.77601 165 157 145
-0.37891 -4.20404 1.79763 120 107 87
-0.39352 -4.20327 1.80105 87 75 61
-0.40712 -4.20628 1.80450 51 40 40
-0.42234 -4.20261 1.80787 25 21 25
-0.43832 -4.21100 1.79682 20 18 15
-0.92924 -3.59107 1.88532 10 11 24
-0.92209 -3.58572 1.87079 11 13 15
-0.93211 -3.59178 1.87360 13 13 16
-0.94213 -3.59784 1.87642 12 10 18
-0.95286 -3.57720 1.88996 24 35 64
-0.95996 -3.58251 1.90438 131 134 133
2.57073 -2.77362 0.97717 247 248 250
2.58801 -2.76455 0.98910 252 252 252
2.58416 -2.76550 0.97339 251 251 252
2.55036 -2.77705 0.98229 243 247 247
1.49804 -2.64974 1.22641 161 134 128
1.50618 -2.64364 1.20987 170 149 130
1.49477 -2.65053 1.21307 163 139 127
1.49699 -2.66577 1.22774 175 159 166
1.49598 -2.68194 1.22908 190 190 195
1.48120 -2.68970 1.21887 210 212 204
1.46821 -2.69152 1.23639 183 185 192
1.32362 -2.73213 1.27386 169 177 179
1.33171 -2.72606 1.25740 170 180 187
1.32037 -2.73292 1.26059 170 179 188
1.31512 -2.74174 1.27655 160 165 158
1.31271 -2.75732 1.27818 135 141 134
1.29874 -2.77980 1.28305 123 133 146
1.30103 -2.80036 1.28389 158 170 184
1.28626 -2.80811 1.27368 170 180 186
1.30283 -2.99396 1.29653 174 185 189
1.31827 -2.98586 1.30719 172 181 190
1.31483 -2.98670 1.29315 170 181 192
1.31140 -2.98755 1.27912 170 183 192
1.29133 -3.00175 1.29981 153 164 171
1.28369 -3.01371 1.30246 142 150 165
1.26823 -3.02182 1.29178 134 141 153
1.27188 -3.02121 1.30580 138 143 162
1.26119 -3.02994 1.30895 143 152 160
1.25391 -3.04244 1.31155 149 161 166
1.23842 -3.05057 1.30084 145 155 172
1.23100 -3.05833 1.31812 147 160 157
1.24996 -3.10050 1.31641 119 118 117
1.25216 -3.12418 1.31749 99 93 96
1.23639 -3.13245 1.30659 92 86 90
1.31013 -3.27848 1.31398 90 88 90
1.30648 -3.27937 1.29906 77 78 82
1.29373 -3.28709 1.30265 72 73 86
1.31540 -3.30733 1.31466 85 83 84
1.29324 -3.32706 1.32132 79 76 83
1.29241 -3.34925 1.32301 82 87 98
1.28185 -3.35990 1.32627 92 104 118
1.26398 -3.38530 1.33228 125 154 178
1.24736 -3.38865 1.33649 141 173 207
1.24575 -3.41055 1.33836 154 189 232
1.23292 -3.41864 1.34198 171 203 241
1.22688 -3.43527 1.34456 189 215 243
1.21775 -3.44812 1.34762 209 229 246
1.20841 -3.46077 1.35071 226 240 247
1.19160 -3.46959 1.33910 243 248 249
1.16194 -3.47501 1.36284 239 240 243
1.17497 -3.46712 1.35917 243 248 248
1.17124 -3.46803 1.34393 247 249 250
1.16567 -3.47409 1.37809 229 232 237
1.09989 -3.49324 1.37897 232 237 243
1.10916 -3.48629 1.36013 227 228 240
1.09618 -3.49415 1.36378 229 233 241
1.08663 -3.50072 1.38266 243 245 246
1.07365 -3.50857 1.38631 246 250 251
1.01924 -3.51055 1.39951 248 248 237
1.02845 -3.50364 1.38079 249 251 251
1.01555 -3.51145 1.38441 251 252 251
1.00851 -3.52141 1.40282 209 210 181
1.06601 -3.85380 1.41145 92 95 86
1.07989 -3.84540 1.40755 93 91 84
1.05669 -3.86914 1.41472 92 97 97
1.05013 -3.88880 1.41762 98 95 104
1.03219 -3.89821 1.40523 114 112 115
1.03955 -3.90243 1.42109 105 108 120
1.03124 -3.91968 1.42425 110 121 137
1.02499 -3.94030 1.42714 131 142 152
1.01057 -3.94820 1.43113 135 141 146
0.99779 -3.95870 1.43491 107 103 104
0.97816 -3.98940 1.44170 91 93 109
0.96406 -3.99792 1.44566 128 143 121
0.95589 -4.01621 1.44886 147 150 138
0.94379 -4.02811 1.45257 94 97 101
0.93287 -4.04207 1.45613 88 105 106
0.92340 -4.05854 1.45952 93 100 107
0.90878 -4.06639 1.46356 86 89 94
0.89512 -4.07590 1.46748 72 71 89
0.88208 -4.08646 1.47133 75 75 83
0.87330 -4.10450 1.47465 68 67 70
0.85500 -4.11411 1.46201 50 52 51
0.86425 -4.12221 1.47802 53 59 54
0.85345 -4.13698 1.48161 53 59 60
0.83507 -4.14662 1.46892 65 67 74
0.81499 -4.24115 1.49788 48 50 55
0.82534 -4.23340 1.47685 57 57 59
0.80283 -4.25427 1.50169 45 45 49
1.02423 -5.17975 1.51100 38 47 53
1.04648 -5.16807 1.52637 34 46 54
1.04153 -5.16928 1.50614 31 46 46
1.02918 -5.17853 1.53123 35 46 52
1.00873 -5.19397 1.51568 46 53 59
0.99726 -5.21677 1.51997 50 63 67
0.97509 -5.21698 1.52531 63 75 80
0.94957 -5.20981 1.53096 76 85 88
0.92738 -5.22146 1.51563 85 98 103
0.92980 -5.21479 1.53604 80 88 89
0.61532 -4.88450 1.58926 52 44 37
0.60095 -4.89764 1.59360 26 20 19
0.58673 -4.91122 1.59793 19 23 24
0.57512 -4.93116 1.60207 42 46 58
0.55993 -4.94259 1.60649 106 107 109
0.54626 -4.95783 1.61080 142 135 124
0.52574 -4.96859 1.59662 142 131 112
0.13720 -4.51452 1.67911 156 143 125
0.14729 -4.50696 1.65860 156 142 132
0.13315 -4.51551 1.66257 154 145 134
0.11467 -4.49915 1.68348 144 126 91
0.10566 -4.52224 1.68720 101 83 56
0.09316 -4.53547 1.69110 63 60 43
0.07486 -4.53168 1.69524 68 67 64
0.05035 -4.50913 1.69960 79 80 72
0.02925 -4.49615 1.70379 99 102 104
0.00843 -4.48351 1.70794 121 122 112
-0.00251 -4.50087 1.71174 113 108 119
-0.01678 -4.50806 1.71565 137 137 141
-0.02669 -4.51548 1.73578 157 150 136
-0.03066 -4.51645 1.71955 156 150 140
-0.36084 -4.23271 1.77968 159 147 129
-0.37968 -4.21593 1.78307 115 101 71
-0.38832 -4.23900 1.78671 79 71 52
-0.40387 -4.23464 1.79015 49 37 41
-0.42083 -4.22417 1.79351 25 20 22
-0.43690 -4.23260 1.78242 20 18 14
-0.95415 -3.58926 1.87872 9 9 22
-0.94703 -3.58392 1.86425 14 11 14
-0.95700 -3.58996 1.86706 12 11 13
-0.97683 -3.58046 1.88358 46 56 74
-0.98391 -3.58576 1.89796 145 143 136
-0.98557 -3.59563 1.88670 89 102 115
-0.99267 -3.60094 1.90112 157 147 131
-0.99552 -3.60164 1.88949 131 135 132
2.56868 -2.74165 0.95891 248 252 252
2.58585 -2.73264 0.97077 254 254 254
2.58203 -2.73358 0.95516 253 254 254
2.57250 -2.74072 0.97452 253 254 253
2.54164 -2.74057 0.96539 236 242 246
2.52990 -2.74967 0.96881 219 222 238
2.49729 -2.74465 0.97639 197 197 221
2.52348 -2.77954 0.97229 156 154 173
2.51393 -2.78670 0.99169 124 116 149
2.50627 -2.78857 0.96040 108 98 109
2.54430 -2.81110 0.96927 108 102 125
2.53467 -2.81831 0.98884 107 105 112
1.51002 -2.68096 1.21133 163 144 144
1.51823 -2.67480 1.19464 165 143 126
1.47755 -2.70369 1.22066 189 195 199
1.45196 -2.69790 1.22648 175 178 189
1.44378 -2.70403 1.24310 175 182 187
1.44050 -2.70484 1.22970 173 182 185
1.43722 -2.70564 1.21630 173 182 186
1.31632 -2.74685 1.26247 172 179 183
1.32444 -2.74077 1.24597 170 179 191
1.30896 -2.75765 1.26494 152 159 158
1.30451 -2.77135 1.26690 125 123 138
1.29644 -2.78157 1.26951 129 139 151
1.30277 -2.80617 1.26956 159 172 187
1.28647 -2.84555 1.27604 165 178 188
1.30137 -2.83773 1.28633 170 179 189
1.29805 -2.83855 1.27278 168 179 187
1.28978 -2.84474 1.28958 168 180 192
1.27820 -2.85175 1.29284 170 180 190
1.27157 -2.85338 1.26574 156 165 174
1.29524 -2.99037 1.28322 174 185 187
1.30379 -2.98396 1.26584 172 185 192
1.29181 -2.99121 1.26921 175 185 190
1.29182 -3.00681 1.28510 150 159 165
1.27972 -3.01398 1.28849 135 140 145
1.26214 -3.03559 1.29414 138 149 157
1.25869 -3.03643 1.28005 133 144 157
1.24664 -3.04372 1.28343 135 148 166
1.25695 -3.05044 1.29635 141 152 164
1.24142 -3.05859 1.28561 142 154 171
1.24088 -3.07409 1.30176 151 161 163
1.24428 -3.09889 1.30253 123 124 125
1.25788 -3.13551 1.30159 98 91 94
1.24206 -3.14381 1.29066 88 88 93
1.28895 -3.23657 1.30056 88 89 86
1.30518 -3.22805 1.31177 97 92 95
1.30157 -3.22894 1.29701 91 88 89
1.29535 -3.31182 1.30384 76 80 95
1.29061 -3.32921 1.30611 81 93 113
1.29264 -3.35487 1.30726 88 111 138
1.27101 -3.35218 1.31233 102 129 161
1.26679 -3.37053 1.31453 116 148 186
1.25886 -3.38449 1.31735 129 164 204
1.24550 -3.39183 1.32105 140 180 223
1.23800 -3.40645 1.32381 156 194 241
1.22244 -3.41108 1.32787 176 208 246
1.21577 -3.42687 1.33050 197 221 245
1.20746 -3.44069 1.33340 216 234 246
1.19071 -3.44949 1.32183 240 248 249
1.20038 -3.45618 1.33611 233 244 248
1.18359 -3.46499 1.32451 247 250 250
1.14979 -3.46490 1.34892 247 249 250
1.15906 -3.45795 1.33007 249 250 251
1.14607 -3.46581 1.33372 249 251 252
1.11809 -3.47304 1.35712 228 231 239
1.07332 -3.48860 1.36896 234 237 242
1.08256 -3.48168 1.35019 232 235 241
1.05793 -3.49306 1.37297 237 243 247
1.04501 -3.50088 1.37660 247 250 252
1.04131 -3.50178 1.36149 248 251 253
0.99761 -3.51216 1.38880 244 247 231
0.98507 -3.52042 1.39237 186 188 162
0.97219 -3.52821 1.39599 101 99 85
0.96333 -3.54180 1.39901 56 53 53
0.96702 -3.54089 1.41410 77 71 70
0.95412 -3.54870 1.41772 82 77 82
0.97271 -3.58201 1.39932 57 54 70
0.96342 -3.58897 1.41821 89 83 86
0.95969 -3.58989 1.40298 80 80 91
1.05559 -3.84503 1.39615 105 106 101
1.04834 -3.86345 1.39909 108 111 116
1.03049 -3.87282 1.38676 116 122 122
1.04145 -3.88257 1.40199 115 111 115
1.02027 -3.90980 1.40886 107 110 120
1.01405 -3.93040 1.41169 115 121 130
0.99994 -3.93870 1.41564 117 114 123
0.98723 -3.94924 1.41940 114 104 95
0.97840 -3.96605 1.42262 122 126 137
0.97026 -3.98411 1.42575 119 126 137
0.95763 -3.99499 1.42950 141 156 144
0.94792 -4.01072 1.43286 134 137 130
0.93578 -4.02252 1.43656 89 93 85
0.92448 -4.03580 1.44015 76 80 85
0.89973 -4.05889 1.44763 73 81 91
0.88981 -4.07473 1.45105 64 59 81
0.87847 -4.08824 1.45466 57 58 64
0.86021 -4.09783 1.44204 48 50 52
0.87006 -4.10695 1.45790 55 55 55
0.85175 -4.11656 1.44525 50 51 56
0.81949 -4.25819 1.47986 56 54 57
0.80614 -4.26923 1.48380 50 53 57
0.79296 -4.28065 1.48773 41 45 45
0.78256 -4.28845 1.50886 36 38 43
0.77839 -4.28947 1.49182 34 36 37
0.77422 -4.29049 1.47478 32 38 41
0.95868 -5.19372 1.50627 68 84 94
0.93444 -5.18904 1.51183 80 93 105
0.63988 -4.86033 1.56203 105 119 111
0.66027 -4.84963 1.57612 94 100 101
0.65573 -4.85074 1.55758 98 111 105
0.62161 -4.91105 1.56972 46 44 43
0.60566 -4.92070 1.57420 26 21 22
0.58971 -4.93035 1.57868 20 22 24
0.58181 -4.95949 1.58247 42 47 58
0.56243 -4.96098 1.58725 108 110 109
0.54841 -4.97550 1.59158 142 135 121
0.52782 -4.98631 1.57736 141 130 112
0.09574 -4.50622 1.67103 150 134 105
0.07674 -4.50026 1.67525 123 106 64
0.06532 -4.51638 1.67905 97 80 62
0.04980 -4.52045 1.68307 65 56 38
0.02809 -4.50567 1.68737 60 60 77
0.01173 -4.50672 1.69140 79 87 88
-0.00559 -4.50463 1.69546 68 65 99
-0.02303 -4.50192 1.69951 108 110 123
-0.03712 -4.50954 1.70341 149 147 139
-0.04701 -4.51695 1.72351 160 152 141
-0.05097 -4.51792 1.70731 161 152 140
-0.05494 -4.51889 1.69110 161 152 138
-0.34910 -4.23648 1.76141 165 156 134
-0.33284 -4.22794 1.77264 164 154 141
-0.33646 -4.22883 1.75786 163 154 134
-0.34008 -4.22972 1.74307 164 153 133
-0.35921 -4.25395 1.76498 152 136 113
-0.38302 -4.21780 1.76842 112 92 63
-0.38548 -4.26554 1.77208 70 63 49
-0.40399 -4.24953 1.77554 42 35 37
-0.42018 -4.25803 1.76435 23 21 15
-0.41985 -4.24375 1.77900 25 20 16
-0.43598 -4.25221 1.76786 20 19 19
-0.96897 -3.58102 1.86938 8 9 16
-0.96188 -3.57571 1.85497 13 11 15
-0.97182 -3.58171 1.85776 12 11 15
-0.98175 -3.58772 1.86055 10 10 17
-0.98012 -3.57769 1.87187 6 11 30
-0.99746 -3.60966 1.87812 69 82 99
-1.00457 -3.61499 1.89257 154 144 134
-1.00742 -3.61568 1.88092 115 121 125
-1.01027 -3.61638 1.86926 44 58 70
2.55503 -2.68580 0.94223 252 254 254
2.57198 -2.67690 0.95395 254 254 254
2.56821 -2.67782 0.93853 254 254 254
2.55880 -2.68487 0.95765 254 254 254
2.54561 -2.69285 0.96136 254 254 254
2.56001 -2.70571 0.94223 245 251 253
2.54003 -2.70927 0.94732 234 240 249
2.48814 -2.69154 0.95891 209 215 235
2.49615 -2.71359 0.95830 165 172 202
2.49170 -2.72743 0.96023 129 126 174
2.50379 -2.75256 0.95881 105 87 151
2.49404 -2.76300 0.96183 95 77 112
2.52591 -2.81949 0.95749 125 119 117
2.51628 -2.82670 0.97706 100 100 104
2.51242 -2.82765 0.96128 115 108 104
1.51440 -2.68855 1.19642 154 138 135
1.52263 -2.68238 1.17968 166 145 126
1.50503 -2.69746 1.19925 187 185 191
1.48709 -2.71608 1.20476 202 208 209
1.46151 -2.71036 1.21066 177 178 185
1.44671 -2.71813 1.20043 171 181 185
1.31990 -2.75428 1.24790 172 179 195
1.32804 -2.74818 1.23136 170 179 191
1.31664 -2.75508 1.23457 172 179 196
1.31286 -2.76544 1.25030 161 167 180
1.30288 -2.77376 1.25324 144 140 148
1.31063 -2.79966 1.25293 149 163 171
1.30753 -2.81500 1.25462 163 179 189
1.30162 -2.82763 1.25684 167 183 185
1.28674 -2.83543 1.24656 150 160 176
1.29435 -2.83897 1.25930 162 173 180
1.27945 -2.84679 1.24901 154 164 176
1.28890 -2.85222 1.26144 158 169 178
1.29257 -3.01215 1.27030 166 175 181
1.30116 -3.00571 1.25284 174 185 196
1.28108 -3.02001 1.27358 151 157 155
1.27253 -3.03110 1.27634 139 147 153
1.24846 -3.08732 1.28565 147 156 164
1.25714 -3.08081 1.26800 140 153 170
1.25931 -3.12063 1.28503 126 128 134
1.26716 -3.15091 1.28496 99 94 94
1.25127 -3.15926 1.27398 83 95 110
1.28273 -3.23442 1.28625 84 99 106
1.29172 -3.22768 1.26797 82 102 126
1.27912 -3.23531 1.27151 81 106 134
1.28987 -3.26512 1.28638 75 88 104
1.29876 -3.29820 1.28623 73 87 112
1.28546 -3.30535 1.28991 80 100 130
1.28767 -3.33099 1.29094 87 113 145
1.27225 -3.33571 1.29499 96 127 160
1.26546 -3.35083 1.29757 107 142 178
1.25705 -3.36407 1.30043 123 159 200
1.24907 -3.37793 1.30322 140 177 222
1.23857 -3.38875 1.30644 155 194 237
1.22245 -3.39261 1.31062 174 208 246
1.21200 -3.40353 1.31383 195 221 249
1.20448 -3.41821 1.31656 216 234 248
1.18781 -3.42696 1.30504 244 249 250
1.19905 -3.43564 1.31895 231 242 248
1.18233 -3.44442 1.30740 247 251 251
1.11995 -3.45634 1.33952 245 249 249
1.12918 -3.44942 1.32077 249 252 252
1.11625 -3.45724 1.32440 251 252 251
1.10451 -3.46081 1.34356 237 240 243
1.08433 -3.45889 1.34837 235 236 243
1.06777 -3.46759 1.33693 238 239 246
1.05551 -3.47031 1.35610 231 235 241
1.05183 -3.47121 1.34106 238 245 246
1.04277 -3.47825 1.35970 238 244 248
1.01973 -3.49756 1.36650 246 251 251
1.00394 -3.50126 1.37058 242 237 246
0.98820 -3.50498 1.37465 235 230 240
0.97418 -3.51107 1.37844 216 225 226
0.95501 -3.50976 1.38304 154 164 165
0.98137 -3.57412 1.38053 77 86 84
0.94488 -3.54781 1.38783 50 49 66
0.92830 -3.55651 1.37638 75 80 87
0.96435 -3.60311 1.38645 73 74 89
0.95502 -3.61009 1.40541 98 98 97
0.95128 -3.61101 1.39012 103 109 110
0.94754 -3.61193 1.37484 106 118 122
1.04038 -3.85834 1.38346 128 129 117
1.02080 -3.88772 1.39003 107 114 114
1.01682 -3.88869 1.37377 90 94 99
1.00959 -3.90034 1.39353 105 113 121
0.99968 -3.91508 1.39685 108 121 126
0.98893 -3.92857 1.40030 117 125 123
0.98439 -3.95209 1.40284 148 154 136
0.97658 -3.97057 1.40588 154 159 161
0.96147 -3.97736 1.40998 118 115 134
0.94676 -3.98476 1.41402 113 122 129
0.93778 -4.00163 1.41724 114 130 124
0.93152 -4.02316 1.42008 85 95 92
0.92082 -4.03743 1.42356 72 70 74
0.90264 -4.04698 1.41100 65 64 60
0.90858 -4.04919 1.42727 69 69 71
0.89654 -4.06136 1.43095 68 79 83
0.88765 -4.07901 1.43420 60 59 70
0.86939 -4.08859 1.42158 48 50 46
0.87809 -4.09564 1.43754 52 52 52
0.85980 -4.10524 1.42490 46 49 50
0.83635 -4.22685 1.45573 56 60 58
0.85086 -4.21808 1.45166 56 58 57
0.84670 -4.21910 1.43470 53 56 62
0.84050 -4.22583 1.47269 54 58 54
0.81770 -4.23664 1.44285 67 77 83
0.83011 -4.25083 1.45872 63 70 72
0.82338 -4.27417 1.46178 63 65 67
0.81086 -4.28690 1.46562 53 55 57
0.79895 -4.30086 1.46938 41 47 48
0.78012 -4.31075 1.45637 35 38 40
0.91121 -5.15067 1.49380 69 72 83
0.89497 -5.16274 1.49850 81 89 98
0.67070 -4.89646 1.53700 102 118 111
0.69128 -4.88566 1.55122 74 83 94
0.68670 -4.88678 1.53251 74 81 85
0.68212 -4.88790 1.51380 81 90 86
0.65012 -4.90726 1.52279 95 105 102
0.64776 -4.93692 1.54507 73 81 84
0.63262 -4.94883 1.54949 41 43 50
0.61319 -4.95058 1.55434 28 24 27
0.59714 -4.96029 1.55885 21 23 29
0.58086 -4.96943 1.56338 43 50 59
0.56376 -4.97657 1.56799 108 113 110
0.54313 -4.98740 1.55374 139 132 124
0.54772 -4.98627 1.57250 140 134 122
0.52710 -4.99710 1.55825 140 129 115
0.09427 -4.51462 1.65442 159 147 130
0.10432 -4.50709 1.63400 153 145 132
0.09024 -4.51560 1.63796 157 147 134
0.07617 -4.52412 1.64191 157 149 137
0.07469 -4.50698 1.65874 158 144 118
0.04016 -4.50454 1.66702 119 99 67
0.02486 -4.50895 1.67102 93 85 80
0.00701 -4.50543 1.67516 92 93 81
-0.00849 -4.50894 1.67916 81 72 89
-0.02653 -4.50433 1.68328 101 90 101
-0.03904 -4.51701 1.68711 144 142 136
-0.05688 -4.52638 1.67478 160 150 140
-0.34990 -4.24819 1.74660 166 154 129
-0.34085 -4.24141 1.72821 164 154 137
-0.36297 -4.25431 1.75016 144 125 102
-0.38042 -4.24308 1.75374 107 85 58
-0.38708 -4.27453 1.75728 64 57 48
-0.40801 -4.24872 1.76081 35 33 32
-0.42420 -4.25721 1.74964 20 22 15
2.55190 -2.65417 0.92477 251 254 254
2.56875 -2.64533 0.93641 254 254 254
2.56500 -2.64625 0.92109 254 254 254
2.55565 -2.65325 0.94010 254 254 254
2.54113 -2.66361 0.92797 242 248 251
2.54004 -2.67940 0.92915 224 230 243
2.51001 -2.67625 0.93636 189 199 223
2.51965 -2.69921 0.93531 148 157 192
2.49349 -2.69852 0.94171 108 101 155
2.48212 -2.70764 0.94503 67 54 110
2.46998 -2.71625 0.94851 49 36 81
2.46200 -2.72769 0.95114 60 52 87
2.46008 -2.74332 0.95251 87 78 93
2.50775 -2.79316 0.94366 121 113 116
2.50149 -2.80621 0.94595 146 141 128
2.50790 -2.82814 0.94564 133 124 107
2.49827 -2.83535 0.96521 82 79 79
2.49441 -2.83630 0.94943 98 88 77
1.52745 -2.70384 1.17973 156 139 130
1.53573 -2.69763 1.16290 168 146 125
1.52413 -2.70465 1.16616 161 142 123
1.52732 -2.72108 1.18076 175 165 169
1.50419 -2.71783 1.18626 205 207 212
1.48927 -2.72566 1.17595 217 216 217
1.48836 -2.72102 1.19034 215 216 214
1.46878 -2.72076 1.19515 180 184 190
1.45392 -2.72856 1.18488 173 179 183
1.31928 -2.77572 1.23511 163 172 188
1.32746 -2.76959 1.21848 170 180 190
1.31600 -2.77652 1.22170 171 180 190
1.32254 -2.79715 1.23554 163 170 169
1.30772 -2.80492 1.22530 167 182 197
1.32279 -2.81578 1.23656 166 181 192
1.31561 -2.82717 1.23898 161 179 189
1.30071 -2.83500 1.22868 149 155 172
1.30851 -2.83869 1.24139 157 170 178
1.28596 -2.87236 1.24888 160 169 176
1.27764 -2.87859 1.26580 160 167 179
1.27097 -2.88023 1.23852 172 185 193
1.27788 -2.88310 1.25149 165 175 186
1.26286 -2.89098 1.24112 173 186 193
1.30325 -3.02820 1.25362 175 185 192
1.31189 -3.02172 1.23607 173 185 201
1.29979 -3.02904 1.23947 173 185 196
