ply
format ascii 1.0
element face 0
property list uchar int vertex_indices
element vertex 1331
property float x
property float y
property float z
property uchar diffuse_red
property uchar diffuse_green
property uchar diffuse_blue
end_header
2.20181 -2.80938 -0.23065 101 87 104
2.20410 -2.82127 -0.21094 62 56 138
2.20312 -2.83974 -0.20769 38 43 143
2.19857 -2.85537 -0.20289 31 35 114
2.19633 -2.87299 -0.19906 26 30 96
2.27281 -3.03822 -0.21701 38 34 43
2.27207 -3.05826 -0.21366 65 61 47
2.29128 -3.09586 -0.21873 105 100 92
2.29937 -3.12404 -0.21906 128 123 124
2.28820 -3.13539 -0.21124 132 136 131
2.27669 -3.14643 -0.20327 139 144 131
2.19833 -3.16098 -0.15791 152 149 144
2.21711 -3.14640 -0.15010 143 142 144
2.20974 -3.15004 -0.16580 151 150 153
2.19430 -3.16828 -0.13431 141 132 130
2.19282 -3.17736 -0.15247 147 140 136
2.18878 -3.18467 -0.12883 138 133 126
2.18140 -3.18832 -0.14456 141 139 137
2.17401 -3.19197 -0.16028 141 138 137
1.77582 -3.49287 0.12386 140 123 102
1.79438 -3.47845 0.13157 141 123 102
1.78709 -3.48206 0.11605 141 124 107
1.78311 -3.48927 0.13938 140 122 98
1.77183 -3.50009 0.14719 140 122 98
1.76454 -3.50369 0.13166 141 122 99
1.76332 -3.52626 0.13565 142 122 101
1.77063 -3.52265 0.15123 141 122 101
1.75932 -3.53350 0.15906 139 122 103
1.75227 -3.53743 0.14338 139 123 104
1.74828 -3.54467 0.16679 139 123 101
1.74345 -3.55125 0.15027 140 127 106
1.73945 -3.55849 0.17370 142 121 97
1.73246 -3.56251 0.15799 144 131 107
1.72846 -3.56975 0.18142 140 120 100
1.71848 -3.57017 0.16683 141 129 111
1.70477 -3.57813 0.17556 139 133 113
1.69224 -3.58749 0.18384 148 139 125
1.66735 -3.58166 0.19672 150 143 140
1.64754 -3.58188 0.20767 168 173 164
1.31250 -3.39458 0.36501 147 151 141
1.31615 -3.38798 0.34365 143 149 158
1.29549 -3.39558 0.37453 73 72 78
1.28172 -3.40079 0.38289 26 24 61
1.26479 -3.41394 0.37586 19 20 53
1.24161 -3.44164 0.41101 22 25 53
1.24525 -3.43506 0.38973 22 24 49
1.23496 -3.44493 0.39685 25 25 48
1.22966 -3.44920 0.41871 38 48 81
1.22578 -3.46800 0.42361 65 81 106
1.21956 -3.48364 0.42934 82 94 103
1.22800 -3.52015 0.43004 75 84 81
1.21087 -3.53345 0.42293 69 80 80
1.21955 -3.53292 0.43658 61 59 57
1.21645 -3.55342 0.44129 47 40 55
1.21720 -3.57965 0.44473 31 30 49
1.21350 -3.58636 0.46643 21 25 35
1.20854 -3.59237 0.45137 28 30 41
1.20484 -3.59908 0.47309 23 27 33
1.21130 -3.62191 0.45418 32 32 42
1.20542 -3.63893 0.45993 38 39 51
1.19968 -3.65628 0.46564 46 45 49
1.20167 -3.68532 0.46880 56 60 73
1.18414 -3.69893 0.46152 73 74 82
1.19237 -3.69757 0.47573 70 73 67
1.17483 -3.71119 0.46844 65 69 78
1.14490 -3.73088 0.50680 61 69 86
1.14866 -3.72408 0.48481 52 55 78
1.12597 -3.75496 0.52078 66 72 77
1.11788 -3.76922 0.52733 58 61 69
1.11337 -3.78926 0.53276 49 51 63
1.10588 -3.80464 0.53915 44 41 64
1.10060 -3.82369 0.54486 35 31 59
1.08295 -3.83740 0.53752 24 21 51
1.09119 -3.83612 0.55187 28 26 55
1.07353 -3.84983 0.54453 21 21 51
1.03207 -4.02367 0.61201 22 20 47
1.05011 -4.00966 0.61950 22 20 46
1.04302 -4.01316 0.60442 21 19 45
1.01518 -4.02366 0.62132 45 51 81
1.01677 -4.05650 0.62526 105 116 133
0.99868 -4.07055 0.61774 127 132 142
0.98356 -4.08767 0.64815 123 129 136
0.98745 -4.08064 0.62542 123 130 137
0.97592 -4.10435 0.65482 110 113 109
0.97383 -4.13142 0.65994 48 47 55
0.95564 -4.14554 0.65238 28 26 29
0.96788 -4.15153 0.66617 33 28 28
0.96430 -4.20796 0.67643 40 33 44
0.97362 -4.25779 0.67860 52 47 51
0.98878 -4.31948 0.67929 61 59 68
0.97984 -4.36845 0.69140 85 85 81
0.96835 -4.37942 0.69935 92 95 84
0.95741 -4.39148 0.70716 99 102 88
0.93852 -4.40615 0.69930 113 111 100
0.84689 -4.47514 0.78040 99 103 94
0.86572 -4.46052 0.78822 98 102 93
0.85093 -4.46783 0.75673 112 113 106
0.85429 -4.47149 0.79614 98 104 100
0.84285 -4.48246 0.80406 94 96 94
0.83546 -4.48611 0.78832 87 91 83
0.73025 -4.54251 0.85463 110 110 98
0.73426 -4.53524 0.83112 113 112 103
0.72005 -4.55609 0.86224 109 105 113
0.70943 -4.56871 0.86995 97 84 96
0.69953 -4.58306 0.87752 96 95 89
0.68080 -4.59761 0.86973 106 108 101
0.68953 -4.59722 0.88512 103 106 97
0.67078 -4.61178 0.87732 110 115 108
0.20938 -4.99956 1.20901 59 53 50
0.16631 -4.94993 1.22549 23 17 24
1.84579 -1.55551 -0.21325 28 19 31
1.85366 -1.57123 -0.21536 43 33 43
1.85859 -1.58556 -0.21603 54 42 56
1.85970 -1.59803 -0.21486 70 51 66
2.59067 -2.12592 -0.54446 47 35 33
2.59429 -2.11936 -0.56568 56 41 43
2.58208 -2.13668 -0.53815 33 26 23
2.50833 -2.22032 -0.48524 17 11 24
2.51197 -2.21374 -0.50651 11 8 41
2.50169 -2.22360 -0.49939 16 9 29
2.49141 -2.23346 -0.49228 24 13 34
2.50633 -2.23511 -0.48200 16 14 35
2.48936 -2.24828 -0.48905 14 8 43
2.49836 -2.24639 -0.47597 12 10 46
2.48863 -2.27280 -0.46678 33 24 88
2.47018 -2.29401 -0.45350 46 33 70
2.46349 -2.29732 -0.46774 54 28 63
2.46326 -2.30606 -0.44793 49 21 40
2.45415 -2.31677 -0.44134 64 40 35
2.44895 -2.32996 -0.43656 73 50 30
2.44161 -2.34184 -0.43078 39 25 65
2.42964 -2.35079 -0.42286 18 22 94
2.40467 -2.38467 -0.40415 25 29 128
2.38756 -2.39797 -0.41126 34 36 131
2.39396 -2.41129 -0.39438 39 46 135
2.38916 -2.42503 -0.38974 91 61 144
2.35091 -2.41637 -0.36978 185 148 133
2.37296 -2.44823 -0.37743 204 87 29
2.37166 -2.46449 -0.37438 205 96 45
2.35652 -2.47134 -0.36499 201 108 84
2.34061 -2.49491 -0.35278 134 90 135
2.33383 -2.49826 -0.36721 90 97 162
2.33544 -2.50869 -0.34794 104 80 159
2.31246 -2.52741 -0.33250 79 67 172
2.30329 -2.53842 -0.32584 65 66 173
2.28601 -2.55184 -0.33302 53 52 161
2.28675 -2.54413 -0.31585 58 53 160
2.26950 -2.55752 -0.32301 55 56 158
2.22711 -2.57120 -0.27888 81 66 124
2.23754 -2.56120 -0.28610 65 63 151
2.21437 -2.57947 -0.27063 94 74 84
2.20853 -2.59289 -0.26546 97 69 73
2.19827 -2.60302 -0.25832 131 97 81
2.19449 -2.61808 -0.25406 139 114 87
2.18934 -2.63217 -0.24918 52 31 75
2.19979 -2.65834 -0.25122 98 99 150
2.20575 -2.69966 -0.24859 72 83 170
2.18827 -2.71323 -0.25585 37 50 162
2.20134 -2.71472 -0.24398 36 45 163
2.18383 -2.72832 -0.25125 41 50 162
2.18916 -2.78005 -0.22784 98 68 126
2.20682 -2.76634 -0.22050 46 53 161
2.19989 -2.76977 -0.23527 53 52 148
2.17610 -2.80751 -0.21665 77 82 104
2.18320 -2.83256 -0.21699 40 40 113
2.18874 -2.85651 -0.21663 26 25 94
2.19182 -2.87859 -0.21516 19 23 79
2.20221 -2.90699 -0.21685 20 22 68
2.18415 -2.92102 -0.22436 21 20 43
2.22383 -2.94515 -0.22336 22 21 56
2.20559 -2.95931 -0.23094 27 24 37
2.25628 -3.03386 -0.22862 39 34 49
2.26026 -3.02664 -0.25197 38 31 43
2.26274 -3.06015 -0.22843 72 66 53
2.28031 -3.09639 -0.23297 109 107 94
2.28175 -3.11874 -0.23056 124 121 122
2.27064 -3.13007 -0.22277 127 128 132
2.25174 -3.14475 -0.23062 152 152 146
2.25849 -3.14049 -0.21453 142 144 138
2.25444 -3.14783 -0.19079 143 134 132
2.24702 -3.15149 -0.20659 147 143 140
2.19541 -3.14733 -0.17856 157 153 145
2.20679 -3.13642 -0.18644 150 144 141
2.19943 -3.14005 -0.20211 137 138 129
2.18985 -3.16361 -0.17314 154 148 142
2.17108 -3.17819 -0.18095 139 133 129
2.18354 -3.17926 -0.16740 147 141 137
2.16474 -3.19387 -0.17521 137 138 132
1.99541 -3.34890 -0.03869 146 153 140
2.01418 -3.33432 -0.03089 138 141 137
2.00681 -3.33796 -0.04659 136 131 133
2.00278 -3.34526 -0.02300 142 144 138
1.98804 -3.35254 -0.05439 153 158 139
1.99138 -3.35619 -0.01511 141 141 136
1.95358 -3.37367 -0.01194 134 135 134
1.97231 -3.35913 -0.00415 137 140 131
1.96495 -3.36276 -0.01981 135 139 125
1.95760 -3.36639 -0.03547 134 133 126
1.96093 -3.37003 0.00372 125 128 130
1.94221 -3.38458 -0.00406 139 140 130
1.89106 -3.42205 0.02968 139 131 115
1.90975 -3.40754 0.03745 137 131 122
1.90241 -3.41116 0.02182 138 133 126
1.89507 -3.41479 0.00620 139 135 131
1.89840 -3.41843 0.04531 133 126 112
1.88705 -3.42932 0.05317 136 123 102
1.87334 -3.42596 0.04007 140 125 105
1.86934 -3.43321 0.06351 140 121 100
1.86201 -3.43683 0.04792 143 122 103
1.81027 -3.47300 0.08181 143 123 107
1.82888 -3.45855 0.08955 141 122 104
1.82157 -3.46216 0.07398 142 123 106
1.81758 -3.46939 0.09738 141 122 104
1.80627 -3.48024 0.10520 141 122 108
1.79693 -3.48153 0.09043 142 126 113
1.78122 -3.48730 0.09997 142 130 118
1.76813 -3.49603 0.10848 143 131 119
1.76430 -3.51552 0.11341 146 134 119
1.74569 -3.52997 0.10567 150 147 139
1.75615 -3.53005 0.12002 148 135 119
1.73752 -3.54452 0.11227 147 144 137
1.74488 -3.54096 0.12783 144 134 121
1.73536 -3.55395 0.13498 147 142 127
1.71672 -3.56843 0.12723 159 154 141
1.72432 -3.56515 0.14271 154 147 128
1.71046 -3.57295 0.15152 144 137 128
1.69183 -3.58741 0.14377 146 139 139
1.69511 -3.57890 0.16088 140 138 130
1.68017 -3.58528 0.17009 155 153 140
1.66159 -3.59971 0.16237 158 154 146
1.65967 -3.58475 0.18138 157 152 148
1.63390 -3.57754 0.19464 169 168 157
1.31973 -3.41635 0.34573 146 150 142
1.32340 -3.40971 0.32426 142 148 158
1.30636 -3.42230 0.35401 72 73 77
1.28720 -3.42041 0.36436 25 24 52
1.27019 -3.43362 0.35729 18 20 48
1.21965 -3.44779 0.40576 30 32 55
1.22328 -3.44122 0.38452 25 27 49
1.21301 -3.45107 0.39162 28 29 44
1.22221 -3.47563 0.40834 40 49 70
1.22501 -3.50409 0.41087 56 67 85
1.20751 -3.55359 0.42768 66 70 73
1.21270 -3.58630 0.42950 59 60 71
1.19541 -3.59973 0.42232 63 70 85
1.20722 -3.60373 0.43504 55 60 66
1.18990 -3.61718 0.42784 59 70 81
1.20668 -3.62852 0.43890 53 57 66
1.18929 -3.64203 0.43168 58 71 77
1.21165 -3.66172 0.44091 54 61 72
1.20527 -3.67826 0.44683 60 68 76
1.19906 -3.69516 0.45270 68 78 91
1.14413 -3.74380 0.49015 56 66 85
1.13449 -3.75563 0.49719 57 64 79
1.12854 -3.77333 0.50303 52 52 71
1.12655 -3.79744 0.50760 46 44 62
1.10890 -3.81115 0.50026 29 21 52
1.11593 -3.80788 0.51499 38 35 55
1.09827 -3.82159 0.50765 23 21 46
1.10964 -3.82535 0.52099 31 29 53
1.09891 -3.83567 0.52842 27 23 52
1.05157 -4.01429 0.58033 27 22 52
1.06964 -4.00025 0.58784 23 22 51
1.06255 -4.00376 0.57273 23 22 54
1.05867 -4.01078 0.59544 23 22 49
1.03727 -4.01899 0.58894 30 31 57
1.02897 -4.03421 0.59572 48 60 82
1.01685 -4.04270 0.60366 90 100 114
0.99879 -4.05673 0.59616 127 133 136
1.01473 -4.06909 0.60863 123 131 142
0.99660 -4.08317 0.60109 124 131 136
0.98309 -4.10333 0.63109 120 127 130
0.98698 -4.09628 0.60830 121 129 133
0.98572 -4.13911 0.63477 101 101 97
0.97106 -4.14310 0.64348 36 33 35
0.95622 -4.17811 0.65673 37 31 42
0.96710 -4.23059 0.65824 48 37 56
0.98738 -4.30177 0.65721 69 67 63
0.98731 -4.33453 0.66195 80 78 84
0.97862 -4.35083 0.66912 92 89 90
0.95977 -4.36547 0.66128 106 105 93
0.96884 -4.36507 0.67659 99 102 88
0.94997 -4.37972 0.66875 105 101 99
0.95642 -4.37416 0.68478 102 105 92
0.93757 -4.38880 0.67694 112 114 97
0.94671 -4.38862 0.69224 108 109 92
0.92785 -4.40327 0.68440 115 112 101
0.83174 -4.46223 0.76657 107 108 96
0.83577 -4.45494 0.74300 111 114 106
0.82438 -4.46587 0.75089 110 113 100
0.81298 -4.47680 0.75878 103 108 95
0.82508 -4.48335 0.77330 97 100 87
0.81366 -4.49430 0.78121 98 99 98
0.80627 -4.49795 0.76549 105 107 100
0.71632 -4.53102 0.84047 115 116 112
0.72032 -4.52378 0.81704 114 114 108
0.70907 -4.55131 0.84740 92 87 91
0.69936 -4.56599 0.85490 89 90 90
0.68066 -4.58051 0.84713 109 112 98
0.68847 -4.57799 0.86266 101 106 95
0.66977 -4.59251 0.85489 109 110 102
0.20470 -5.01214 1.19331 63 57 51
1.84406 -1.57155 -0.22428 33 24 30
1.84930 -1.58605 -0.22516 47 35 48
1.85547 -1.60114 -0.22649 62 42 63
1.85929 -1.61511 -0.22666 76 54 72
1.85642 -1.62031 -0.20984 82 60 61
1.85117 -1.62291 -0.22103 81 60 66
1.84591 -1.62550 -0.23222 79 55 61
2.57632 -2.14045 -0.55269 35 27 23
2.56970 -2.15234 -0.54733 18 12 15
2.56607 -2.15891 -0.52608 10 5 22
2.55943 -2.16219 -0.54022 11 6 20
2.55278 -2.16548 -0.55435 12 7 19
2.48508 -2.26182 -0.48477 12 10 64
2.48873 -2.25522 -0.50612 20 11 44
2.47841 -2.26512 -0.49897 9 10 58
2.46809 -2.27502 -0.49183 17 12 70
2.47791 -2.27364 -0.47911 28 19 78
2.47586 -2.28864 -0.47586 53 35 81
2.46067 -2.31193 -0.46411 83 51 40
2.45523 -2.32498 -0.45925 100 73 29
2.43814 -2.33825 -0.46635 105 78 43
2.44182 -2.33301 -0.45064 107 75 38
2.42474 -2.34628 -0.45774 110 78 47
2.42782 -2.34065 -0.44176 98 63 64
2.41473 -2.34884 -0.43331 46 31 80
2.39269 -2.36783 -0.41835 26 25 123
2.37565 -2.38107 -0.42544 37 37 127
2.38276 -2.37804 -0.41138 29 32 127
2.36572 -2.39127 -0.41847 38 39 126
2.37412 -2.40591 -0.40265 23 32 138
2.35037 -2.40693 -0.38926 110 79 158
2.34187 -2.41810 -0.38295 187 126 127
2.35499 -2.44396 -0.38664 198 89 24
2.35101 -2.45836 -0.38240 191 106 80
2.35665 -2.47943 -0.38258 158 121 127
2.33764 -2.48359 -0.37140 98 85 162
2.32221 -2.50752 -0.35943 82 79 166
2.31347 -2.51879 -0.35297 87 83 173
2.29621 -2.53219 -0.36015 52 58 158
2.29262 -2.52146 -0.34098 61 57 164
2.27541 -2.53483 -0.34813 50 56 158
2.28045 -2.53025 -0.33295 53 55 169
2.26325 -2.54361 -0.34010 47 55 159
2.20696 -2.54696 -0.28963 68 65 142
2.21731 -2.53703 -0.29679 55 61 157
2.19889 -2.55858 -0.28349 82 64 95
2.18934 -2.56912 -0.27669 89 69 76
2.19023 -2.58752 -0.27460 83 56 76
2.18507 -2.60146 -0.26976 124 99 95
2.17914 -2.61487 -0.26457 112 112 115
2.18321 -2.63600 -0.26387 54 49 92
2.17757 -2.64978 -0.25879 47 59 147
2.21232 -2.69507 -0.27181 103 119 201
2.18056 -2.68867 -0.25499 50 57 161
2.16317 -2.70217 -0.26222 38 47 159
2.18358 -2.76564 -0.24587 90 56 129
2.20119 -2.75196 -0.23855 42 49 161
2.19427 -2.75538 -0.25327 42 41 153
2.18499 -2.78573 -0.24384 131 86 94
2.18079 -2.80136 -0.23930 100 97 78
2.19290 -2.83048 -0.24196 58 61 89
2.19627 -2.85262 -0.24073 32 26 89
2.19187 -2.86845 -0.23605 24 20 74
2.19218 -2.88830 -0.23343 18 21 60
2.17418 -2.90227 -0.24091 19 21 32
2.19964 -2.91432 -0.23394 17 20 48
2.18155 -2.92836 -0.24146 24 23 35
2.23463 -3.02501 -0.23790 45 36 52
2.23252 -3.04377 -0.23409 79 73 67
2.27170 -3.09898 -0.24818 112 110 99
2.26610 -3.11511 -0.24279 124 123 125
2.25807 -3.12915 -0.23635 137 138 137
2.23920 -3.14381 -0.24419 151 147 146
2.17468 -3.13872 -0.18850 144 141 130
2.17868 -3.13146 -0.21196 136 137 127
2.16735 -3.14234 -0.20411 143 140 128
2.15601 -3.15322 -0.19626 142 135 128
2.16759 -3.15352 -0.18247 143 133 128
2.14890 -3.16804 -0.19024 134 132 128
1.99628 -3.33836 -0.06097 143 140 131
2.00766 -3.32743 -0.06886 142 138 135
1.96623 -3.35263 -0.04221 138 138 133
1.94132 -3.37212 -0.02559 146 151 131
1.93398 -3.37575 -0.04122 151 157 136
1.93405 -3.38736 -0.01939 146 141 122
1.93003 -3.39463 0.00413 142 143 132
1.92268 -3.39827 -0.01152 134 132 129
1.91533 -3.40190 -0.02717 135 136 132
1.87685 -3.41817 0.01683 143 140 125
1.88085 -3.41093 -0.00660 145 141 137
1.86187 -3.42502 0.02615 144 129 119
1.85175 -3.43719 0.03350 147 126 114
1.84775 -3.44443 0.05692 144 121 102
1.84471 -3.45282 0.03962 148 130 112
1.84071 -3.46007 0.06307 141 122 106
1.83538 -3.46595 0.04667 143 131 116
1.81579 -3.46750 0.05781 143 135 119
1.80145 -3.47490 0.06685 146 136 122
1.76178 -3.50072 0.09259 146 144 134
1.74321 -3.51515 0.08487 149 152 138
1.75597 -3.51793 0.09825 149 146 139
1.73736 -3.53238 0.09052 147 146 133
1.72382 -3.55252 0.12104 151 149 139
1.72781 -3.54529 0.09765 146 143 131
1.71650 -3.55614 0.10548 150 147 141
1.70520 -3.56698 0.11330 155 154 146
1.69882 -3.57132 0.13762 152 148 146
1.69151 -3.57493 0.12207 160 161 154
1.67043 -3.58588 0.15550 153 150 145
1.66314 -3.58948 0.13998 143 141 144
1.62953 -3.58469 0.17813 167 163 149
1.60867 -3.58334 0.18958 153 162 169
1.59029 -3.59762 0.18193 123 137 154
1.32203 -3.43167 0.32811 145 149 143
1.32571 -3.42501 0.30656 141 145 160
1.31920 -3.45184 0.33252 72 73 75
1.29179 -3.43893 0.34599 24 24 46
1.27470 -3.45220 0.33889 18 21 47
1.22019 -3.48549 0.39246 28 31 49
1.22384 -3.47888 0.37107 26 27 51
1.21351 -3.48880 0.37822 25 28 54
1.20317 -3.49871 0.38538 24 28 53
1.22829 -3.52157 0.39301 29 36 60
1.20893 -3.54366 0.40691 45 57 75
1.20574 -3.56414 0.41156 49 61 78
1.20521 -3.58865 0.41530 59 64 84
1.19965 -3.68356 0.43174 58 74 78
1.19473 -3.70245 0.43713 59 69 83
1.18532 -3.71463 0.44408 60 67 80
1.17792 -3.72990 0.45036 58 65 79
1.16899 -3.74289 0.45716 51 60 79
1.16172 -3.75850 0.46341 45 45 77
1.14292 -3.78323 0.47736 43 43 68
1.12911 -3.81606 0.48968 30 24 57
1.09515 -3.84431 0.51259 24 18 47
1.08418 -3.85428 0.52010 25 16 47
1.07459 -3.86653 0.52717 25 20 47
1.07078 -3.87341 0.54944 23 21 54
1.06912 -3.91423 0.53692 31 23 55
1.06529 -3.92116 0.55934 23 23 54
1.06586 -3.93748 0.54200 29 22 52
1.06202 -3.94443 0.56450 20 23 53
1.07280 -3.97834 0.54388 27 26 56
1.06893 -3.98535 0.56654 19 23 54
1.06653 -3.99693 0.54998 28 33 65
1.05685 -4.00970 0.55718 30 36 73
1.05280 -4.03235 0.56262 44 50 79
1.04467 -4.04800 0.56935 75 84 97
1.03001 -4.05215 0.57810 102 117 121
1.01188 -4.06623 0.57057 129 133 135
1.02146 -4.06711 0.58497 125 132 132
1.00330 -4.08121 0.57743 126 133 134
0.98352 -4.12076 0.61366 116 124 123
0.99878 -4.18015 0.61350 87 84 86
0.96478 -4.14826 0.62798 33 23 28
0.95661 -4.16436 0.63479 38 33 39
0.95962 -4.20172 0.63837 50 48 47
0.98274 -4.27794 0.63618 61 62 61
0.98313 -4.31139 0.64066 90 91 73
0.96438 -4.32596 0.63286 106 101 95
0.97362 -4.32596 0.64801 97 96 94
0.95485 -4.34054 0.64021 109 105 102
0.96482 -4.34197 0.65517 108 106 101
0.94602 -4.35657 0.64736 105 100 95
0.70751 -4.53121 0.82523 104 106 113
0.71151 -4.52397 0.80182 113 115 111
0.70020 -4.53482 0.80966 99 96 103
0.69632 -4.54234 0.83303 98 96 95
0.68910 -4.56279 0.83993 102 104 95
0.67043 -4.57728 0.83217 113 113 103
0.19927 -5.02220 1.17761 76 70 57
0.15593 -4.97112 1.19460 29 11 23
1.83645 -1.58469 -0.23251 40 29 45
1.85290 -1.60511 -0.23894 56 38 57
1.85738 -1.61945 -0.23947 71 49 64
2.57847 -2.13306 -0.57320 50 36 37
2.58209 -2.12650 -0.59442 57 41 48
2.57183 -2.13634 -0.58732 51 39 38
2.57042 -2.14414 -0.56717 39 28 26
2.56254 -2.15534 -0.56122 22 14 16
2.54564 -2.16847 -0.56825 14 7 22
2.46693 -2.29057 -0.48904 33 14 64
2.47058 -2.28395 -0.51045 21 17 70
2.46024 -2.29387 -0.50328 35 17 65
2.45456 -2.29923 -0.48092 46 24 48
2.45051 -2.31308 -0.47674 81 51 38
2.44283 -2.32471 -0.47084 98 71 33
2.39005 -2.34057 -0.43907 102 67 54
2.39369 -2.33398 -0.46039 106 80 32
2.38339 -2.34386 -0.45326 114 79 38
2.37750 -2.34900 -0.43088 50 39 97
2.36564 -2.35785 -0.42301 36 33 121
2.34358 -2.39335 -0.40578 21 27 133
2.34723 -2.38675 -0.42712 40 39 123
2.33233 -2.40261 -0.39819 121 110 152
2.33420 -2.42075 -0.39675 170 120 126
2.33063 -2.43530 -0.39275 166 109 91
2.31356 -2.44856 -0.39985 92 101 148
2.32994 -2.45187 -0.39009 140 95 115
2.32752 -2.46736 -0.38661 73 67 136
2.31036 -2.48068 -0.39374 61 69 154
2.32632 -2.48377 -0.38368 57 67 162
2.31508 -2.49323 -0.37608 84 82 163
2.30758 -2.50532 -0.37021 66 69 161
2.29037 -2.51869 -0.37737 48 53 154
2.29426 -2.51332 -0.36165 57 58 162
2.27706 -2.52668 -0.36880 51 53 155
2.19955 -2.53220 -0.30595 48 60 143
2.20987 -2.52230 -0.31310 50 58 156
2.18456 -2.53865 -0.29667 68 61 104
2.16759 -2.55182 -0.30372 80 57 64
2.17558 -2.54951 -0.29014 81 61 78
2.16687 -2.56060 -0.28373 81 62 68
2.16794 -2.57909 -0.28180 57 44 77
2.16320 -2.59328 -0.27719 92 86 128
2.16143 -2.60980 -0.27393 91 81 137
2.16869 -2.63337 -0.27476 45 32 100
2.16567 -2.64915 -0.27090 33 40 137
2.14843 -2.66254 -0.27806 40 52 159
2.17122 -2.67171 -0.27092 44 59 173
2.15391 -2.68516 -0.27811 37 48 157
2.16825 -2.68774 -0.26705 37 47 158
2.15090 -2.70122 -0.27426 33 41 154
2.16739 -2.74276 -0.25901 92 56 123
2.17802 -2.73256 -0.26637 48 53 146
2.14988 -2.75636 -0.26629 142 114 53
2.16805 -2.76210 -0.25673 139 82 102
2.16511 -2.77863 -0.25281 136 113 63
2.16702 -2.79921 -0.25105 76 85 59
2.18510 -2.83329 -0.25651 39 38 79
2.18871 -2.85565 -0.25546 26 21 72
2.18925 -2.87563 -0.25302 22 17 53
2.17129 -2.88957 -0.26048 22 18 23
2.19040 -2.89624 -0.25083 19 18 36
2.17238 -2.91024 -0.25832 25 23 27
2.21843 -3.00036 -0.25225 41 30 44
2.22960 -2.98964 -0.25998 32 29 40
2.22239 -3.02426 -0.25118 50 42 49
2.22298 -3.04539 -0.24861 85 81 77
2.25107 -3.09095 -0.25811 117 113 108
2.23232 -3.10551 -0.26590 134 135 127
2.25315 -3.11385 -0.25613 128 130 129
2.24055 -3.12377 -0.24770 141 143 138
1.98695 -3.33998 -0.07583 150 156 144
1.99098 -3.33270 -0.09938 149 145 144
1.97959 -3.34361 -0.09150 149 153 151
1.96821 -3.35453 -0.08362 146 145 133
1.97216 -3.34735 -0.06653 153 154 131
1.95344 -3.36189 -0.07431 139 148 137
1.95448 -3.35166 -0.05602 140 139 131
1.93580 -3.36617 -0.06379 141 145 142
1.94181 -3.36115 -0.04762 138 139 135
1.92313 -3.37566 -0.05538 144 148 148
1.91890 -3.38267 -0.03182 156 153 132
1.90023 -3.39718 -0.03958 134 137 127
1.86171 -3.41323 0.00444 149 147 133
1.86570 -3.40600 -0.01894 141 138 135
1.84783 -3.42121 0.01332 154 146 139
1.83944 -3.43526 0.01996 155 145 136
1.83067 -3.44894 0.02675 157 150 130
1.81205 -3.46340 0.01901 148 144 140
1.82393 -3.46494 0.03272 147 146 132
1.80528 -3.47942 0.02497 144 144 140
1.80425 -3.46632 0.04395 143 148 135
1.78565 -3.48077 0.03622 149 148 144
1.78961 -3.47334 0.05312 148 148 141
1.77103 -3.48777 0.04540 154 153 152
1.67173 -3.57539 0.13322 154 147 143
1.65318 -3.58979 0.12551 138 136 140
1.64179 -3.58782 0.15171 148 150 148
1.62329 -3.60218 0.14402 155 154 143
1.61987 -3.58525 0.16365 163 161 147
1.59813 -3.58273 0.17549 152 160 157
1.57976 -3.59699 0.16786 123 140 161
1.32182 -3.44372 0.31131 144 147 143
1.32551 -3.43704 0.28971 139 145 161
1.32422 -3.47103 0.31372 72 74 72
1.29940 -3.46167 0.32635 23 26 49
1.28221 -3.47501 0.31920 20 22 47
1.22703 -3.55767 0.38010 24 28 48
1.23073 -3.55096 0.35842 26 26 60
1.22025 -3.56102 0.36567 24 25 52
1.20977 -3.57107 0.37293 23 25 54
1.23046 -3.58782 0.38232 22 29 59
1.21310 -3.60130 0.37511 24 24 58
1.22662 -3.60768 0.38720 24 30 69
1.20922 -3.62119 0.37996 24 25 60
1.21393 -3.61470 0.39528 31 33 73
1.19654 -3.62821 0.38805 27 25 56
1.20515 -3.62746 0.40195 41 40 71
1.18775 -3.64097 0.39472 25 26 54
1.20355 -3.67696 0.40965 43 50 69
1.19666 -3.68036 0.39498 27 27 64
1.18601 -3.69058 0.40236 32 27 59
1.19746 -3.69404 0.41541 43 51 65
1.17988 -3.70769 0.40811 33 23 52
1.19369 -3.71475 0.42037 44 46 64
1.17606 -3.72844 0.41304 29 22 58
1.18834 -3.73321 0.42590 43 45 67
1.18114 -3.74892 0.43209 41 45 65
1.17063 -3.75959 0.43945 36 43 70
1.16030 -3.77053 0.44674 32 32 71
1.15179 -3.78434 0.45341 28 27 64
1.13269 -3.80881 0.46748 30 23 52
1.12334 -3.82142 0.47445 28 26 56
1.10012 -3.83934 0.48993 32 34 61
1.09406 -3.85739 0.49581 38 41 66
1.09137 -3.88113 0.50058 49 47 69
1.10036 -3.92451 0.50150 60 58 76
1.09858 -3.95031 0.50604 69 67 84
1.09260 -3.96923 0.51199 67 63 82
1.08351 -3.98299 0.51897 61 53 70
1.06542 -3.99704 0.51145 66 67 86
1.07608 -3.99964 0.52542 60 62 77
1.06758 -4.01452 0.53223 67 77 92
1.05854 -4.02853 0.53923 66 73 95
1.04986 -4.04322 0.54611 74 82 108
1.03574 -4.04835 0.55473 103 113 126
1.02627 -4.06169 0.56187 125 133 135
1.00811 -4.07579 0.55432 124 130 140
0.99185 -4.12179 0.58943 119 128 130
1.00292 -4.11117 0.58176 122 131 133
0.98475 -4.13978 0.59587 112 118 117
0.99330 -4.18701 0.59757 78 70 80
0.95422 -4.14543 0.61377 42 25 39
0.96944 -4.20570 0.61351 63 59 64
0.98122 -4.26018 0.61439 85 85 69
0.98490 -4.29978 0.61776 92 93 77
0.96617 -4.31433 0.60997 114 109 93
0.97022 -4.30431 0.62661 109 103 83
0.95151 -4.31884 0.61884 110 104 94
0.81762 -4.40060 0.72539 107 105 89
0.83619 -4.38618 0.73311 113 112 108
0.82890 -4.38979 0.71758 107 109 103
0.82491 -4.39700 0.74091 113 114 101
0.81033 -4.40420 0.70987 104 96 88
0.68200 -4.52958 0.81914 104 105 98
0.68598 -4.52237 0.79582 108 103 108
0.66344 -4.54400 0.81142 116 116 101
0.67455 -4.54941 0.82604 111 108 101
0.65596 -4.56385 0.81831 116 116 98
0.18985 -5.01856 1.16221 84 81 65
0.19385 -5.01133 1.13882 89 84 79
0.18255 -5.02218 1.14665 86 83 71
0.17622 -5.02122 1.17022 70 65 51
0.15399 -4.99334 1.17885 43 32 40
1.83028 -1.58676 -0.24310 33 23 36
1.85068 -1.62130 -0.24997 64 42 57
1.85564 -1.63601 -0.25078 72 48 60
1.85275 -1.64123 -0.23389 76 53 56
1.84748 -1.64384 -0.24513 73 54 58
1.84220 -1.64645 -0.25637 71 53 56
2.57230 -2.15223 -0.58546 40 32 31
2.57594 -2.14565 -0.60673 53 41 35
2.56570 -2.16419 -0.58013 24 15 26
2.54875 -2.17735 -0.58718 16 7 20
2.44669 -2.30180 -0.49458 51 27 47
2.45034 -2.29518 -0.51597 32 22 76
2.44001 -2.30510 -0.50881 45 22 50
2.43982 -2.31388 -0.48909 75 49 36
2.43326 -2.32621 -0.48374 90 69 30
2.41515 -2.33120 -0.47286 99 78 34
2.39814 -2.34442 -0.47993 100 75 27
2.35629 -2.34282 -0.43812 102 71 70
2.34966 -2.34609 -0.45224 111 80 57
2.33940 -2.35593 -0.44514 108 81 75
2.34584 -2.35253 -0.43093 66 55 103
2.33725 -2.36346 -0.42462 49 41 124
2.32666 -2.38979 -0.41512 29 31 128
2.32584 -2.40604 -0.41248 114 125 141
2.30886 -2.41923 -0.41954 85 85 135
2.31430 -2.41510 -0.40476 123 89 129
2.29732 -2.42828 -0.41181 59 55 145
2.31585 -2.43309 -0.40322 84 65 132
2.30481 -2.45962 -0.39343 60 61 148
2.28772 -2.47289 -0.40053 65 63 147
2.29451 -2.48686 -0.38397 62 60 150
2.28752 -2.49926 -0.37837 48 52 146
2.24674 -2.52234 -0.35229 53 52 153
2.22152 -2.52153 -0.33818 54 58 153
2.19774 -2.52160 -0.32477 61 67 149
2.17999 -2.52600 -0.31417 65 66 128
2.16687 -2.53375 -0.30574 76 58 74
2.15516 -2.56010 -0.29560 74 56 76
2.15690 -2.57911 -0.29403 53 53 118
2.15244 -2.59350 -0.28959 69 75 152
2.15187 -2.61094 -0.28693 68 61 150
2.15935 -2.63471 -0.28795 56 51 117
2.15770 -2.65156 -0.28476 44 47 137
2.14047 -2.66494 -0.29192 46 57 156
2.15638 -2.72414 -0.27427 99 65 125
2.13894 -2.73769 -0.28152 143 118 34
2.15210 -2.73938 -0.26982 144 98 66
2.15138 -2.77648 -0.26443 105 110 52
2.16365 -2.80558 -0.26745 48 59 64
2.17700 -2.83583 -0.27091 27 27 71
2.18264 -2.85993 -0.27086 22 18 54
2.16474 -2.87384 -0.27830 20 18 27
2.18091 -2.87803 -0.26745 20 17 36
2.16296 -2.89198 -0.27491 26 22 22
2.19710 -2.95128 -0.26675 30 26 35
2.20213 -2.97576 -0.26630 37 27 44
2.21341 -3.00585 -0.26862 48 37 43
2.20668 -3.02046 -0.26286 73 69 67
2.23063 -3.06213 -0.27077 99 104 98
2.23498 -3.08686 -0.26991 122 125 116
2.21628 -3.10138 -0.27768 135 133 119
2.21741 -3.11327 -0.25645 137 139 134
2.21005 -3.11691 -0.27212 133 133 126
2.20410 -3.12244 -0.24772 147 144 137
2.20008 -3.12971 -0.22420 143 141 140
2.19273 -3.13335 -0.23985 145 143 135
2.18537 -3.13698 -0.25551 138 137 125
2.13286 -3.16352 -0.20205 127 129 128
2.12553 -3.16714 -0.21764 127 125 123
2.12886 -3.17077 -0.17863 131 134 129
2.12153 -3.17439 -0.19421 123 128 128
2.03435 -3.19892 -0.14178 151 150 150
2.05282 -3.18458 -0.13410 140 139 131
2.03831 -3.19175 -0.16499 148 149 151
2.04160 -3.19534 -0.12633 142 144 142
2.02709 -3.20251 -0.15723 155 153 154
2.03038 -3.20610 -0.11857 144 146 137
2.02971 -3.21614 -0.13686 147 148 143
2.02574 -3.22333 -0.11360 143 140 128
2.02532 -3.23368 -0.13203 143 140 128
2.01405 -3.24449 -0.12423 134 133 136
2.00677 -3.24809 -0.13974 138 138 142
1.89900 -3.37284 -0.04215 143 147 143
1.88039 -3.38728 -0.04988 128 130 120
1.84555 -3.40709 -0.00743 152 149 140
1.82699 -3.42150 -0.01514 158 161 155
1.83158 -3.41491 0.00149 161 164 155
1.81992 -3.42526 0.00945 158 159 153
1.81856 -3.44717 0.01316 157 154 142
1.79997 -3.46161 0.00543 146 140 143
1.69275 -3.53998 0.09653 148 148 142
1.70399 -3.52920 0.08874 146 143 131
1.68548 -3.54357 0.08105 144 142 139
1.68325 -3.55288 0.10361 154 154 145
1.67274 -3.56457 0.11110 159 156 145
1.65421 -3.57896 0.10340 153 149 146
1.65934 -3.57273 0.11975 151 145 139
1.62899 -3.58452 0.13844 143 146 147
1.62174 -3.58811 0.12300 151 155 146
1.61053 -3.59886 0.13077 151 151 144
1.31898 -3.45231 0.29544 143 145 144
1.32267 -3.44562 0.27380 138 145 157
1.31242 -3.46761 0.30119 71 74 75
1.30282 -3.47885 0.30810 24 27 52
1.28557 -3.49225 0.30093 23 24 48
1.17225 -3.74934 0.41800 30 29 54
1.16392 -3.76338 0.42458 32 32 65
1.15544 -3.77724 0.43122 32 34 71
1.14637 -3.79021 0.43807 31 36 71
1.13866 -3.80537 0.44445 43 40 72
1.13028 -3.81954 0.45108 54 53 73
1.13826 -3.86016 0.45203 65 67 82
1.12036 -3.87406 0.44459 103 109 114
1.13018 -3.87511 0.45859 72 77 93
1.11226 -3.88903 0.45114 104 110 110
1.12711 -3.89835 0.46344 78 86 99
1.10913 -3.91231 0.45596 103 106 102
1.11918 -3.91374 0.46997 83 95 98
1.10118 -3.92772 0.46249 98 101 99
1.11606 -3.93720 0.47488 91 100 100
1.09800 -3.95122 0.46737 95 97 99
1.10953 -3.95515 0.48097 97 104 105
1.10351 -3.97406 0.48690 101 105 112
1.08853 -3.97788 0.49586 94 96 106
1.07948 -3.99175 0.50282 75 71 87
1.05973 -4.01678 0.51731 67 69 85
1.04703 -4.02439 0.52549 62 54 78
1.04186 -4.04522 0.53120 68 64 98
1.03166 -4.05728 0.53857 98 102 128
1.02390 -4.07372 0.54515 119 127 139
1.00570 -4.08786 0.53758 121 127 136
1.00250 -4.12703 0.56436 118 130 132
1.01361 -4.11637 0.55667 122 132 139
1.00643 -4.11993 0.54137 118 127 134
0.99532 -4.13058 0.54906 114 124 127
0.99537 -4.14501 0.57079 114 126 125
0.98559 -4.15820 0.57807 105 111 111
0.98560 -4.18972 0.58230 77 73 89
0.96934 -4.19092 0.59162 67 58 64
0.97500 -4.23356 0.59416 89 88 85
0.97206 -4.26025 0.59939 111 107 90
0.95347 -4.27470 0.59166 116 112 100
0.96731 -4.28370 0.60522 112 107 93
0.94866 -4.29818 0.59747 115 114 99
0.81608 -4.38171 0.70361 110 110 97
0.83460 -4.36733 0.71130 99 101 100
0.82733 -4.37092 0.69582 107 107 101
0.82006 -4.37452 0.68034 114 111 93
0.79554 -4.40747 0.71864 109 105 94
0.79157 -4.41467 0.74193 110 113 98
0.78429 -4.41826 0.72643 114 114 95
0.77701 -4.42186 0.71094 117 118 102
0.44704 -4.74321 0.96013 111 104 97
0.45101 -4.73601 0.93684 118 117 108
0.42850 -4.75760 0.95243 103 104 95
0.43606 -4.75479 0.96787 105 98 85
0.43208 -4.76199 0.99117 96 94 80
0.42480 -4.76559 0.97567 102 96 86
0.41752 -4.76918 0.96017 102 106 97
0.16798 -5.02152 1.15477 83 80 59
0.17196 -5.01431 1.13144 89 85 74
0.16069 -5.02512 1.13924 87 81 74
0.15395 -5.02252 1.16281 74 68 45
0.13541 -5.03692 1.15511 76 68 46
1.83140 -1.59260 -0.25731 25 18 33
1.83425 -1.58745 -0.27397 13 11 20
1.84206 -1.61010 -0.26106 42 29 43
1.84372 -1.62300 -0.26031 57 38 52
1.83034 -1.63339 -0.26587 59 40 53
2.56782 -2.15674 -0.60068 41 34 32
2.57146 -2.15016 -0.62197 57 41 33
2.52065 -2.20861 -0.56716 11 7 36
2.53762 -2.19543 -0.56011 9 8 38
2.52429 -2.20202 -0.58847 9 5 11
2.52732 -2.20532 -0.55297 10 7 45
2.51701 -2.21520 -0.54584 10 6 45
2.51035 -2.21849 -0.56002 11 9 47
2.45835 -2.26760 -0.52412 14 13 60
2.47531 -2.25443 -0.51707 14 11 41
2.46865 -2.25772 -0.53125 9 8 33
2.44805 -2.27748 -0.51699 22 22 75
2.44139 -2.28077 -0.53117 16 19 78
2.42068 -2.30935 -0.49730 64 29 26
2.42432 -2.30275 -0.51864 38 22 63
2.41312 -2.32098 -0.49150 80 55 31
2.39837 -2.32805 -0.48221 91 68 33
2.38140 -2.34123 -0.48927 93 76 26
2.35439 -2.33268 -0.45668 105 79 37
2.32391 -2.36230 -0.43553 88 69 95
2.31728 -2.36557 -0.44963 118 89 61
2.32162 -2.37742 -0.43225 53 40 113
2.31502 -2.38973 -0.42690 38 38 126
2.30673 -2.40092 -0.42073 65 67 135
2.28981 -2.41407 -0.42777 88 86 122
2.29114 -2.44103 -0.40664 70 77 156
2.28447 -2.44433 -0.42086 53 56 129
2.28948 -2.45695 -0.40361 63 65 149
2.28200 -2.48612 -0.39556 61 55 142
2.27916 -2.50144 -0.39194 52 49 139
2.26341 -2.50761 -0.38221 60 61 141
2.24302 -2.51038 -0.37028 83 77 121
2.21770 -2.50949 -0.35605 97 95 113
2.20334 -2.51644 -0.34700 111 108 116
2.18456 -2.52011 -0.33589 124 121 125
2.18150 -2.53532 -0.33216 126 111 101
2.15545 -2.53348 -0.31764 93 78 69
2.14576 -2.56133 -0.30850 66 56 116
2.14356 -2.57735 -0.30515 52 57 149
2.13865 -2.59137 -0.30053 71 79 155
2.14363 -2.61308 -0.30051 70 62 150
2.14069 -2.62881 -0.29678 81 90 127
2.12357 -2.64211 -0.30390 50 58 154
2.14550 -2.65067 -0.29664 56 62 147
2.12830 -2.66403 -0.30379 49 56 159
2.14947 -2.70888 -0.29126 69 51 136
2.16003 -2.69876 -0.29857 37 44 149
2.15320 -2.70213 -0.31311 51 48 140
2.13209 -2.72238 -0.29849 150 108 63
2.14962 -2.72760 -0.28889 143 93 91
2.14087 -2.77693 -0.27747 70 90 60
2.16733 -2.81778 -0.28711 36 38 71
2.17347 -2.84217 -0.28739 22 20 58
2.15563 -2.85602 -0.29481 19 19 30
2.17729 -2.86481 -0.28659 18 16 40
2.15938 -2.87873 -0.29404 24 21 27
2.18089 -2.92703 -0.28048 31 26 31
2.18369 -2.94943 -0.27913 39 27 45
2.18797 -2.97327 -0.27843 49 45 52
2.19431 -2.99909 -0.27864 74 68 57
2.22102 -3.04297 -0.28803 103 102 93
2.22029 -3.06307 -0.28497 111 117 113
2.21305 -3.07752 -0.27898 125 128 115
2.01579 -3.21318 -0.14942 153 154 148
2.00853 -3.21677 -0.16487 154 155 150
2.00870 -3.22804 -0.14346 149 148 135
1.99020 -3.24240 -0.15115 136 136 147
1.89546 -3.35758 -0.06231 148 148 147
1.90673 -3.34677 -0.07012 141 144 148
1.89944 -3.35037 -0.08563 142 145 146
1.88792 -3.37240 -0.05610 128 125 134
1.84332 -3.39308 -0.02811 134 133 137
1.85456 -3.38229 -0.03590 135 136 128
1.82480 -3.40746 -0.03581 157 154 160
1.83274 -3.40460 -0.02061 151 148 148
1.80580 -3.42121 -0.00317 148 151 152
1.78731 -3.43557 -0.01086 143 144 138
1.80116 -3.43940 0.00184 146 143 141
1.69221 -3.52739 0.07511 149 148 144
1.70344 -3.51662 0.06734 146 148 148
1.69618 -3.52021 0.05189 147 148 153
1.68495 -3.53098 0.05966 154 150 148
1.66678 -3.54530 0.09187 142 143 141
1.65953 -3.54889 0.07643 133 131 133
1.65763 -3.55859 0.09880 148 149 144
1.63916 -3.57294 0.09112 157 157 148
1.32108 -3.46760 0.27758 141 145 145
1.32479 -3.46088 0.25587 135 147 155
1.31442 -3.48285 0.28336 70 75 86
1.30553 -3.49515 0.29000 26 27 52
1.28822 -3.50859 0.28281 25 22 44
1.20661 -3.65669 0.36723 30 28 57
1.21724 -3.64649 0.35987 30 24 55
1.19970 -3.67246 0.37321 27 34 59
1.19274 -3.68823 0.37922 32 37 66
1.18638 -3.70501 0.38502 38 40 69
1.18085 -3.72312 0.39053 43 42 63
1.17498 -3.74084 0.39618 47 47 72
1.17313 -3.76491 0.40038 58 62 74
1.17207 -3.79040 0.40432 66 69 84
1.15427 -3.80422 0.39692 104 112 120
1.17334 -3.81977 0.40745 68 77 98
1.15545 -3.83367 0.40002 104 113 116
1.15876 -3.85203 0.41994 82 94 103
1.14271 -3.88223 0.43299 102 108 107
1.12473 -3.89620 0.42552 88 90 97
1.09573 -3.97646 0.47197 94 92 100
1.07915 -3.97754 0.48150 87 84 95
1.07008 -3.99134 0.48845 64 61 83
1.06126 -4.00565 0.49532 48 46 72
1.04344 -4.03410 0.50915 53 47 71
1.03607 -4.05112 0.51556 71 70 96
1.02759 -4.06628 0.52235 103 109 125
1.00940 -4.08042 0.51478 124 128 132
1.01955 -4.08227 0.52900 119 126 136
1.00132 -4.09643 0.52143 128 131 129
0.98999 -4.15193 0.55488 108 115 119
0.98321 -4.17075 0.56119 105 106 110
0.97986 -4.19610 0.56641 100 102 104
0.97562 -4.22001 0.57195 103 103 92
0.95712 -4.23437 0.56426 118 119 108
0.97300 -4.24721 0.57699 109 110 97
0.95443 -4.26164 0.56927 118 118 112
0.96468 -4.26370 0.58387 116 113 101
0.94608 -4.27815 0.57614 120 120 104
0.80902 -4.38575 0.68807 118 120 96
0.80175 -4.38935 0.67259 129 127 101
0.79874 -4.39860 0.69558 104 102 101
0.78834 -4.41121 0.70313 110 114 100
0.76980 -4.42561 0.69543 121 124 120
0.14640 -5.02516 1.14735 84 78 64
0.15037 -5.01796 1.12406 88 81 68
0.13912 -5.02875 1.13185 85 78 62
1.83053 -1.59743 -0.27058 17 14 28
1.83338 -1.59227 -0.28726 15 9 18
1.82532 -1.60001 -0.28168 16 11 22
1.83872 -1.61368 -0.27316 33 24 34
1.85270 -1.65752 -0.27552 66 50 56
1.84980 -1.66277 -0.25855 74 55 54
1.84450 -1.66539 -0.26984 72 56 54
1.83919 -1.66801 -0.28114 71 55 52
2.56930 -2.16465 -0.61889 45 33 27
2.57294 -2.15805 -0.64023 58 40 40
2.55983 -2.17502 -0.61217 30 20 20
2.50695 -2.20775 -0.57786 7 5 20
2.51058 -2.20118 -0.59913 8 5 6
2.50030 -2.21104 -0.59201 7 4 10
2.49221 -2.21498 -0.56854 9 7 36
2.48858 -2.22155 -0.54729 15 9 43
2.48194 -2.22483 -0.56143 12 10 46
2.40940 -2.30973 -0.50924 57 30 37
2.41303 -2.30314 -0.53055 31 19 68
2.40274 -2.31302 -0.52342 48 30 55
2.39244 -2.32289 -0.51629 62 39 42
2.39952 -2.31987 -0.50232 73 47 32
2.37825 -2.32272 -0.48984 85 62 30
2.34121 -2.33169 -0.46759 96 75 30
2.32691 -2.33882 -0.45853 106 79 45
2.32258 -2.35249 -0.45432 115 85 54
2.30574 -2.36557 -0.46131 122 91 45
2.29938 -2.38695 -0.43669 89 71 97
2.29495 -2.40073 -0.43241 78 64 114
2.26736 -2.44950 -0.41045 60 61 129
2.27100 -2.44291 -0.43177 115 96 83
2.26070 -2.45280 -0.42464 114 98 85
2.25040 -2.46268 -0.41750 128 105 77
2.26686 -2.46627 -0.40802 79 79 117
2.24985 -2.47948 -0.41509 130 104 75
2.25839 -2.47750 -0.40176 93 81 113
2.24071 -2.48219 -0.39109 102 97 110
2.22088 -2.48526 -0.37940 124 121 103
2.21167 -2.49591 -0.37279 140 130 88
2.20621 -2.50929 -0.36796 144 127 74
2.18482 -2.51107 -0.35556 144 132 86
2.17343 -2.52010 -0.34791 137 133 102
2.13966 -2.52991 -0.32742 89 86 97
2.12697 -2.55542 -0.31693 60 46 141
2.13412 -2.57853 -0.31804 52 40 156
2.11924 -2.58490 -0.30875 99 99 177
2.11985 -2.60320 -0.30676 100 111 162
2.13324 -2.63156 -0.31076 65 71 132
2.14067 -2.71068 -0.30487 121 76 106
2.14440 -2.70393 -0.32670 95 60 119
2.13385 -2.71405 -0.31940 147 94 61
2.16126 -2.82197 -0.30237 27 28 58
2.14351 -2.83576 -0.30975 17 16 27
2.16687 -2.84596 -0.30249 19 17 41
2.14903 -2.85982 -0.30991 21 21 27
2.17377 -2.91065 -0.29815 29 27 28
2.17516 -2.93173 -0.29625 37 28 36
2.17513 -2.95173 -0.29367 52 40 42
2.17258 -2.96968 -0.28993 76 72 70
2.20710 -3.02012 -0.30314 105 104 97
2.20940 -3.04275 -0.30155 125 124 112
2.19087 -3.05714 -0.30925 139 135 117
2.20476 -3.05940 -0.29678 129 125 115
2.18620 -3.07382 -0.30450 136 131 122
2.19755 -3.07384 -0.29083 133 129 117
2.17897 -3.08827 -0.29855 142 140 133
2.08723 -3.16299 -0.21658 140 139 136
2.09849 -3.15220 -0.22437 128 128 125
2.09121 -3.15579 -0.23987 127 126 126
2.08326 -3.17020 -0.19329 138 138 134
2.07598 -3.17379 -0.20878 146 142 139
2.01899 -3.18358 -0.17507 139 139 147
2.03739 -3.16929 -0.16742 138 139 146
2.03017 -3.17286 -0.18281 136 136 145
2.01176 -3.18715 -0.19046 133 131 129
2.00780 -3.19429 -0.16732 145 145 149
1.99304 -3.22329 -0.15521 146 142 135
1.98579 -3.22687 -0.17063 141 132 134
1.97459 -3.23761 -0.16287 137 135 145
1.88208 -3.35466 -0.07519 153 149 141
1.87481 -3.35826 -0.09068 139 141 135
1.87406 -3.36893 -0.06880 135 124 128
1.85790 -3.37441 -0.05889 138 139 124
1.84390 -3.38218 -0.04992 146 140 129
1.82540 -3.39654 -0.05761 157 158 154
1.82908 -3.38901 -0.04061 148 149 152
1.80256 -3.40598 -0.02333 154 153 153
1.78411 -3.42031 -0.03099 145 146 142
1.78841 -3.41342 -0.01432 143 145 146
1.77759 -3.44806 -0.00372 147 150 145
1.77033 -3.45165 -0.01919 151 153 149
1.77362 -3.45525 0.01953 148 144 140
1.75909 -3.46243 -0.01141 156 157 150
1.66403 -3.53000 0.07145 142 137 134
1.66798 -3.52285 0.04830 156 150 144
1.64560 -3.54431 0.06380 135 137 132
1.64026 -3.54976 0.08752 143 147 140
1.62185 -3.56406 0.07987 149 151 137
1.32219 -3.48162 0.26000 139 145 144
1.32591 -3.47488 0.23823 135 146 155
1.30509 -3.48276 0.26989 70 75 90
1.30271 -3.50396 0.27396 28 26 48
1.29306 -3.54003 0.28407 27 23 50
1.29990 -3.53665 0.29863 24 25 52
1.28932 -3.54679 0.30596 25 23 56
1.28248 -3.55018 0.29139 27 23 54
1.26546 -3.65293 0.31423 26 26 52
1.28314 -3.63921 0.32157 25 25 59
1.27620 -3.64264 0.30680 25 25 58
1.27240 -3.64951 0.32900 24 25 53
1.26167 -3.65980 0.33643 26 24 51
1.25173 -3.65884 0.32281 30 29 54
1.24794 -3.66570 0.34499 28 23 55
1.23432 -3.65928 0.33279 35 34 63
1.20642 -3.69631 0.35341 54 61 78
1.22764 -3.75488 0.34882 62 72 87
1.20978 -3.76875 0.34140 96 112 119
1.20130 -3.76856 0.36557 77 93 94
1.19500 -3.78594 0.37139 88 99 102
1.17461 -3.80880 0.38592 105 111 111
1.15260 -3.85692 0.40462 103 109 108
1.15645 -3.84994 0.38207 87 88 98
1.14555 -3.86040 0.38961 84 87 96
1.13465 -3.87085 0.39716 87 87 95
1.14538 -3.87332 0.41083 100 103 100
1.13470 -3.88418 0.41830 93 94 97
1.09730 -3.96552 0.45001 90 92 104
1.06613 -4.00031 0.47222 87 88 96
1.05464 -4.01003 0.48000 81 84 89
1.04697 -4.02640 0.48647 87 90 93
1.03551 -4.03621 0.49425 97 100 105
1.03288 -4.06167 0.49901 108 115 117
1.02280 -4.07401 0.50633 116 124 127
0.98991 -4.13741 0.53317 127 130 125
0.99384 -4.13029 0.51017 144 147 132
0.98183 -4.15372 0.53986 121 115 120
0.97466 -4.17182 0.54626 120 114 114
0.95630 -4.18608 0.53863 140 140 118
0.96488 -4.18510 0.55353 131 130 111
0.96210 -4.21172 0.55852 127 123 109
0.94365 -4.22605 0.55085 117 117 119
0.78488 -4.38804 0.68203 112 112 113
0.78884 -4.38087 0.65883 130 128 112
0.77763 -4.39162 0.66659 126 122 121
0.76642 -4.40238 0.67435 123 123 113
0.77730 -4.40666 0.68873 115 120 111
0.75880 -4.42102 0.68104 123 124 119
0.12168 -5.01705 1.14029 82 77 60
0.12564 -5.00988 1.11711 88 81 70
0.11444 -5.02062 1.12487 84 82 72
0.10324 -5.03137 1.13263 83 81 68
1.82953 -1.61420 -0.28232 25 18 25
1.83239 -1.60902 -0.29907 15 10 18
1.83870 -1.63110 -0.28546 41 28 34
1.84894 -1.66097 -0.28760 62 45 51
2.56650 -2.17014 -0.63503 50 35 31
2.57014 -2.16354 -0.65639 58 41 43
2.55890 -2.19749 -0.62727 20 11 11
2.55524 -2.20411 -0.60583 13 7 7
2.54854 -2.20742 -0.62009 12 8 7
2.54184 -2.21073 -0.63435 13 8 11
2.48347 -2.21701 -0.58163 7 5 22
2.48710 -2.21044 -0.60287 8 4 5
2.47683 -2.22029 -0.59576 7 5 10
2.46570 -2.22236 -0.57079 9 8 37
2.46208 -2.22892 -0.54959 12 10 48
2.46787 -2.23968 -0.56987 14 12 51
2.36105 -2.31920 -0.49877 75 47 32
2.36466 -2.31265 -0.51995 43 27 57
2.35442 -2.32248 -0.51287 61 38 41
2.34689 -2.32649 -0.48976 84 65 32
2.33716 -2.33662 -0.48292 89 66 34
2.32668 -2.34627 -0.47572 101 77 34
2.32021 -2.35856 -0.47047 108 81 48
2.30387 -2.38098 -0.45832 131 93 41
2.29095 -2.38901 -0.44992 127 86 43
2.27966 -2.39812 -0.44232 126 90 59
2.26893 -2.40761 -0.43499 123 96 77
2.25869 -2.41743 -0.42790 119 93 87
2.22623 -2.47991 -0.40152 133 115 79
2.21504 -2.48913 -0.39396 137 124 86
2.19089 -2.50628 -0.37799 174 145 131
2.18556 -2.51977 -0.37325 146 142 125
2.15495 -2.51463 -0.35636 97 75 90
2.14880 -2.52748 -0.35123 83 69 111
2.11929 -2.55791 -0.33054 87 68 172
2.11498 -2.59004 -0.32406 175 174 209
2.11229 -2.60582 -0.32056 110 117 156
2.13011 -2.63770 -0.32678 47 43 126
2.12330 -2.65051 -0.32128 46 55 151
2.11288 -2.66050 -0.31407 49 55 154
2.10614 -2.66383 -0.32841 77 59 134
2.13570 -2.73419 -0.31795 117 105 41
2.13786 -2.77362 -0.31427 58 70 44
2.15331 -2.80538 -0.31915 33 31 54
2.13562 -2.81912 -0.32650 19 16 21
2.15746 -2.82805 -0.31870 19 19 33
2.13970 -2.84185 -0.32609 20 19 23
2.16161 -2.89005 -0.31334 28 28 31
2.16602 -2.91358 -0.31293 36 28 36
2.16529 -2.93287 -0.31010 45 37 41
2.16516 -2.95280 -0.30754 76 69 60
2.18167 -2.98736 -0.31269 101 97 93
2.19552 -3.01990 -0.31656 123 123 121
2.17709 -3.03422 -0.32422 136 132 126
2.19168 -3.03713 -0.31221 138 138 125
2.17321 -3.05148 -0.31989 135 130 120
2.06833 -3.15554 -0.22680 133 130 131
2.07229 -3.14836 -0.25001 132 126 118
2.06107 -3.15912 -0.24224 128 122 118
2.05099 -3.16044 -0.21625 142 137 139
2.04703 -3.16760 -0.19309 140 138 139
2.03979 -3.17118 -0.20850 142 141 142
2.02054 -3.17410 -0.19711 138 138 139
2.01332 -3.17767 -0.21249 145 150 138
1.99679 -3.19415 -0.18101 134 133 130
1.98957 -3.19772 -0.19638 137 133 119
1.97841 -3.20843 -0.18865 138 138 137
1.98504 -3.20428 -0.17302 146 145 148
1.96666 -3.21855 -0.18066 143 137 133
1.85997 -3.36516 -0.08132 138 134 127
1.86394 -3.35797 -0.10457 139 143 135
1.85270 -3.36875 -0.09679 138 141 137
1.84147 -3.37953 -0.08901 138 139 141
1.84353 -3.37027 -0.07127 145 145 134
1.78592 -3.39905 -0.03468 147 142 142
1.76019 -3.41663 -0.01776 151 151 145
1.75298 -3.42020 -0.03312 154 150 155
1.74182 -3.43090 -0.02539 153 152 155
1.32787 -3.50192 0.24047 136 144 146
1.29649 -3.48364 0.25617 73 73 97
1.30096 -3.51429 0.25743 36 31 58
1.29940 -3.53686 0.26114 39 36 53
1.29328 -3.55325 0.26669 44 40 59
1.29451 -3.58006 0.26933 38 30 59
1.29074 -3.58688 0.29138 26 24 57
1.28385 -3.59028 0.27671 33 24 61
1.28682 -3.61992 0.27871 34 27 66
1.29375 -3.61650 0.29346 27 26 58
1.28303 -3.62678 0.30088 27 26 60
1.27709 -3.63162 0.28574 35 27 70
1.26809 -3.64438 0.29249 37 34 75
1.25725 -3.65450 0.29996 47 49 78
1.24384 -3.66086 0.30843 55 62 85
1.22619 -3.67456 0.30110 90 108 124
1.22861 -3.74363 0.32748 89 104 111
1.22310 -3.76210 0.33294 93 108 117
1.19635 -3.80239 0.35328 98 108 106
1.20020 -3.79542 0.33076 79 86 94
1.18931 -3.80586 0.33830 80 87 97
1.18166 -3.80688 0.36225 92 102 98
1.17375 -3.82195 0.36867 95 96 102
1.15965 -3.82728 0.37741 91 91 99
1.11321 -3.92086 0.41568 97 105 108
1.10404 -3.93435 0.42261 102 109 114
1.09634 -3.95034 0.42901 105 113 122
1.07827 -3.96438 0.42150 122 127 127
1.08756 -3.99385 0.43947 112 120 123
1.07379 -3.99975 0.44809 114 117 116
1.06547 -4.01500 0.45476 119 123 118
1.04730 -4.02911 0.44721 128 131 124
1.05504 -4.02664 0.46219 123 127 120
1.03686 -4.04076 0.45463 126 127 126
1.04285 -4.03520 0.47024 121 121 119
1.02468 -4.04931 0.46269 129 132 134
1.03382 -4.04933 0.47717 124 124 126
1.01563 -4.06346 0.46961 133 135 138
1.02531 -4.06445 0.48393 125 128 132
1.00710 -4.07859 0.47636 135 134 135
1.01537 -4.07705 0.49120 124 126 133
0.99715 -4.09120 0.48363 142 143 131
0.98304 -4.14156 0.51775 146 143 131
0.98697 -4.13444 0.49474 145 144 134
0.97585 -4.14511 0.50244 148 146 132
0.97450 -4.15704 0.52458 137 128 127
0.95617 -4.17127 0.51696 134 133 128
0.96782 -4.17608 0.53078 133 127 122
0.94945 -4.19035 0.52314 136 137 122
0.65717 -4.44308 0.74200 105 107 103
0.67545 -4.42888 0.74960 112 109 116
0.66109 -4.43598 0.71903 107 98 84
0.66434 -4.43953 0.75728 112 110 113
0.64999 -4.44663 0.72672 99 101 94
0.65324 -4.45018 0.76497 120 122 112
0.64652 -4.45480 0.74956 113 115 109
0.63542 -4.46545 0.75725 119 117 115
0.62824 -4.46900 0.74196 117 119 112
0.62158 -4.46958 0.76569 115 109 98
0.62875 -4.46604 0.78095 115 110 100
0.61049 -4.48022 0.77337 110 105 87
0.55113 -4.60112 0.82244 118 109 100
0.56233 -4.59038 0.81469 120 117 105
0.55508 -4.59396 0.79927 113 110 102
0.54388 -4.60470 0.80702 114 111 102
0.54717 -4.60829 0.84562 107 106 92
0.53993 -4.61187 0.83020 110 105 97
1.83612 -1.62302 -0.29952 19 13 24
1.83899 -1.61782 -0.31633 16 9 16
1.83087 -1.62561 -0.31070 16 9 22
1.83488 -1.63447 -0.29741 32 20 33
1.83704 -1.64779 -0.29703 45 30 41
1.84170 -1.66255 -0.29792 54 40 47
1.84551 -1.67695 -0.29837 65 51 51
1.84260 -1.68222 -0.28132 75 56 50
1.83728 -1.68485 -0.29266 73 54 52
1.83195 -1.68748 -0.30400 71 51 54
2.56868 -2.17850 -0.65372 52 36 35
2.57233 -2.17189 -0.67513 58 42 43
2.55867 -2.18862 -0.64673 40 25 19
2.54884 -2.19885 -0.63983 25 13 15
2.53180 -2.21209 -0.64691 14 10 15
2.45863 -2.22537 -0.58467 7 8 22
2.46225 -2.21881 -0.60586 8 5 5
2.45200 -2.22864 -0.59877 8 7 10
2.44176 -2.23846 -0.59168 9 8 16
2.46106 -2.24286 -0.58394 11 11 36
2.45780 -2.25700 -0.58034 14 13 50
2.44647 -2.26625 -0.57270 18 17 67
2.43980 -2.27836 -0.56738 28 16 73
2.43616 -2.28495 -0.54606 15 16 79
2.42949 -2.28825 -0.56025 23 19 84
2.32952 -2.32277 -0.49849 74 48 33
2.33312 -2.31624 -0.51959 53 32 59
2.32293 -2.32602 -0.51253 60 34 40
2.31889 -2.33226 -0.49122 82 58 27
2.31488 -2.36269 -0.48521 96 68 47
2.29304 -2.36477 -0.47238 119 96 66
2.28241 -2.37428 -0.46511 152 138 119
2.26968 -2.38236 -0.45679 155 137 90
2.26197 -2.39384 -0.45096 165 145 90
2.25082 -2.40299 -0.44343 142 118 70
2.23752 -2.41063 -0.43484 132 97 58
2.21953 -2.41498 -0.42395 132 100 51
2.21687 -2.43001 -0.42059 127 96 46
2.21540 -2.44595 -0.41781 135 112 55
2.19857 -2.45902 -0.42481 126 90 52
2.19792 -2.45059 -0.40718 134 112 48
2.18112 -2.46363 -0.41416 125 90 50
2.18930 -2.46151 -0.40089 131 105 52
2.17250 -2.47456 -0.40788 124 87 61
2.18772 -2.47752 -0.39804 128 97 76
2.17088 -2.49060 -0.40504 98 76 86
2.17813 -2.48779 -0.39127 129 106 85
2.18494 -2.51007 -0.39248 145 121 133
2.17993 -2.52382 -0.38792 128 119 166
2.15423 -2.52227 -0.37331 100 75 129
2.15622 -2.54125 -0.37215 95 79 146
2.14170 -2.54794 -0.36298 68 64 163
2.11158 -2.56035 -0.34413 135 101 193
2.11279 -2.57898 -0.34256 202 210 231
2.08990 -2.57909 -0.32937 206 200 212
2.10503 -2.60866 -0.33448 80 93 140
2.11594 -2.63520 -0.33754 40 36 126
2.11135 -2.64973 -0.33313 47 53 147
2.09422 -2.66303 -0.34025 106 68 105
2.12231 -2.71362 -0.33167 130 95 39
2.13285 -2.70352 -0.33897 130 74 87
2.12604 -2.70688 -0.35347 118 82 64
2.11550 -2.71699 -0.34618 95 95 46
2.12428 -2.73386 -0.33034 82 95 43
2.14659 -2.80900 -0.33405 24 18 44
2.12890 -2.82274 -0.34140 23 19 26
2.15275 -2.87233 -0.32989 25 21 29
2.15658 -2.86538 -0.35238 27 21 30
2.15020 -2.88983 -0.32630 35 30 36
2.15242 -2.91151 -0.32494 48 42 43
2.14522 -2.92522 -0.31913 68 68 69
2.17316 -2.96946 -0.32984 103 99 96
2.15493 -2.98362 -0.33742 122 120 117
2.17277 -2.98941 -0.32718 117 113 109
2.15448 -3.00361 -0.33478 125 121 122
2.17532 -3.01208 -0.32590 128 123 122
2.15696 -3.02634 -0.33353 132 126 124
2.03487 -3.15548 -0.22760 134 128 131
2.03881 -3.14834 -0.25070 131 127 113
2.02459 -3.16706 -0.22027 141 144 143
2.00620 -3.18134 -0.22792 143 144 130
1.91664 -3.23380 -0.15001 141 139 123
1.93493 -3.21960 -0.14241 146 146 137
1.92775 -3.22315 -0.15770 145 137 128
1.92382 -3.23025 -0.13472 143 144 125
