ply
format ascii 1.0
element face 0
property list uchar int vertex_indices
element vertex 1329
property float x
property float y
property float z
property uchar diffuse_red
property uchar diffuse_green
property uchar diffuse_blue
end_header
1.01694 -3.55155 1.42399 185 166 116
1.02413 -3.58606 1.43114 127 98 65
1.01334 -3.59502 1.43778 111 95 88
0.86227 -4.28455 1.69213 109 93 67
0.88010 -4.27034 1.70021 110 92 66
0.87322 -4.27364 1.68487 110 91 72
0.86634 -4.27694 1.66953 110 91 81
0.85330 -4.29911 1.69969 96 76 61
0.84229 -4.30993 1.70695 42 29 20
0.82444 -4.32415 1.69886 17 19 15
2.52194 -1.49606 0.25149 254 254 254
2.53670 -1.48430 0.25818 254 254 254
2.53100 -1.48703 0.24548 253 254 254
2.70080 -1.65354 0.22797 216 200 202
2.68513 -1.66603 0.22087 239 213 191
2.66778 -1.66726 0.24443 226 204 169
2.71654 -1.70009 0.23515 150 127 104
3.46972 -2.11450 0.06565 94 105 110
3.49867 -2.14340 0.06281 138 145 150
3.49915 -2.16037 0.06743 166 166 171
3.50603 -2.18019 0.07042 173 173 174
3.50163 -2.18842 0.09486 178 175 183
3.49419 -2.19199 0.07827 177 173 175
3.48675 -2.19556 0.06168 171 170 174
3.38340 -2.19381 0.12098 169 167 161
3.38774 -2.18571 0.09692 177 173 172
3.22064 -2.13751 0.16703 138 124 122
3.20225 -2.15216 0.15870 173 149 103
3.19177 -2.14080 0.17896 158 131 97
3.12205 -2.14149 0.20571 179 149 101
3.09186 -2.14376 0.21785 155 140 99
3.05608 -2.14327 0.23134 135 121 113
2.95511 -2.11193 0.26091 167 177 185
2.93958 -2.12046 0.26924 180 189 184
2.97039 -2.15110 0.26619 129 139 135
2.95227 -2.15848 0.27518 157 165 158
2.96507 -2.18081 0.27663 176 174 182
2.94726 -2.19501 0.26855 170 173 183
2.95664 -2.19294 0.28327 160 159 172
2.96241 -2.21207 0.28649 131 136 159
2.94079 -2.21775 0.29633 135 135 150
2.93478 -2.24760 0.30708 123 118 142
2.97748 -2.28581 0.30164 105 98 145
2.98632 -2.30712 0.30430 99 87 129
2.98217 -2.31489 0.32739 141 158 171
2.96810 -2.32164 0.29605 48 29 65
2.84407 -2.30035 0.35656 35 51 76
2.87199 -2.33187 0.35485 90 99 123
2.82692 -2.32467 0.36998 148 161 185
2.80811 -2.34817 0.38380 154 156 154
2.80122 -2.35147 0.36845 146 158 166
2.79798 -2.35954 0.39088 137 125 109
2.78478 -2.36923 0.39865 120 114 111
2.77029 -2.37818 0.40670 114 110 91
2.75323 -2.38567 0.41532 116 110 85
2.72979 -2.38953 0.42534 80 84 61
2.71883 -2.40035 0.43258 80 76 70
2.76777 -2.44534 0.42668 113 124 114
2.76218 -2.45949 0.43282 117 131 120
2.73658 -2.46211 0.44331 106 115 123
2.72905 -2.47514 0.44986 73 53 78
2.72429 -2.48982 0.45584 80 53 32
2.71891 -2.50419 0.46195 151 128 50
2.72091 -2.52300 0.46652 178 146 83
2.70282 -2.53741 0.45832 187 159 111
2.70790 -2.53292 0.47428 182 150 91
2.70774 -2.56844 0.48440 161 123 56
2.75686 -2.61648 0.47930 133 87 36
2.75588 -2.63414 0.48467 130 90 35
2.71242 -2.62550 0.49878 136 101 33
2.63852 -2.63371 0.52925 154 122 62
2.57818 -2.61340 0.54648 159 125 67
2.56638 -2.62388 0.55394 165 141 106
2.62617 -2.68072 0.54727 187 193 186
2.60772 -2.68717 0.55612 196 209 197
2.60374 -2.70306 0.56213 197 194 171
2.58548 -2.71761 0.55386 174 144 104
2.54050 -2.67981 0.57964 174 149 116
2.52248 -2.69417 0.57147 180 151 105
2.52944 -2.69084 0.58697 178 151 95
2.51743 -2.70124 0.59449 169 140 76
2.49187 -2.70247 0.60457 152 121 67
2.48927 -2.71918 0.61030 130 95 44
2.41387 -2.76003 0.65058 126 98 41
2.41796 -2.75239 0.62789 124 96 51
2.40696 -2.76334 0.63518 124 97 53
2.39007 -2.76190 0.66017 107 81 32
2.36263 -2.76105 0.67038 78 54 31
2.34487 -2.77520 0.66233 66 53 39
2.34499 -2.76707 0.67881 69 50 29
2.32937 -2.77450 0.68686 75 51 23
2.32024 -2.78660 0.69377 100 76 38
2.32035 -2.80550 0.69907 122 97 48
2.30258 -2.81966 0.69102 124 96 46
2.23011 -2.85180 0.74656 129 103 57
2.24776 -2.83773 0.75455 131 101 44
2.24094 -2.84100 0.73937 129 102 50
2.23413 -2.84427 0.72419 127 100 45
2.22343 -2.86579 0.75306 146 126 90
2.21124 -2.87557 0.76047 179 169 121
2.20143 -2.88718 0.76750 186 172 104
2.17626 -2.88675 0.77696 176 151 76
2.15611 -2.89014 0.78560 164 141 68
2.14772 -2.90278 0.79237 163 149 75
2.12084 -2.90064 0.80200 164 152 108
2.10472 -2.90699 0.80994 154 139 81
1.77194 -2.72768 0.88591 108 110 101
1.75201 -2.72907 0.89389 148 138 118
1.73599 -2.74184 0.88663 149 132 110
1.52964 -2.84387 1.01109 156 135 117
1.53323 -2.83716 0.99116 156 135 116
1.51690 -2.85058 1.01784 165 151 136
1.48426 -2.83829 1.02680 182 177 168
1.46466 -2.83822 1.03424 188 186 181
1.44912 -2.85060 1.02720 188 186 178
1.35085 -2.87637 1.08839 155 166 166
1.36619 -2.86415 1.09534 164 171 173
1.36027 -2.86699 1.08215 161 172 173
1.34319 -2.88755 1.09447 143 149 165
1.32963 -2.89269 1.10109 145 152 165
1.23943 -3.09100 1.19160 160 170 176
1.25505 -3.07856 1.19868 162 170 178
1.24902 -3.08145 1.18525 160 171 177
1.23186 -3.10286 1.19785 156 166 174
1.22209 -3.11222 1.20422 151 159 168
1.20939 -3.11820 1.21075 148 156 162
1.19897 -3.12677 1.21714 146 156 164
1.18953 -3.13649 1.22349 134 142 152
1.24343 -3.22089 1.22686 86 105 120
1.22745 -3.23363 1.21962 77 99 120
1.23003 -3.26952 1.24574 78 96 124
1.23127 -3.29283 1.25186 81 98 130
1.24107 -3.32674 1.25774 89 107 140
1.24257 -3.35080 1.26398 98 122 152
1.24056 -3.37069 1.27038 111 141 172
1.23552 -3.38697 1.27690 124 155 183
1.22797 -3.40017 1.28352 137 167 200
1.22344 -3.41723 1.29008 148 178 209
1.21566 -3.43026 1.29673 159 186 218
1.20558 -3.44038 1.30343 168 195 222
1.19678 -3.45215 1.31012 184 206 233
1.19426 -3.47209 1.31672 195 212 236
1.17773 -3.48527 1.30923 223 225 237
1.19130 -3.49158 1.32337 207 217 236
1.17472 -3.50479 1.31586 226 228 235
1.18364 -3.50504 1.33010 217 224 234
1.16705 -3.51826 1.32258 228 231 234
1.12823 -3.50218 1.35039 227 227 228
1.13198 -3.49517 1.32957 230 231 234
1.12188 -3.50522 1.33626 230 231 233
1.10994 -3.50117 1.35707 217 216 218
1.06231 -3.50720 1.37692 214 216 222
1.06602 -3.50026 1.35630 209 210 218
1.05603 -3.51021 1.36293 212 214 221
1.05070 -3.51490 1.38353 222 225 227
1.01904 -3.54233 1.40335 231 232 224
1.02275 -3.53540 1.38276 226 230 231
1.01277 -3.54534 1.38937 228 229 230
1.00534 -3.54696 1.40988 215 209 181
1.00801 -3.57501 1.41681 162 141 102
0.99388 -3.57905 1.42333 114 90 70
0.98036 -3.58388 1.42985 111 96 90
0.97665 -3.59081 1.45045 120 101 92
0.97038 -3.59382 1.43646 118 99 91
0.93169 -4.15134 1.60908 99 86 68
0.94935 -4.13727 1.61709 108 88 76
0.94253 -4.14054 1.60189 101 87 68
0.93850 -4.14808 1.62428 107 89 77
0.92765 -4.15888 1.63147 106 90 81
0.92084 -4.16215 1.61627 97 86 74
0.87151 -4.22503 1.65287 100 89 72
0.88921 -4.21092 1.66089 108 92 73
0.88238 -4.21420 1.64566 97 88 68
0.87834 -4.22175 1.66810 107 91 79
0.86747 -4.23258 1.67530 107 92 75
0.86063 -4.23586 1.66007 104 91 74
0.85788 -4.29243 1.67714 112 93 74
0.86195 -4.28482 1.65452 103 90 78
0.85405 -4.31656 1.68543 81 64 44
0.84238 -4.32624 1.69262 34 25 13
0.82447 -4.34051 1.68451 23 25 20
2.50517 -1.49471 0.24191 245 250 248
2.50852 -1.48843 0.22326 236 244 251
2.49949 -1.49743 0.22925 214 219 239
2.55820 -1.53935 0.23407 81 73 139
2.54322 -1.55128 0.22728 61 61 74
2.58313 -1.56140 0.23068 86 86 116
2.62751 -1.59108 0.22197 147 155 161
2.62628 -1.60358 0.22595 154 146 168
2.66257 -1.63067 0.21961 155 136 160
2.64638 -1.63755 0.22776 203 182 182
2.63089 -1.64989 0.22074 235 213 189
2.63492 -1.65950 0.23830 214 189 166
2.67460 -1.68868 0.23126 116 90 99
2.65890 -1.70119 0.22414 55 35 48
2.66049 -1.69648 0.23886 59 44 58
2.64481 -1.70898 0.23175 78 61 65
3.50263 -2.15179 0.04333 117 126 129
3.50195 -2.16832 0.04822 149 153 156
3.49522 -2.18230 0.05472 166 167 168
3.37030 -2.19473 0.10614 172 167 156
3.23782 -2.15186 0.14496 165 147 118
3.14279 -2.14136 0.17848 177 151 107
3.12459 -2.15586 0.17024 157 128 97
3.11145 -2.14319 0.19102 175 145 98
3.09333 -2.15763 0.18281 149 125 82
3.07499 -2.14250 0.20482 163 129 90
3.03571 -2.14030 0.21928 135 113 91
2.97950 -2.12991 0.23793 145 149 156
2.95227 -2.13298 0.24924 158 170 178
2.95303 -2.14934 0.25354 145 154 156
2.98478 -2.18076 0.25016 123 120 130
2.95777 -2.18390 0.26140 160 174 189
2.91371 -2.19474 0.28135 164 169 173
2.89599 -2.20886 0.27332 161 169 176
2.89783 -2.20309 0.28979 166 168 166
2.89450 -2.21770 0.29516 159 159 160
3.01237 -2.29362 0.27120 89 89 96
2.99411 -2.30817 0.26293 130 132 110
3.00175 -2.30509 0.27850 56 56 65
2.89161 -2.26553 0.30967 49 33 87
2.86413 -2.28449 0.32553 39 48 71
2.83749 -2.28717 0.33651 48 43 40
2.81481 -2.29183 0.34651 33 30 32
2.83604 -2.31975 0.34620 74 66 70
2.80507 -2.31995 0.35814 143 136 136
2.81006 -2.33941 0.36167 149 157 170
2.78806 -2.36118 0.37622 152 163 154
2.77035 -2.36837 0.38503 152 153 150
2.76331 -2.38143 0.39139 137 138 128
2.74149 -2.38624 0.40111 130 134 122
2.71357 -2.38753 0.41219 93 95 94
2.69586 -2.40164 0.40416 41 42 55
2.69773 -2.39554 0.42051 75 79 86
2.72402 -2.42761 0.41941 74 78 98
2.71900 -2.44195 0.42536 73 58 74
2.75358 -2.47932 0.42257 55 33 51
2.73115 -2.48375 0.43241 72 46 66
2.71190 -2.48995 0.44154 135 105 77
2.72883 -2.51753 0.44277 175 151 97
2.71073 -2.53196 0.43457 187 157 105
2.71876 -2.52923 0.44992 184 158 105
2.70065 -2.54366 0.44171 187 156 110
2.68508 -2.56226 0.47210 180 148 83
2.67353 -2.57307 0.47956 178 142 83
2.66665 -2.58677 0.48604 175 141 90
2.66912 -2.60632 0.49058 173 140 92
2.64290 -2.60800 0.50111 173 143 87
2.62478 -2.62244 0.49290 187 158 94
2.62157 -2.61264 0.51059 176 148 86
2.59901 -2.61640 0.52030 180 150 89
2.58099 -2.63076 0.51213 184 163 117
2.57979 -2.62219 0.52930 183 153 95
2.56386 -2.63004 0.53761 181 155 108
2.57883 -2.65792 0.53968 191 166 131
2.55585 -2.66121 0.54942 180 153 131
2.54942 -2.67529 0.55584 175 147 117
2.51099 -2.70492 0.57889 174 143 92
2.48848 -2.70819 0.58844 147 116 78
2.48288 -2.72288 0.59471 113 75 38
2.47009 -2.73270 0.60237 112 85 46
2.45905 -2.74370 0.60969 120 94 60
2.45211 -2.74703 0.59422 122 95 57
2.39164 -2.77121 0.64327 119 91 46
2.39572 -2.76358 0.62061 125 96 51
2.35649 -2.76484 0.65497 86 60 35
2.32771 -2.78153 0.67069 68 57 35
2.31598 -2.79176 0.67806 92 77 29
2.31730 -2.81159 0.68311 118 96 39
2.29951 -2.82576 0.67505 122 95 50
2.20983 -2.84475 0.73365 127 100 54
2.21384 -2.83724 0.71136 126 98 33
2.21392 -2.86699 0.73831 142 122 98
2.21220 -2.88488 0.74399 180 175 152
2.20753 -2.90055 0.75017 198 198 161
2.19642 -2.91123 0.75743 201 196 151
2.18262 -2.91976 0.76512 205 198 148
2.16490 -2.93388 0.75709 197 193 172
2.15384 -2.91632 0.77519 201 189 142
2.13526 -2.92087 0.78360 192 180 143
2.10288 -2.91419 0.79415 182 170 117
2.09312 -2.92568 0.80112 133 119 64
1.75017 -2.73568 0.87947 145 137 116
1.73412 -2.74847 0.87220 152 132 113
1.53040 -2.85322 0.99674 154 134 118
1.53399 -2.84650 0.97676 153 132 116
1.51917 -2.86140 1.00335 163 148 133
1.48962 -2.85206 1.01206 180 172 162
1.47397 -2.86453 1.00497 184 182 175
1.46897 -2.85101 1.01969 186 182 176
1.45338 -2.86344 1.01263 185 186 177
1.36268 -2.87823 1.06811 157 167 177
1.37806 -2.86597 1.07508 163 173 175
1.37213 -2.86882 1.06185 162 173 179
1.36619 -2.87167 1.04862 162 171 180
1.35674 -2.88107 1.05488 156 161 179
1.35318 -2.88758 1.07438 148 158 159
1.34302 -2.89626 1.08071 148 154 159
1.33012 -2.90211 1.08730 157 167 172
1.31476 -2.91435 1.08034 169 183 183
1.31664 -2.90732 1.09393 168 178 176
1.30131 -2.91954 1.08698 170 182 189
1.26015 -3.08326 1.16493 152 162 177
1.25130 -3.09371 1.17125 146 154 174
1.23858 -3.09978 1.17783 140 146 167
1.23266 -3.13424 1.18976 127 129 144
1.22935 -3.15121 1.19579 118 117 131
1.25076 -3.19715 1.20045 111 101 126
1.24945 -3.21687 1.20648 101 91 125
1.24343 -3.23115 1.21279 76 90 117
1.23034 -3.25864 1.22552 85 100 124
1.22932 -3.27914 1.23166 88 104 133
1.23659 -3.30984 1.23748 100 117 147
1.24154 -3.33800 1.24347 117 136 162
1.24196 -3.36082 1.24971 136 155 184
1.24305 -3.38466 1.25597 155 174 197
1.22565 -3.38558 1.26290 167 189 209
1.21472 -3.39453 1.26960 177 198 213
1.20352 -3.40310 1.27631 186 206 222
1.19918 -3.42040 1.28282 195 211 226
1.19491 -3.43791 1.28936 203 215 228
1.18728 -3.45116 1.29601 211 220 233
1.17082 -3.46427 1.28855 230 233 237
1.18229 -3.46789 1.30261 218 223 238
1.16580 -3.48103 1.29514 231 233 237
1.09495 -3.49246 1.34302 223 224 223
1.09867 -3.48550 1.32233 231 233 236
1.07730 -3.49207 1.34968 213 213 215
1.02835 -3.49555 1.36944 217 219 223
1.03204 -3.48866 1.34896 215 217 220
1.02212 -3.49854 1.35554 215 215 219
1.01220 -3.50842 1.36212 219 220 223
0.98546 -3.53048 1.39569 228 226 217
0.98914 -3.52360 1.37524 228 229 232
0.97923 -3.53347 1.38181 230 229 229
0.96159 -3.52024 1.40198 205 192 163
0.97868 -3.56913 1.40912 137 114 90
0.96818 -3.57826 1.41571 108 87 82
0.95883 -3.58907 1.42233 111 96 86
0.95513 -3.59599 1.44289 120 101 91
0.94887 -3.59900 1.42893 116 100 86
0.91799 -4.14272 1.59319 80 70 67
0.90037 -4.15676 1.58521 69 66 55
0.90373 -4.14751 1.60000 80 77 71
0.89971 -4.15501 1.62230 96 86 76
0.88863 -4.15073 1.60670 78 76 75
0.88462 -4.15823 1.62895 98 87 76
0.87785 -4.16148 1.61385 82 79 81
0.86417 -4.19708 1.62908 83 78 65
0.88178 -4.18305 1.63706 97 87 73
0.87498 -4.18631 1.62191 85 77 75
0.86819 -4.18957 1.60675 83 81 74
0.84655 -4.21112 1.62110 73 62 70
0.86212 -4.22371 1.63732 86 78 68
0.86291 -4.25570 1.64599 94 87 74
0.84685 -4.28810 1.66123 107 90 70
0.85409 -4.33279 1.67098 63 51 34
0.84120 -4.34030 1.67803 32 28 20
0.82326 -4.35460 1.66990 23 32 23
0.49244 -4.70087 1.91293 117 113 84
0.47446 -4.71520 1.90478 138 121 104
2.59658 -1.59726 0.21940 111 110 135
2.63850 -1.62651 0.21131 131 117 134
2.62725 -1.63527 0.21809 199 181 168
2.61220 -1.65570 0.22958 198 174 164
2.65606 -1.68657 0.22119 96 64 96
3.49383 -2.15475 0.02718 97 103 110
3.53090 -2.18758 0.02195 129 138 144
3.51195 -2.19638 0.03172 155 157 166
3.47484 -2.19717 0.04628 164 165 175
3.47045 -2.20539 0.07070 174 172 179
3.46302 -2.20895 0.05412 168 170 174
3.42917 -2.21093 0.06776 171 171 170
3.21813 -2.14960 0.13234 149 134 119
3.19969 -2.16429 0.12398 131 110 88
3.01592 -2.13756 0.20717 130 117 87
2.99207 -2.14238 0.21773 126 130 130
2.94480 -2.13594 0.23421 148 156 166
2.92714 -2.15001 0.22621 156 162 162
2.93945 -2.14938 0.24001 154 158 157
2.98039 -2.18529 0.23415 118 123 132
2.96594 -2.19454 0.24230 128 132 148
2.94215 -2.19918 0.25278 146 152 176
2.90454 -2.19686 0.26668 156 163 177
2.88682 -2.21098 0.25865 154 160 170
2.86560 -2.20989 0.28535 160 169 168
2.85879 -2.21316 0.27017 153 163 168
2.84302 -2.21474 0.29542 143 151 134
2.81633 -2.29953 0.32927 46 44 49
2.82093 -2.31867 0.33280 82 73 66
2.81254 -2.33094 0.33945 143 142 142
2.80706 -2.34482 0.34541 139 140 156
2.79123 -2.35308 0.35382 128 141 158
2.77567 -2.36146 0.36217 117 134 155
2.75258 -2.36563 0.37225 103 116 140
2.73790 -2.37439 0.38035 88 89 92
2.69917 -2.36962 0.39400 79 62 58
2.73226 -2.40525 0.39109 47 27 43
2.70762 -2.42545 0.40623 49 42 48
2.72523 -2.45285 0.40702 98 77 47
2.71001 -2.46136 0.41526 137 112 58
2.73052 -2.49079 0.41550 167 138 90
2.72654 -2.50602 0.42126 183 153 100
2.70847 -2.52042 0.41307 189 161 116
2.71660 -2.51777 0.42836 186 159 106
2.69852 -2.53217 0.42017 190 159 111
2.67971 -2.56660 0.45617 185 155 100
2.68384 -2.55888 0.43322 189 161 115
2.67272 -2.56996 0.44059 187 163 116
2.66160 -2.58104 0.44797 184 165 111
2.67611 -2.58232 0.46193 184 154 98
2.66528 -2.59361 0.46924 185 154 99
2.66078 -2.60886 0.47522 187 156 100
2.58933 -2.61799 0.50537 184 161 102
2.55193 -2.63013 0.52320 183 166 122
2.55858 -2.65262 0.52686 184 165 119
2.54578 -2.66250 0.53455 185 163 115
2.53854 -2.67604 0.54111 183 161 107
2.52543 -2.68571 0.54886 167 141 110
2.51386 -2.69639 0.55630 161 135 125
2.50226 -2.70705 0.56374 160 128 99
2.48188 -2.71174 0.57292 117 88 42
2.46391 -2.72606 0.56478 69 37 24
2.46050 -2.71566 0.58227 85 54 21
2.46836 -2.73962 0.58588 105 83 48
2.39015 -2.77837 0.62687 124 97 48
2.39423 -2.77073 0.60418 122 95 49
2.35105 -2.76915 0.63942 91 66 28
2.33069 -2.77319 0.64842 62 43 29
2.31839 -2.78301 0.65590 47 39 28
2.30678 -2.79332 0.66324 70 60 34
2.31293 -2.81672 0.66736 108 89 44
2.29514 -2.83091 0.65929 123 94 45
2.19424 -2.84124 0.72005 127 98 39
2.19825 -2.83376 0.69781 124 96 47
2.19009 -2.85710 0.72605 136 112 77
2.19797 -2.88239 0.73002 162 150 127
2.19807 -2.90178 0.73536 182 176 154
2.18661 -2.91217 0.74267 189 182 157
2.17593 -2.92316 0.74985 196 192 174
2.13627 -2.93041 0.76720 200 196 162
2.10970 -2.92843 0.77692 199 190 149
2.06894 -2.91469 0.78886 162 146 117
2.05154 -2.92856 0.78098 78 70 77
1.74940 -2.74324 0.86484 143 135 120
1.73333 -2.75604 0.85756 150 132 116
1.52753 -2.85918 0.98278 150 131 117
1.53113 -2.85245 0.96278 150 129 113
1.52342 -2.87415 0.98852 159 146 134
1.49206 -2.86308 0.99757 177 171 162
1.35597 -2.89931 1.06024 150 158 165
1.35949 -2.89273 1.04068 160 166 183
1.35002 -2.90217 1.04696 161 171 179
1.32756 -2.90843 1.07375 166 180 176
1.30447 -2.94216 1.09203 170 183 192
1.30096 -2.94873 1.11156 169 181 191
1.30031 -2.95719 1.09781 170 183 194
1.29678 -2.96378 1.11738 168 181 189
1.30285 -2.97946 1.10301 168 182 188
1.29931 -2.98607 1.12266 167 181 190
1.30021 -2.99632 1.10871 165 176 188
1.29666 -3.00295 1.12840 165 181 187
1.29066 -3.00583 1.11504 157 169 186
1.34629 -3.12725 1.12721 137 144 158
1.31556 -3.13451 1.14111 120 115 132
1.29960 -3.14723 1.13388 64 21 44
1.28817 -3.12448 1.14892 113 98 127
1.27231 -3.13712 1.14173 69 25 44
1.26961 -3.14493 1.16176 92 65 108
1.25127 -3.18671 1.18044 68 27 56
1.25027 -3.20673 1.18638 63 21 52
1.25151 -3.22954 1.19223 59 29 67
1.24467 -3.24293 1.19859 51 56 99
1.23309 -3.25070 1.20522 69 93 115
1.23017 -3.26887 1.21139 102 118 126
1.23265 -3.29368 1.21732 125 137 153
1.22862 -3.31077 1.22361 149 162 181
1.22486 -3.32827 1.22992 174 188 195
1.21423 -3.33740 1.23656 190 205 215
1.20784 -3.35178 1.24303 203 215 220
1.19969 -3.36403 1.24957 208 219 227
1.19679 -3.38292 1.25594 213 222 228
1.18047 -3.39592 1.24854 231 233 236
1.19183 -3.39933 1.26240 219 226 232
1.17549 -3.41235 1.25500 231 233 236
1.18676 -3.43863 1.27527 225 229 234
1.17032 -3.45172 1.26782 232 235 239
1.17877 -3.45141 1.28190 227 232 236
1.16232 -3.46452 1.27445 233 234 238
1.07691 -3.47954 1.32909 227 231 233
1.08062 -3.47260 1.30849 231 233 237
1.07064 -3.48255 1.31511 230 234 237
1.06123 -3.48169 1.33574 220 223 224
1.03982 -3.47582 1.34240 215 217 219
1.02368 -3.48869 1.33508 223 222 225
0.96125 -3.53166 1.38826 223 220 205
0.93800 -3.52204 1.39458 183 166 141
0.94769 -3.56041 1.40148 118 88 75
0.93809 -3.57071 1.40805 103 89 76
0.92357 -3.57372 1.41449 109 98 83
0.91990 -3.58059 1.43489 117 101 84
0.91369 -3.58357 1.42105 112 98 83
1.03871 -3.98515 1.48412 110 97 81
1.03471 -3.99262 1.50633 118 100 83
1.02795 -3.99587 1.49125 114 97 81
1.02741 -4.02299 1.49898 109 94 75
1.03420 -4.01973 1.51412 115 99 82
1.02339 -4.03050 1.52128 116 99 84
1.01979 -4.03890 1.50634 106 91 72
1.01577 -4.04642 1.52867 117 98 88
1.00748 -4.04725 1.51342 109 94 83
1.00346 -4.05476 1.53574 116 97 81
0.99885 -4.06160 1.52074 109 98 82
0.99483 -4.06912 1.54307 112 96 76
0.98718 -4.07099 1.52785 104 89 75
0.98316 -4.07851 1.55018 106 94 73
0.97636 -4.08177 1.53502 94 85 76
0.91824 -4.12871 1.57052 80 66 62
0.92225 -4.12121 1.54823 93 84 71
0.91145 -4.13197 1.55539 87 83 79
0.90972 -4.14344 1.57790 66 61 49
0.88052 -4.15164 1.59146 66 64 55
0.86215 -4.14891 1.59780 78 75 76
0.85345 -4.19331 1.61348 72 65 70
0.85135 -4.25042 1.63014 84 73 70
0.83361 -4.26455 1.62210 86 80 60
0.84470 -4.26906 1.63788 94 86 62
0.83908 -4.28973 1.64579 100 85 52
0.84098 -4.32459 1.65472 54 44 40
0.83130 -4.33802 1.66219 29 32 30
0.81338 -4.35230 1.65407 22 34 32
0.46592 -4.62025 1.88174 76 80 63
0.48363 -4.60615 1.88976 22 17 16
0.46996 -4.61270 1.85931 43 43 47
0.48207 -4.69598 1.89651 127 119 92
0.46412 -4.71028 1.88837 137 119 104
2.60131 -1.61720 0.20685 116 100 105
2.60481 -1.61066 0.18743 38 32 56
2.62272 -1.63868 0.20441 195 183 159
2.62636 -1.65333 0.20701 223 208 171
2.57961 -1.64793 0.22374 180 159 138
2.63930 -1.68515 0.21071 95 64 75
2.63813 -1.69812 0.21473 69 48 45
3.57902 -2.21524 -0.00978 112 118 128
3.54637 -2.21824 0.00376 140 142 149
3.48899 -2.21022 0.02391 155 156 164
3.44606 -2.20830 0.04010 160 160 167
3.06339 -2.13408 0.16877 177 142 99
3.03263 -2.13586 0.18124 159 133 84
3.00776 -2.14027 0.19214 124 102 82
2.99026 -2.14808 0.20110 113 106 111
2.93877 -2.13958 0.21882 141 144 156
2.94020 -2.17242 0.22728 144 146 145
2.95819 -2.19743 0.22714 109 104 119
2.94668 -2.20810 0.23455 124 132 156
2.89363 -2.19812 0.25247 145 152 175
2.82164 -2.21058 0.28393 154 162 161
2.80445 -2.21802 0.29267 148 154 149
2.80304 -2.23355 0.29748 138 146 137
2.80412 -2.25045 0.30170 111 120 109
2.79122 -2.26011 0.30938 87 92 77
2.79337 -2.27771 0.31337 76 74 75
2.79699 -2.31283 0.32161 68 74 80
2.79014 -2.31612 0.30634 70 44 46
2.80418 -2.33345 0.32446 86 110 114
2.79580 -2.34574 0.33110 83 89 109
2.78909 -2.35898 0.33735 82 65 95
2.77906 -2.37041 0.34440 62 44 65
2.70789 -2.34791 0.36594 54 43 70
2.69226 -2.35598 0.37424 73 71 58
2.68513 -2.36881 0.38054 111 90 29
2.67412 -2.37945 0.38775 74 55 60
2.68125 -2.40047 0.39074 109 91 51
2.71514 -2.43704 0.38758 130 101 33
2.72828 -2.46194 0.38930 161 134 88
2.71031 -2.47626 0.38116 184 162 110
2.72919 -2.47991 0.39388 179 152 90
2.71182 -2.50477 0.40747 189 162 111
2.65842 -2.59706 0.45360 183 164 114
2.65019 -2.60999 0.46036 183 167 121
2.62581 -2.61274 0.47061 183 167 106
2.60546 -2.61795 0.47997 179 161 96
2.58446 -2.62265 0.48944 171 148 117
2.56493 -2.62822 0.49857 164 137 120
2.54769 -2.63519 0.50720 156 131 114
2.56120 -2.66221 0.50935 148 121 98
2.56579 -2.68358 0.51343 139 108 80
2.54097 -2.68560 0.52365 129 99 67
2.52290 -2.70000 0.51547 108 84 41
2.52390 -2.69267 0.53224 106 76 64
2.50586 -2.70705 0.52407 111 86 46
2.49955 -2.69479 0.54231 104 84 69
2.48157 -2.70912 0.53416 123 96 44
2.48426 -2.70291 0.55049 116 97 56
2.47247 -2.71338 0.55796 109 85 41
2.46080 -2.74253 0.57051 92 70 53
2.45595 -2.75787 0.57661 118 94 55
2.45184 -2.76556 0.59946 123 94 52
2.44488 -2.76890 0.58395 122 95 52
2.43791 -2.77224 0.56843 122 96 55
2.38910 -2.78588 0.61033 124 97 42
2.39319 -2.77823 0.58761 122 96 51
2.35584 -2.78083 0.62190 91 68 35
2.32544 -2.77763 0.63286 59 45 31
2.31455 -2.78848 0.64008 51 44 35
2.30729 -2.80200 0.64662 73 54 47
2.31444 -2.82622 0.65048 107 80 43
2.29661 -2.84043 0.64240 122 96 43
2.19311 -2.84883 0.70395 127 97 52
2.19712 -2.84134 0.68168 124 95 52
2.18633 -2.85208 0.68884 127 98 52
2.19118 -2.86646 0.70954 130 105 71
2.20023 -2.89275 0.71323 154 143 118
2.19949 -2.91156 0.71868 185 181 152
2.18989 -2.92345 0.72569 183 171 142
2.17648 -2.93233 0.73335 173 165 152
2.13960 -2.92233 0.74497 173 171 166
2.12293 -2.92839 0.75313 184 185 165
2.10293 -2.93168 0.76182 190 187 157
2.07571 -2.92895 0.77167 170 158 132
2.05824 -2.94287 0.76375 78 65 77
1.73595 -2.74007 0.85215 141 136 120
1.73961 -2.73323 0.83183 79 68 69
1.71991 -2.75285 0.84488 150 130 113
1.52287 -2.86346 0.96902 145 126 117
1.52647 -2.85672 0.94900 147 127 108
1.51677 -2.86638 0.95543 140 124 114
1.51730 -2.87707 0.97492 153 142 138
1.49150 -2.87127 0.98338 172 170 166
1.47645 -2.87568 0.99045 183 184 176
1.46681 -2.88528 0.99684 184 186 176
1.46075 -2.88819 0.98333 183 184 180
1.37321 -2.88756 1.03392 163 173 181
1.38866 -2.87525 1.04093 164 175 179
1.38269 -2.87811 1.02763 164 177 183
1.33891 -2.90993 1.05342 162 175 181
1.32663 -2.91645 1.05999 161 174 182
1.31992 -2.92874 1.06598 159 171 184
1.31280 -2.94064 1.07202 156 166 181
1.30841 -2.95545 1.07780 151 159 175
1.30663 -2.97310 1.08334 146 152 170
1.30950 -2.99584 1.08846 139 142 155
1.32826 -3.03587 1.09214 134 118 147
1.31252 -3.04840 1.08501 79 24 49
1.34222 -3.07111 1.09638 120 97 145
1.32781 -3.07572 1.10326 106 78 125
1.33281 -3.14285 1.11974 73 37 65
1.24658 -3.17026 1.16085 82 45 72
1.24184 -3.18582 1.16697 96 61 81
1.25333 -3.22052 1.17202 102 80 86
1.24675 -3.23419 1.17834 81 61 72
1.24080 -3.24867 1.18463 28 21 68
1.23181 -3.25956 1.19112 44 65 93
1.22723 -3.27579 1.19736 132 152 146
1.22427 -3.29408 1.20353 185 194 183
1.21132 -3.30025 1.21027 209 218 210
1.20018 -3.30861 1.21690 223 227 228
1.18405 -3.32146 1.20959 230 231 236
1.19530 -3.32470 1.22322 227 230 232
1.17914 -3.33758 1.21590 230 232 236
1.19176 -3.34256 1.22950 227 231 232
1.17556 -3.35546 1.22216 232 233 236
1.19039 -3.36325 1.23571 228 230 232
1.17414 -3.37620 1.22835 234 236 238
1.17816 -3.37034 1.24242 230 233 235
1.16193 -3.38328 1.23507 233 234 239
1.04194 -3.46680 1.32196 228 231 234
1.04562 -3.45992 1.30152 230 233 238
1.02550 -3.46764 1.32859 225 225 228
0.97560 -3.49226 1.35479 228 231 232
0.98544 -3.48246 1.34826 226 229 231
0.98179 -3.48929 1.36857 226 228 229
0.96870 -3.50626 1.36132 224 226 232
0.95966 -3.51724 1.36785 219 221 231
0.95201 -3.53025 1.37440 216 219 225
0.93328 -3.52711 1.38084 200 200 192
0.90783 -3.51394 1.38713 147 131 112
0.92383 -3.56180 1.39404 104 82 64
0.91229 -3.56914 1.40055 100 90 76
1.02861 -3.90087 1.44631 103 94 78
1.04589 -3.88710 1.45414 118 102 82
1.03922 -3.89030 1.43928 106 95 74
1.03255 -3.89349 1.42442 88 84 68
1.02195 -3.90406 1.43145 90 89 81
1.03037 -3.93079 1.45384 98 86 73
1.01300 -3.94462 1.44597 68 61 66
1.03302 -3.96240 1.46149 92 81 67
1.02787 -3.98192 1.46885 96 81 79
1.02349 -4.00280 1.47629 108 103 73
1.01877 -4.02327 1.48375 103 86 59
1.01483 -4.04514 1.49129 84 74 59
0.99750 -4.04531 1.49808 92 88 88
0.99167 -4.06424 1.50555 106 111 98
0.97831 -4.07082 1.51256 113 113 88
0.97114 -4.08765 1.51997 106 99 76
0.96711 -4.09518 1.54232 85 74 76
0.95848 -4.09537 1.52702 95 89 68
0.95446 -4.10288 1.54935 85 74 67
0.94504 -4.10170 1.53400 91 81 64
0.94102 -4.10920 1.55630 83 76 67
0.93378 -4.11169 1.54112 84 74 60
0.88963 -4.12354 1.56157 82 83 86
0.89362 -4.11608 1.53939 78 72 66
0.87938 -4.13512 1.56875 83 76 73
0.86399 -4.13765 1.57543 87 83 75
0.85073 -4.14385 1.58230 89 91 81
0.84787 -4.16860 1.59021 87 87 70
0.84251 -4.21941 1.60624 68 71 59
0.84682 -4.25794 1.61514 80 78 66
0.83877 -4.30524 1.63126 84 75 46
0.83790 -4.33508 1.63979 49 43 48
0.81996 -4.34938 1.63166 37 36 38
0.82761 -4.34742 1.64719 29 35 39
0.80966 -4.36172 1.63906 30 34 35
0.47768 -4.66800 1.87149 97 97 89
0.48176 -4.66037 1.84884 61 60 63
0.45981 -4.68224 1.86339 134 121 103
0.47019 -4.68735 1.87971 132 122 104
0.45229 -4.70161 1.87160 134 117 102
2.58398 -1.61557 0.19693 108 92 94
2.58747 -1.60905 0.17757 38 29 58
2.58251 -1.62804 0.20090 184 175 147
2.57540 -1.63831 0.20648 203 189 142
2.56843 -1.64866 0.21203 158 139 101
2.62110 -1.68312 0.20072 98 74 60
3.51014 -2.19224 -0.00982 98 101 104
3.56938 -2.23522 -0.02139 127 125 138
3.05242 -2.13553 0.15437 187 152 99
3.02227 -2.13755 0.16675 172 145 90
2.97851 -2.13300 0.18268 155 123 83
2.97739 -2.14853 0.18734 133 117 98
2.93284 -2.14327 0.20339 132 128 143
2.90287 -2.14483 0.21558 156 163 167
2.91346 -2.16601 0.21718 157 157 157
2.93878 -2.19459 0.21501 130 126 126
2.89730 -2.19038 0.23014 105 88 108
2.90633 -2.21113 0.23223 130 140 169
2.88232 -2.21543 0.24282 153 161 171
2.86377 -2.22239 0.25199 150 159 169
2.82964 -2.22135 0.26510 144 154 164
2.80956 -2.22736 0.27460 134 143 151
2.79204 -2.23461 0.28345 119 127 141
2.79332 -2.25161 0.28757 102 110 122
2.77573 -2.26562 0.27960 56 46 58
2.79705 -2.27000 0.29110 83 99 96
2.79109 -2.28337 0.29707 74 78 67
2.79311 -2.30103 0.30107 73 58 58
2.78167 -2.32829 0.31297 54 45 50
2.78750 -2.34828 0.31611 62 64 63
2.78251 -2.36245 0.32192 102 75 31
2.76263 -2.36844 0.33134 124 95 27
2.72607 -2.36508 0.34477 144 113 69
2.72932 -2.38383 0.34859 162 135 91
2.72206 -2.39676 0.35496 160 136 77
2.66835 -2.38329 0.37237 111 78 69
2.69677 -2.41655 0.37025 137 123 56
2.72460 -2.44978 0.36836 173 147 81
2.72498 -2.46738 0.37299 181 156 117
2.70923 -2.49312 0.38616 188 164 111
2.70093 -2.52343 0.39765 183 167 122
2.69389 -2.53693 0.40408 183 166 114
2.68976 -2.54465 0.42701 191 159 116
2.68191 -2.54747 0.41164 182 158 114
2.67214 -2.55935 0.41870 176 154 110
2.66723 -2.57423 0.42467 164 141 121
2.65817 -2.58659 0.43159 157 135 113
2.64560 -2.59679 0.43929 151 126 106
2.62571 -2.60236 0.44861 143 114 92
2.61058 -2.61088 0.45685 133 112 71
2.59252 -2.62527 0.44867 112 88 46
2.60103 -2.62291 0.46387 124 104 54
2.58296 -2.63731 0.45568 113 87 53
2.59324 -2.63609 0.47051 117 95 68
2.57515 -2.65050 0.46231 110 89 59
2.58404 -2.64839 0.47746 112 90 75
2.56594 -2.66281 0.46926 110 89 56
2.56854 -2.67494 0.49075 110 89 62
2.55042 -2.68938 0.48254 108 85 57
2.53114 -2.68704 0.50871 113 85 51
2.51308 -2.70143 0.50053 109 86 44
2.46062 -2.71334 0.54353 113 88 52
2.46471 -2.70569 0.52079 125 99 66
2.45224 -2.72613 0.55029 62 37 41
2.44951 -2.74285 0.55590 81 64 56
2.44900 -2.76121 0.56109 113 92 55
2.43096 -2.77558 0.55292 123 94 63
2.38982 -2.79468 0.59340 124 97 45
2.39392 -2.78701 0.57063 121 94 56
2.38289 -2.79800 0.57794 122 95 48
2.37186 -2.80899 0.58526 124 95 43
2.36515 -2.79582 0.60339 97 78 45
2.32828 -2.78796 0.61572 65 42 35
2.31866 -2.79978 0.62271 55 39 49
2.30087 -2.81396 0.61465 115 91 39
2.32421 -2.82280 0.62678 78 60 59
2.30634 -2.83704 0.61869 114 93 43
2.31903 -2.83803 0.63295 108 85 41
2.30113 -2.85229 0.62484 120 97 50
2.18960 -2.87378 0.69344 127 99 55
2.19363 -2.86625 0.67109 128 98 59
2.19435 -2.89678 0.69783 150 134 103
2.20824 -2.92715 0.70063 189 185 155
2.20017 -2.94035 0.70738 182 171 138
2.18857 -2.95076 0.71476 154 138 125
2.16044 -2.94785 0.72501 140 130 131
2.14267 -2.96200 0.71696 144 134 126
2.13321 -2.94549 0.73505 148 145 133
2.10714 -2.94389 0.74484 160 152 130
2.08915 -2.94877 0.75323 149 137 116
1.73175 -2.74473 0.83804 139 133 120
1.71570 -2.75751 0.83077 152 130 112
1.50455 -2.87363 0.96219 143 133 134
1.50815 -2.86689 0.94220 139 124 115
1.48466 -2.87344 0.96995 164 164 165
1.47468 -2.88275 0.97639 182 186 184
1.45896 -2.89527 0.96927 186 187 184
1.42510 -2.89118 0.99813 165 173 177
1.44071 -2.87874 1.00521 173 179 180
1.43469 -2.88163 0.99178 173 180 180
1.43113 -2.88829 1.01156 165 173 178
1.42154 -2.89784 1.01792 163 177 181
1.40632 -2.89156 1.00561 156 170 177
1.39235 -2.89665 1.01247 153 163 174
1.37740 -2.90069 1.01943 148 155 172
1.36622 -2.90848 1.02594 143 153 167
1.35782 -2.91911 1.03212 139 144 161
1.34247 -2.92259 1.03909 134 130 153
1.32776 -2.92665 1.04596 126 113 150
1.32830 -2.94657 1.05116 118 99 143
1.31315 -2.95013 1.05807 111 85 121
1.32416 -2.98130 1.06222 104 62 104
1.33545 -3.03303 1.07184 84 39 69
1.31970 -3.04558 1.06470 126 98 94
1.31891 -3.03524 1.07893 81 26 54
1.30319 -3.04776 1.07181 136 112 87
1.32284 -3.07990 1.08952 79 30 47
1.28650 -3.12159 1.11510 97 71 77
1.27465 -3.12891 1.12174 106 88 79
1.26734 -3.14136 1.12799 117 103 83
1.25147 -3.15400 1.12080 144 160 160
1.26033 -3.15421 1.13423 127 119 104
1.25896 -3.17360 1.14004 135 135 125
1.24906 -3.20441 1.15229 152 160 151
1.24149 -3.21684 1.15863 155 156 141
1.23113 -3.22599 1.16519 118 103 101
1.23459 -3.25164 1.17080 55 29 62
1.22454 -3.26126 1.17735 36 45 94
1.21461 -3.27103 1.18390 143 173 198
1.20512 -3.28132 1.19042 225 235 233
1.19580 -3.29183 1.19693 235 237 234
1.18831 -3.30462 1.20335 233 234 235
1.17222 -3.31745 1.19605 237 238 241
1.02770 -3.45875 1.30823 228 231 237
1.01519 -3.46493 1.31482 226 229 234
1.00224 -3.47044 1.32140 224 225 231
0.99858 -3.47729 1.34173 223 224 227
0.98714 -3.47288 1.32798 221 220 229
0.97213 -3.47533 1.33454 222 223 229
0.96384 -3.48727 1.34103 218 209 220
0.94882 -3.48957 1.34755 200 169 199
0.92811 -3.48356 1.35405 189 156 196
0.91955 -3.49500 1.36051 187 160 209
0.91697 -3.51523 1.36702 187 190 223
0.88145 -3.48701 1.37329 163 170 170
0.90943 -3.55259 1.38013 113 102 94
0.90132 -3.56496 1.38667 91 80 51
1.01838 -3.92570 1.43872 79 79 81
1.01736 -3.97917 1.45365 87 83 85
0.99989 -3.99309 1.44573 114 119 118
0.99203 -3.96643 1.46013 113 138 112
1.00128 -4.03743 1.47578 80 72 64
0.98370 -4.05144 1.46782 101 98 87
0.98762 -4.04350 1.48279 72 71 93
0.97161 -4.04563 1.48965 91 97 99
0.95412 -4.04516 1.49639 136 143 132
0.94338 -4.05585 1.50350 151 150 121
0.93535 -4.07108 1.51079 123 113 85
0.92463 -4.08182 1.51792 100 99 86
0.90713 -4.09577 1.50999 88 90 79
0.91430 -4.09324 1.52507 92 92 76
0.89898 -4.09608 1.53185 87 84 72
0.87135 -4.10664 1.54556 84 84 87
0.85471 -4.10683 1.55215 95 96 83
0.84458 -4.11843 1.55927 100 99 88
0.83456 -4.16006 1.57451 95 91 80
0.83258 -4.18659 1.58249 92 86 75
0.83344 -4.21854 1.59083 85 71 73
0.83493 -4.25196 1.59933 86 83 75
0.83143 -4.27647 1.60736 85 84 64
0.83740 -4.31885 1.61653 73 56 32
0.83275 -4.34174 1.62457 53 37 40
2.52501 -1.59757 0.19917 118 101 106
2.52845 -1.59114 0.18006 48 39 53
2.55314 -1.62159 0.19451 185 173 139
2.54380 -1.63090 0.20070 193 175 128
2.54817 -1.64573 0.20296 138 119 85
2.58642 -1.67438 0.19554 98 77 62
2.57096 -1.68670 0.18854 100 86 78
2.58566 -1.68740 0.19934 96 85 71
2.57017 -1.69975 0.19232 101 86 76
3.48263 -2.18710 -0.02090 83 84 85
3.54931 -2.23337 -0.03482 112 110 127
3.00723 -2.13703 0.15354 183 154 102
3.00034 -2.14034 0.13818 185 155 113
2.98937 -2.15127 0.14545 185 156 113
2.97371 -2.13726 0.16686 181 150 98
2.95429 -2.14406 0.17636 163 137 103
2.93656 -2.15819 0.16832 127 108 103
2.92247 -2.14483 0.18914 125 105 130
2.90028 -2.15012 0.19933 153 161 173
2.88332 -2.15788 0.20812 160 166 175
2.89287 -2.17866 0.20993 148 155 155
2.90391 -2.21664 0.21578 98 94 125
2.88311 -2.22256 0.22559 128 142 154
2.86374 -2.22912 0.23501 128 136 150
2.82329 -2.22483 0.24984 106 121 142
2.80415 -2.23131 0.25915 90 88 127
2.79677 -2.24382 0.26543 83 73 101
2.81196 -2.26817 0.26597 68 49 63
2.77960 -2.28416 0.28305 62 65 59
2.77569 -2.29866 0.28849 109 76 27
2.78545 -2.32057 0.29053 125 89 38
2.78585 -2.33756 0.29494 137 104 55
2.76804 -2.35175 0.28687 178 159 102
2.76421 -2.34260 0.30484 149 124 74
2.73606 -2.36082 0.32086 178 149 76
2.69773 -2.35634 0.33481 182 157 105
2.70339 -2.37639 0.33796 181 166 125
2.69015 -2.40287 0.35031 121 98 82
2.71239 -2.43276 0.34955 162 152 95
2.71768 -2.45310 0.35293 175 153 106
2.71552 -2.46924 0.35812 169 148 122
2.71219 -2.48477 0.36361 162 141 113
2.70090 -2.49564 0.37099 158 139 107
2.69961 -2.51248 0.37603 151 124 116
2.69963 -2.53018 0.38078 140 109 99
2.66252 -2.52554 0.39420 133 110 81
2.64454 -2.53987 0.38605 110 86 50
2.65645 -2.53956 0.40037 122 99 71
2.63844 -2.55391 0.39221 107 85 44
2.62271 -2.55442 0.41769 111 92 75
2.60476 -2.56872 0.40956 111 87 50
2.60711 -2.56255 0.42605 112 87 74
2.58918 -2.57684 0.41792 115 88 56
2.61825 -2.58739 0.42832 113 89 72
2.60022 -2.60176 0.42015 114 88 61
2.60774 -2.59878 0.43553 112 89 69
2.58970 -2.61315 0.42736 112 87 53
2.60045 -2.61222 0.44202 111 89 49
2.58240 -2.62660 0.43384 110 89 54
2.45766 -2.71938 0.52726 119 92 56
2.46176 -2.71172 0.50450 117 95 59
2.46039 -2.73986 0.53169 78 53 45
2.44932 -2.75088 0.53902 77 51 41
2.44981 -2.76999 0.54396 107 85 56
2.36060 -2.81982 0.59261 122 93 42
2.36470 -2.81215 0.56985 119 92 38
2.35175 -2.83241 0.59950 120 94 35
2.33377 -2.84674 0.59135 81 59 38
2.19765 -2.88864 0.67552 126 96 60
2.20169 -2.88108 0.65307 127 98 47
2.19743 -2.90785 0.68076 143 124 96
2.20969 -2.93704 0.68376 185 180 154
2.19181 -2.95129 0.67566 187 182 157
2.19890 -2.94813 0.69101 189 180 149
2.18212 -2.95441 0.69933 160 144 123
2.15358 -2.95114 0.70973 143 132 128
2.11005 -2.95510 0.72800 147 136 120
2.09638 -2.96356 0.73568 142 126 107
2.05428 -2.94841 0.74825 100 86 76
2.05029 -2.95587 0.77041 74 69 58
1.72492 -2.74715 0.82434 136 130 122
1.70887 -2.75993 0.81707 150 132 109
1.49577 -2.87396 0.94899 133 124 121
1.49936 -2.86723 0.92901 140 126 110
1.49240 -2.88971 0.95455 150 150 152
1.47291 -2.88984 0.96229 182 184 183
1.45716 -2.90238 0.95516 187 193 190
1.43899 -2.89472 0.97701 173 182 182
1.42073 -2.89571 0.98449 158 163 170
1.39750 -2.89162 0.99258 123 115 147
1.37453 -2.88762 1.00058 106 84 120
1.37101 -2.90314 1.00614 98 63 112
1.38528 -2.93692 1.00958 89 52 99
1.36360 -2.95348 1.02260 76 29 57
1.35019 -2.95906 1.02940 70 22 57
1.33263 -2.96025 1.03666 82 26 63
1.34519 -2.99309 1.04052 92 35 58
1.33519 -3.00229 1.04694 100 41 73
1.32343 -3.09020 1.07522 145 129 100
1.30956 -3.09537 1.08209 150 142 118
1.30854 -3.11478 1.08771 155 154 136
1.29938 -3.12520 1.09413 160 166 151
1.28912 -3.13439 1.10065 162 169 166
1.28265 -3.14788 1.10683 156 164 166
1.27045 -3.15486 1.11353 148 160 159
1.25576 -3.17997 1.12609 136 154 157
1.24856 -3.19274 1.13237 118 141 153
1.23867 -3.20241 1.13887 113 131 154
1.22730 -3.21031 1.14549 125 126 151
1.21008 -3.21124 1.15255 124 119 141
1.19782 -3.21799 1.15920 114 110 112
1.21062 -3.25493 1.16407 79 78 76
1.18681 -3.24777 1.17156 97 121 156
1.19889 -3.28426 1.17659 205 232 249
1.18917 -3.29428 1.18313 239 242 246
1.17309 -3.30709 1.17584 248 249 249
1.18042 -3.30551 1.18960 239 240 241
1.16433 -3.31833 1.18232 245 247 247
1.01413 -3.35937 1.26980 233 234 238
1.02991 -3.34680 1.27695 233 235 238
1.02382 -3.34972 1.26338 234 237 239
1.02022 -3.35645 1.28338 230 233 236
1.01053 -3.36610 1.28980 230 232 236
1.00792 -3.39663 1.28227 229 230 236
1.01234 -3.42577 1.28835 226 225 232
0.99993 -3.43192 1.29491 219 209 221
0.98309 -3.43186 1.30155 211 196 210
0.96720 -3.44452 1.29435 203 217 223
0.96696 -3.43266 1.30814 202 183 197
0.95894 -3.44477 1.31457 192 156 177
0.95083 -3.45679 1.32100 188 147 181
0.94012 -3.46513 1.32748 185 138 192
0.92163 -3.46224 1.33401 173 118 173
0.91083 -3.47033 1.34045 172 133 176
0.90238 -3.48183 1.34688 166 129 179
0.88565 -3.48117 1.35332 162 151 198
0.88576 -3.50532 1.35976 154 177 211
0.87418 -3.51222 1.36619 133 144 154
0.88903 -3.55878 1.37283 91 89 75
0.87305 -3.57151 1.36559 107 104 73
1.00629 -3.89319 1.41636 87 99 96
1.01686 -3.88266 1.40935 75 79 90
1.01022 -3.88585 1.39454 90 86 97
1.00928 -3.92510 1.42375 99 109 90
1.00652 -3.94819 1.43104 98 83 81
0.99769 -3.96174 1.43818 107 112 104
0.98015 -3.98916 1.45248 111 102 112
0.96872 -3.99860 1.45953 105 107 94
0.94955 -4.02353 1.47381 95 99 95
0.94001 -4.03611 1.48096 131 145 129
0.93226 -4.05173 1.48822 137 132 125
0.92674 -4.07118 1.49563 104 91 81
0.91317 -4.07705 1.50257 89 83 74
0.88813 -4.09219 1.51654 88 86 75
0.87700 -4.10212 1.52361 74 72 67
0.85980 -4.10139 1.53021 83 85 88
0.84421 -4.10335 1.53690 103 104 94
0.83114 -4.10965 1.54376 112 115 104
0.82310 -4.12491 1.55104 120 120 110
0.81281 -4.16618 1.56619 109 111 90
0.81475 -4.20002 1.57452 111 107 90
0.81769 -4.23605 1.58304 105 103 89
0.81178 -4.25598 1.59073 108 102 83
0.81379 -4.29089 1.59932 93 85 67
0.81291 -4.32069 1.60768 66 48 38
0.79505 -4.33492 1.59959 50 50 41
0.80069 -4.32924 1.61480 47 40 37
0.78974 -4.34015 1.62207 39 40 41
0.78285 -4.34346 1.60671 39 40 45
0.47107 -4.69195 1.84256 125 120 99
0.45313 -4.70624 1.83443 135 120 98
2.51676 -1.59941 0.18691 140 120 109
2.52360 -1.61501 0.18834 198 180 140
2.51277 -1.62365 0.19495 188 167 132
2.55265 -1.65274 0.18680 121 99 91
2.53734 -1.66494 0.17986 99 82 76
2.56672 -1.67166 0.18623 99 79 69
2.55132 -1.68393 0.17925 103 87 82
3.51455 -2.22502 -0.04403 95 96 107
3.50720 -2.23899 -0.03739 123 117 119
2.94618 -2.14674 0.16144 176 149 109
2.95022 -2.13917 0.13897 185 155 117
2.90595 -2.15945 0.18084 132 142 143
2.86894 -2.15741 0.19503 141 165 177
2.88212 -2.17999 0.19579 127 138 144
2.88815 -2.19918 0.19849 99 110 118
2.86605 -2.20439 0.20867 67 72 84
2.86842 -2.22188 0.21238 71 60 83
2.85688 -2.23239 0.21977 60 64 88
2.84173 -2.24104 0.22810 56 54 76
2.82863 -2.25072 0.23589 60 57 86
2.80650 -2.27216 0.25040 115 88 31
2.78881 -2.28626 0.24238 163 143 96
2.79707 -2.28374 0.25723 131 108 61
2.76465 -2.28309 0.26997 144 127 85
2.76876 -2.30187 0.27332 163 133 74
2.75875 -2.31313 0.28030 171 146 86
2.75036 -2.32529 0.28687 175 155 100
2.70971 -2.38708 0.31948 144 127 119
2.70214 -2.39983 0.32589 58 54 78
2.69481 -2.41274 0.33224 100 92 71
2.69337 -2.42907 0.33715 130 111 79
2.69659 -2.44819 0.34095 123 106 79
2.69844 -2.46663 0.34512 118 101 80
2.68051 -2.48092 0.33699 109 85 56
2.69536 -2.48227 0.35050 116 93 74
2.67739 -2.49659 0.34236 109 85 55
2.68882 -2.49593 0.35674 114 91 69
2.67084 -2.51026 0.34859 108 85 56
2.69198 -2.51542 0.36066 112 86 76
2.67394 -2.52980 0.35248 107 86 56
2.68792 -2.53069 0.36633 109 81 71
2.66984 -2.54509 0.35814 107 87 48
2.61578 -2.55774 0.40225 109 85 42
2.61988 -2.55008 0.37949 112 85 48
2.60885 -2.56106 0.38680 111 86 44
2.59783 -2.57204 0.39411 110 89 51
2.45483 -2.72553 0.51093 118 91 48
2.44790 -2.72885 0.49547 115 94 57
2.45598 -2.74496 0.51564 94 64 28
2.43795 -2.75933 0.50747 56 30 17
2.44937 -2.75910 0.52203 70 39 21
2.35522 -2.82428 0.57684 110 87 40
2.35932 -2.81662 0.55406 117 91 35
2.34829 -2.82761 0.56138 109 83 34
2.33725 -2.83860 0.56870 100 77 38
2.34396 -2.83511 0.58420 96 70 40
2.33152 -2.86429 0.59691 96 73 45
2.31350 -2.87865 0.58875 119 92 52
2.21165 -2.90823 0.65632 124 95 57
2.21571 -2.90063 0.63375 126 95 56
2.19737 -2.91649 0.66420 138 114 88
2.21791 -2.95235 0.66556 175 165 143
2.18340 -2.96429 0.68247 172 159 140
2.15178 -2.95851 0.69352 160 151 132
2.13130 -2.96160 0.70250 157 142 122
2.10634 -2.96090 0.71225 156 139 120
2.09368 -2.97022 0.71977 150 131 107
2.05763 -2.96006 0.73142 115 98 73
1.98124 -2.91581 0.75007 77 47 27
1.96403 -2.92952 0.74227 68 74 58
1.74370 -2.77146 0.80627 128 128 119
1.72753 -2.78435 0.79895 148 131 109
1.48706 -2.87435 0.93580 135 123 116
1.49065 -2.86763 0.91584 138 125 112
1.48098 -2.87726 0.92225 137 124 113
1.48136 -2.88784 0.94166 145 139 143
1.46597 -2.89191 0.94887 175 175 180
1.43701 -2.90164 0.96298 173 182 181
1.40257 -2.88651 0.97267 146 145 148
1.36589 -2.86881 0.98257 87 58 83
1.39085 -2.91300 0.98438 73 24 50
1.39338 -2.93485 0.98918 80 29 56
1.37874 -2.93929 0.99619 85 36 71
1.36707 -2.94672 1.00281 100 50 85
1.35697 -2.95575 1.00923 109 83 95
1.32405 -2.94094 1.01840 117 105 93
1.32864 -3.08516 1.05491 203 208 187
1.33840 -3.07544 1.04844 204 210 187
1.33227 -3.07838 1.03477 216 207 204
1.32176 -3.09806 1.06108 190 198 183
1.31298 -3.10889 1.06746 158 174 179
1.30145 -3.11666 1.07412 150 168 177
1.29048 -3.12505 1.08071 153 168 180
1.27990 -3.13385 1.08726 137 146 178
1.26411 -3.13671 1.09431 107 114 162
1.24825 -3.14934 1.08712 53 64 111
1.25646 -3.14881 1.10057 92 102 151
1.24457 -3.15604 1.10723 96 107 146
1.22871 -3.16868 1.10004 69 81 124
1.21273 -3.16097 1.12122 51 58 91
1.20109 -3.16834 1.12781 46 55 120
1.20889 -3.19874 1.13278 89 106 169
1.22496 -3.23928 1.13717 135 159 196
1.21706 -3.25144 1.14354 149 171 186
1.17501 -3.22227 1.15253 134 144 134
1.15915 -3.23490 1.14535 61 84 121
1.16093 -3.22668 1.15931 60 78 114
1.17833 -3.26963 1.16380 155 195 233
1.17429 -3.28655 1.16990 239 251 252
1.15826 -3.29931 1.16264 246 250 252
1.04721 -3.30193 1.22459 238 240 244
1.06294 -3.28940 1.23171 236 238 242
1.05687 -3.29231 1.21818 239 241 243
1.05328 -3.29902 1.23811 237 238 242
1.04363 -3.30864 1.24451 236 238 241
1.03884 -3.31323 1.23092 237 238 244
1.03525 -3.31994 1.25086 235 238 241
1.03083 -3.32503 1.23725 237 239 244
1.02724 -3.33174 1.25720 235 238 240
1.02267 -3.33666 1.24359 233 232 238
1.01641 -3.35087 1.24986 229 226 233
1.00803 -3.36228 1.25623 225 214 227
1.00214 -3.37709 1.26251 218 203 224
0.98958 -3.38286 1.26904 210 187 207
0.98506 -3.39964 1.27531 203 177 211
0.97807 -3.41310 1.28166 199 181 226
0.97890 -3.43751 1.28783 202 202 226
0.94755 -3.44025 1.30104 191 197 204
0.94014 -3.45322 1.30744 173 135 174
0.92995 -3.46225 1.31389 165 99 163
0.91749 -3.46800 1.32038 164 147 180
0.90117 -3.46807 1.32690 156 128 174
0.89163 -3.47795 1.33332 153 128 175
0.88027 -3.48513 1.33975 151 145 193
0.87723 -3.50464 1.34615 146 175 223
0.86660 -3.51294 1.35259 140 170 193
0.85270 -3.51630 1.35901 120 132 125
0.99380 -3.88719 1.40144 94 92 92
0.99772 -3.87987 1.37967 117 109 105
0.97663 -3.90088 1.39365 103 97 96
0.99253 -3.91237 1.40864 95 105 96
0.98579 -3.92904 1.41575 117 121 103
0.97907 -3.94584 1.42289 136 129 140
0.96724 -3.95446 1.42989 122 124 132
0.94996 -3.96824 1.42206 97 80 91
0.95623 -3.96439 1.43692 124 120 133
0.93895 -3.97816 1.42908 96 72 89
0.94793 -3.97875 1.44404 103 106 100
0.94766 -4.00642 1.45150 81 82 62
0.93468 -4.01320 1.45847 91 88 80
0.92939 -4.03281 1.46579 106 109 86
0.92092 -4.04718 1.47298 102 105 97
0.91110 -4.05932 1.48012 114 121 112
0.89899 -4.06755 1.48713 121 118 111
0.88904 -4.07947 1.49426 103 100 89
0.87513 -4.08455 1.50115 97 94 86
0.85996 -4.08733 1.50793 110 110 78
0.84440 -4.08932 1.51465 110 105 79
0.83373 -4.09986 1.52170 113 114 103
0.82283 -4.10996 1.52873 119 123 118
0.81825 -4.13145 1.53626 125 131 131
0.80718 -4.14134 1.54330 125 137 133
0.79788 -4.15444 1.55048 125 131 109
0.80554 -4.19877 1.55922 127 124 104
0.80861 -4.23510 1.56765 108 103 98
0.80575 -4.26073 1.57560 106 104 91
0.80649 -4.29335 1.58398 106 108 89
0.79840 -4.30956 1.59151 75 77 38
0.78060 -4.32374 1.58345 39 38 41
2.30963 -1.45038 0.21476 161 173 166
2.31285 -1.44436 0.19688 172 166 170
2.46495 -1.57134 0.18428 61 54 50
2.47981 -1.55950 0.19101 12 11 26
2.46834 -1.56500 0.16544 23 14 27
2.49257 -1.59494 0.17941 161 145 112
2.47757 -1.60689 0.17261 215 194 152
2.48521 -1.61774 0.18835 180 158 142
2.52699 -1.64758 0.17945 108 83 100
2.51175 -1.65973 0.17254 98 84 81
3.47101 -2.21271 -0.05054 80 81 89
3.50556 -2.24523 -0.05585 111 105 110
2.94144 -2.15103 0.14561 184 156 108
2.94549 -2.14346 0.12313 187 159 125
2.90845 -2.15117 0.15888 150 126 81
2.90497 -2.16556 0.16406 92 71 63
2.90661 -2.18253 0.16786 84 83 89
2.88790 -2.18950 0.17720 69 52 66
2.87771 -2.20066 0.18422 60 44 67
2.87408 -2.21513 0.18948 56 59 67
2.86140 -2.22507 0.19718 77 62 38
2.87683 -2.24935 0.19738 54 50 38
2.85704 -2.25571 0.20699 91 78 69
2.84763 -2.26738 0.21383 134 127 105
2.74994 -2.28212 0.25688 160 136 108
2.75670 -2.30232 0.25948 157 132 102
2.75078 -2.31578 0.26539 154 127 107
2.74764 -2.33080 0.27060 141 113 96
2.73603 -2.35807 0.28243 117 107 83
2.72433 -2.36848 0.28986 110 97 83
2.72041 -2.38325 0.29531 102 96 78
2.69806 -2.38765 0.30543 86 78 60
2.72206 -2.41838 0.30389 44 32 36
2.69048 -2.41748 0.31632 84 78 55
2.68590 -2.43203 0.32198 107 87 62
2.66809 -2.44622 0.31391 105 85 54
2.67642 -2.44377 0.32886 107 87 58
2.65861 -2.45797 0.32079 106 84 53
2.69338 -2.47104 0.32924 107 86 57
2.67544 -2.48534 0.32111 106 84 54
2.46707 -2.76083 0.49619 104 79 36
2.47120 -2.75310 0.47323 112 92 50
2.45937 -2.79323 0.50779 84 69 37
2.45804 -2.81132 0.51309 115 90 48
2.43981 -2.82585 0.50483 119 91 47
2.34114 -2.86070 0.57295 97 79 38
2.34526 -2.85300 0.55008 102 78 34
2.33377 -2.87452 0.57954 106 86 44
2.31571 -2.88891 0.57135 114 90 46
2.21759 -2.92159 0.63850 124 95 67
2.22167 -2.91397 0.61585 125 95 51
2.21070 -2.92490 0.62313 125 95 58
2.20694 -2.93279 0.64572 134 107 85
2.22232 -2.96470 0.64794 164 144 129
2.21094 -2.97546 0.65533 178 163 157
2.19266 -2.98064 0.66403 179 163 151
2.16762 -2.98025 0.67397 187 184 152
2.15109 -2.98667 0.68229 187 176 143
2.13181 -2.99077 0.69109 186 172 140
2.11540 -2.99714 0.69935 173 162 120
2.08156 -2.98892 0.71076 136 120 77
1.76780 -2.80047 0.78703 123 121 116
1.46479 -2.88055 0.92961 137 129 122
1.46838 -2.87385 0.90969 140 124 110
1.44525 -2.88047 0.93742 160 162 156
1.44715 -2.90142 0.94217 185 193 186
1.43143 -2.91395 0.93504 170 181 184
1.42692 -2.90053 0.95005 173 180 181
1.41181 -2.90463 0.95719 152 158 161
1.36940 -2.88118 0.96802 124 118 119
1.36852 -2.89936 0.97316 130 122 111
1.36715 -2.91716 0.97839 145 150 131
1.39898 -2.96917 0.97930 159 169 146
1.38950 -3.03865 1.00137 196 209 199
1.37355 -3.05135 0.99415 198 205 225
1.31923 -3.08451 1.04161 211 203 206
1.31203 -3.09704 1.04779 191 183 198
1.29841 -3.10246 1.05468 109 99 171
1.28905 -3.11260 1.06110 95 102 164
1.28154 -3.12482 1.06733 124 136 175
1.26670 -3.12877 1.07431 105 116 161
1.25380 -3.13486 1.08108 66 78 128
1.23087 -3.15019 1.09431 58 71 118
1.22476 -3.15312 1.08071 73 83 122
1.20163 -3.15802 1.10810 69 75 115
1.18587 -3.17057 1.10096 70 81 142
1.19231 -3.16808 1.11448 72 73 125
1.18820 -3.18435 1.12041 97 94 144
1.17394 -3.18854 1.12723 101 87 152
1.17094 -3.20624 1.13309 101 99 155
1.16345 -3.21860 1.13934 104 111 141
1.15067 -3.24614 1.15170 79 107 167
1.15192 -3.26945 1.15733 202 235 250
1.05433 -3.29981 1.20445 234 236 239
1.07008 -3.28727 1.21158 240 243 246
1.06400 -3.29018 1.19804 241 245 244
1.04720 -3.31276 1.21072 229 215 231
1.03594 -3.32032 1.21722 227 206 232
