ply
format ascii 1.0
element face 0
property list uchar int vertex_indices
element vertex 1324
property float x
property float y
property float z
property uchar diffuse_red
property uchar diffuse_green
property uchar diffuse_blue
end_header
2.69570 -2.17009 0.54015 143 150 162
2.69683 -2.17746 0.55794 127 130 133
2.73063 -2.21017 0.55686 82 76 72
2.71766 -2.21628 0.56471 51 45 47
2.70300 -2.22816 0.56006 47 50 57
2.82989 -2.40960 0.59487 121 131 127
2.83027 -2.40265 0.57559 68 71 82
2.78443 -2.46939 0.63765 123 121 137
2.78481 -2.46243 0.61836 134 135 149
2.75469 -2.46513 0.64836 109 107 115
2.73847 -2.46942 0.65684 107 115 111
2.72345 -2.47441 0.66510 102 96 112
2.71113 -2.48112 0.67291 97 93 103
2.68155 -2.47639 0.68337 92 94 99
2.64661 -2.46790 0.69457 91 84 98
2.60779 -2.45657 0.70625 91 88 100
2.60244 -2.46751 0.71284 103 103 101
2.58946 -2.47330 0.72057 105 107 99
2.57462 -2.47777 0.72854 83 85 108
2.56110 -2.48308 0.73630 177 192 189
2.56587 -2.50099 0.74144 240 246 165
2.53369 -2.52260 0.76347 254 251 105
2.52772 -2.53313 0.77016 249 235 90
2.47875 -2.55708 0.80013 233 229 102
2.46404 -2.56115 0.80789 234 238 104
2.46674 -2.57801 0.81348 227 235 106
2.46252 -2.58982 0.81995 211 216 117
2.48294 -2.62012 0.82349 156 149 119
2.47495 -2.62928 0.83047 105 99 113
2.46825 -2.63942 0.83730 118 124 135
2.43532 -2.67527 0.86533 126 123 122
2.43187 -2.68797 0.87182 131 131 130
2.42926 -2.70138 0.87825 147 146 156
2.41429 -2.71352 0.87350 170 176 174
2.43086 -2.71817 0.88427 144 146 156
2.43207 -2.73474 0.89037 133 141 148
2.43467 -2.75253 0.89637 127 141 140
2.44055 -2.77307 0.90209 166 162 175
2.44247 -2.79053 0.90825 193 193 201
2.47224 -2.83091 0.91190 158 141 125
2.47004 -2.84533 0.91856 96 59 26
2.47008 -2.86166 0.92505 101 83 60
2.47443 -2.88167 0.93120 124 102 59
2.47403 -2.89782 0.93781 150 125 88
2.45845 -2.91046 0.93286 161 134 91
2.29451 -2.87418 1.00331 177 146 105
2.29487 -2.86744 0.98462 177 150 117
2.28003 -2.87759 1.01070 124 100 74
2.26508 -2.88971 1.00596 98 84 68
1.73796 -2.47605 1.07700 71 63 66
1.72868 -2.48111 1.08288 52 49 60
1.72070 -2.50107 1.09416 142 137 129
1.70833 -2.51110 1.09024 153 137 123
1.20069 -2.92037 1.47815 152 158 155
1.21253 -2.91077 1.48190 153 158 157
1.20675 -2.91290 1.47265 150 158 159
1.20098 -2.91504 1.46339 149 158 161
1.19624 -2.93015 1.48391 137 134 132
1.19422 -2.94352 1.49007 105 94 89
1.18235 -2.95315 1.48631 97 88 84
1.24180 -3.25890 1.59582 126 109 87
1.24212 -3.25315 1.57988 126 111 95
1.22663 -3.25320 1.59988 68 61 52
1.21622 -3.27347 1.61229 70 68 64
1.20172 -3.28715 1.62380 120 108 94
1.18899 -3.29747 1.61976 127 113 101
3.66551 -1.51230 -0.12789 180 187 200
3.66512 -1.51941 -0.10820 190 191 201
3.65742 -1.52226 -0.12055 187 190 197
3.64971 -1.52511 -0.13290 188 187 194
2.82699 -1.55434 0.24130 219 210 223
2.82666 -1.56037 0.25800 205 198 212
2.82013 -1.56278 0.24753 219 211 226
2.81490 -1.57183 0.25331 220 211 224
2.80157 -1.57785 0.26129 222 217 225
3.06800 -1.92484 0.28657 150 136 135
3.06836 -1.91808 0.26786 188 190 199
3.06068 -1.92755 0.27484 186 184 182
3.02510 -1.91861 0.30215 107 82 84
3.01824 -1.94115 0.31395 92 85 104
3.00779 -1.94926 0.32155 139 135 148
3.00936 -1.96288 0.32628 176 179 187
2.99444 -1.97498 0.32154 185 186 197
2.69610 -2.18369 0.54536 134 137 141
2.69645 -2.17715 0.52725 140 147 161
2.73267 -2.21808 0.54360 91 80 82
2.72273 -2.22598 0.55090 51 41 51
2.70802 -2.23791 0.54624 51 52 61
2.81567 -2.40829 0.58396 111 118 122
2.80511 -2.41637 0.59160 128 136 145
2.79722 -2.42609 0.59877 132 134 138
2.78970 -2.42887 0.58671 116 122 135
2.76937 -2.46737 0.62681 130 132 146
2.75269 -2.47144 0.63543 123 122 130
2.72801 -2.47025 0.64533 116 117 115
2.70618 -2.47076 0.65472 118 110 111
2.65159 -2.46418 0.67507 124 125 119
2.62098 -2.45841 0.68566 109 104 110
2.60538 -2.46253 0.69384 100 95 111
2.59509 -2.47015 0.70119 101 95 107
2.58219 -2.47599 0.70892 101 100 107
2.56714 -2.48029 0.71695 97 109 122
2.57654 -2.50139 0.72135 152 167 159
2.55976 -2.50448 0.72962 205 228 176
2.55437 -2.51544 0.73623 219 238 141
2.54058 -2.52051 0.74403 216 234 145
2.52811 -2.52646 0.75163 214 234 159
2.51939 -2.53503 0.75869 212 225 152
2.50411 -2.53889 0.76664 200 209 152
2.48802 -2.54209 0.77467 186 194 165
2.48665 -2.55591 0.78072 169 176 165
2.50020 -2.58072 0.78483 155 157 161
2.46763 -2.57175 0.79498 161 167 169
2.48181 -2.59720 0.79909 148 156 151
2.48649 -2.61577 0.80447 110 104 110
2.48957 -2.63326 0.81010 94 82 94
2.47771 -2.63957 0.81758 105 102 107
2.46590 -2.64586 0.82503 121 122 129
2.45661 -2.65405 0.83218 124 127 141
2.45062 -2.66477 0.83894 129 136 142
2.43566 -2.67690 0.83419 171 168 168
2.43105 -2.69575 0.85943 166 168 168
2.42351 -2.70530 0.86638 174 181 180
2.41963 -2.73338 0.87912 169 175 175
2.43797 -2.76386 0.88347 191 193 184
2.43573 -2.77790 0.88997 217 215 212
2.43219 -2.79095 0.89662 222 214 213
2.45205 -2.82328 0.90106 188 167 143
2.46353 -2.84896 0.90639 104 65 38
2.45276 -2.85631 0.91383 98 80 64
2.44774 -2.86846 0.92075 131 110 49
2.44964 -2.88647 0.92708 156 133 87
2.43414 -2.89904 0.92216 162 135 87
2.26080 -2.85347 0.99342 181 153 103
2.26116 -2.84679 0.97490 177 152 125
1.20093 -2.93118 1.46980 151 154 153
1.20123 -2.92583 1.45499 152 158 160
1.20898 -2.95918 1.47750 122 116 124
1.30183 -3.19975 1.53365 61 51 63
1.31465 -3.18935 1.53772 104 96 79
1.30840 -3.19166 1.52768 82 76 64
1.30808 -3.19743 1.54368 99 89 86
1.30151 -3.20552 1.54964 103 99 92
1.29526 -3.20784 1.53961 63 67 82
1.29230 -3.22144 1.54624 104 101 92
1.29198 -3.22722 1.56226 123 107 97
1.28571 -3.22954 1.55221 120 105 92
1.27945 -3.23186 1.54216 118 106 90
1.24439 -3.27527 1.58768 125 103 81
1.22172 -3.27610 1.59754 31 25 30
1.21594 -3.28539 1.60365 78 76 77
1.20608 -3.28803 1.60884 106 94 88
1.19332 -3.29838 1.60479 118 103 98
1.19924 -3.29558 1.61470 118 106 97
1.18649 -3.30592 1.61066 126 111 99
3.39847 -1.33903 -0.09962 56 54 68
3.41306 -1.32720 -0.09499 60 57 65
3.40594 -1.32984 -0.10640 54 54 68
3.39883 -1.33247 -0.11781 67 35 45
3.40558 -1.33640 -0.08821 62 58 69
3.39811 -1.34560 -0.08143 64 59 69
3.41236 -1.35386 -0.09968 56 54 65
3.41200 -1.36046 -0.08139 66 60 71
3.40484 -1.36310 -0.09286 54 54 68
2.83556 -1.52947 0.21371 224 224 233
2.83296 -1.53943 0.21872 221 219 226
2.81958 -1.55029 0.21448 176 183 215
2.80953 -1.56369 0.23819 217 214 234
2.79615 -1.57454 0.23395 156 154 196
2.80836 -1.57425 0.24283 213 214 229
2.79497 -1.58511 0.23858 147 146 187
2.79505 -1.58026 0.25084 204 208 223
2.77123 -1.59325 0.26603 188 192 218
2.77090 -1.59925 0.28266 229 228 233
2.76959 -1.60366 0.27082 184 190 223
2.76926 -1.60967 0.28747 239 240 242
2.76275 -1.61208 0.27703 209 212 239
3.09147 -1.95422 0.27228 156 153 134
3.09184 -1.94740 0.25337 188 189 199
3.08407 -1.95696 0.26042 191 191 190
3.07630 -1.96652 0.26747 191 189 177
3.01613 -1.93333 0.29598 116 118 94
3.00124 -1.94540 0.29125 189 187 183
3.01319 -1.94485 0.30175 136 132 128
2.99828 -1.95694 0.29702 187 188 195
3.00984 -1.95621 0.30764 173 172 180
2.99492 -1.96831 0.30290 185 186 198
3.00826 -1.96842 0.31311 185 187 197
2.99331 -1.98054 0.30836 184 185 195
2.99086 -2.07872 0.36384 98 91 103
3.00397 -2.09868 0.36613 116 119 132
2.94353 -2.08191 0.38514 154 157 153
2.92850 -2.09410 0.38038 212 219 216
2.70112 -2.19323 0.53160 135 138 143
2.70148 -2.18666 0.51342 138 144 161
2.72785 -2.22210 0.53162 100 91 96
2.72375 -2.23338 0.53780 55 46 61
2.70900 -2.24534 0.53312 54 52 57
2.78896 -2.41379 0.58109 99 109 125
2.77358 -2.42626 0.57621 112 108 116
2.76650 -2.44362 0.60233 141 146 150
2.75563 -2.45141 0.61000 143 145 154
2.74091 -2.45670 0.61832 151 152 156
2.72859 -2.46348 0.62620 154 152 152
2.70207 -2.46097 0.63645 153 155 151
2.68684 -2.47332 0.63162 177 182 191
2.68640 -2.46541 0.64484 172 176 171
2.67120 -2.47774 0.64002 173 174 194
2.68796 -2.48117 0.65037 179 184 179
2.65785 -2.47595 0.66107 163 156 146
2.61130 -2.45952 0.67433 129 127 120
2.58921 -2.47379 0.68930 125 128 131
2.57013 -2.47540 0.69801 126 124 126
2.55993 -2.48299 0.70532 109 95 123
2.55998 -2.49767 0.71107 100 105 124
2.55719 -2.51043 0.71727 126 132 141
2.54543 -2.51695 0.72482 115 107 139
2.53631 -2.52530 0.73196 105 91 136
2.52327 -2.53085 0.73966 104 94 145
2.51257 -2.53802 0.74701 95 97 140
2.50825 -2.54975 0.75346 78 83 121
2.46039 -2.52995 0.76595 55 54 107
2.47762 -2.55727 0.76939 40 41 97
2.46283 -2.56926 0.76469 99 102 89
2.50101 -2.60442 0.77802 97 108 134
2.47807 -2.60250 0.78698 119 125 143
2.48059 -2.61951 0.79260 110 107 121
2.48729 -2.63977 0.79772 95 91 107
2.48178 -2.65090 0.80443 99 99 115
2.46385 -2.65257 0.81269 119 121 133
2.45076 -2.65785 0.82031 146 148 152
2.44922 -2.67203 0.82653 167 168 161
2.43423 -2.68418 0.82178 164 163 162
2.41491 -2.72254 0.86093 157 159 168
2.41322 -2.73683 0.86726 152 155 173
2.42142 -2.75919 0.87257 171 176 197
2.40630 -2.77145 0.86778 200 199 202
2.42278 -2.79206 0.88492 201 201 204
2.43208 -2.81574 0.89029 191 177 165
2.45214 -2.84854 0.89469 112 71 69
2.42857 -2.86146 0.90975 134 113 60
2.41632 -2.86747 0.91730 158 133 76
2.40095 -2.87993 0.91243 162 133 89
1.72603 -2.52202 1.07392 140 133 121
1.71357 -2.53213 1.06997 153 136 118
1.21019 -2.97161 1.46919 111 102 116
1.19818 -2.98135 1.46538 94 83 87
1.20213 -2.97639 1.47448 97 84 87
1.19013 -2.98612 1.47068 93 84 77
1.30378 -3.19644 1.51793 71 62 51
1.31662 -3.18603 1.52200 99 88 75
1.31036 -3.18835 1.51196 94 83 66
1.30410 -3.19066 1.50192 91 81 63
1.29560 -3.20211 1.52362 38 37 41
1.29010 -3.21183 1.52977 31 45 63
1.28665 -3.22471 1.53630 95 96 91
1.25165 -3.28051 1.57306 125 111 90
1.26453 -3.27006 1.57715 127 110 104
1.25825 -3.27239 1.56707 126 111 100
1.25196 -3.27471 1.55699 125 111 97
1.24484 -3.28832 1.57901 118 93 72
1.22548 -3.27589 1.58233 43 27 24
1.21986 -3.28549 1.58848 40 32 40
1.21030 -3.28866 1.59378 90 84 86
1.19752 -3.29903 1.58973 114 98 93
1.20370 -3.29664 1.59971 110 94 94
1.19092 -3.30701 1.59566 119 100 98
3.38209 -1.33924 -0.10802 69 30 45
3.38244 -1.33269 -0.12617 160 104 90
3.37499 -1.34187 -0.11940 175 104 96
3.36753 -1.35104 -0.11264 183 107 103
3.39739 -1.35443 -0.10862 71 36 47
3.38275 -1.36630 -0.11326 191 103 109
3.39837 -1.36593 -0.10455 72 42 47
3.39801 -1.37253 -0.08626 57 53 70
3.38371 -1.37783 -0.10920 199 122 120
3.03506 -1.42693 0.07433 197 109 156
3.03472 -1.43311 0.09145 202 199 209
3.00405 -1.49356 0.11360 214 218 236
3.00438 -1.48735 0.09639 171 171 214
2.99732 -1.49605 0.10280 162 164 199
2.99025 -1.50476 0.10922 157 154 186
2.98398 -1.49792 0.12386 202 200 216
2.65940 -1.55514 0.28473 130 130 169
2.66738 -1.56895 0.28672 106 112 178
2.73490 -1.60614 0.27243 159 161 215
2.73458 -1.61211 0.28897 209 204 226
2.72811 -1.61451 0.27860 199 198 223
2.95520 -2.08079 0.36378 148 159 181
2.95557 -2.07400 0.34497 137 147 172
2.98285 -2.10810 0.36265 198 208 208
2.96762 -2.12045 0.35781 218 226 234
2.71733 -2.20923 0.51546 136 141 150
2.71769 -2.20262 0.49716 133 142 159
2.73660 -2.23396 0.51690 105 103 107
2.73279 -2.24548 0.52302 61 56 67
2.75323 -2.42807 0.58561 126 123 128
2.74576 -2.43084 0.57363 143 132 113
2.73293 -2.42980 0.59495 148 149 152
2.72489 -2.43929 0.60209 159 162 167
2.67289 -2.42041 0.61691 188 196 205
2.67080 -2.43356 0.62293 195 199 199
2.67779 -2.45270 0.62743 182 189 181
2.66322 -2.48719 0.64711 181 182 179
2.61685 -2.47085 0.66052 146 144 146
2.59692 -2.47204 0.66949 136 139 142
2.58193 -2.47648 0.67763 136 129 127
2.56072 -2.47660 0.68672 144 142 147
2.55796 -2.48932 0.69287 145 140 143
2.55437 -2.51625 0.70492 132 128 124
2.54408 -2.52381 0.71226 118 111 120
2.53501 -2.53222 0.71942 122 113 128
2.52009 -2.54432 0.71468 130 126 148
2.52800 -2.54207 0.72626 124 122 137
2.51814 -2.54990 0.73352 126 126 131
2.50923 -2.55838 0.74064 122 115 108
2.49538 -2.56326 0.74846 112 104 97
2.49044 -2.57460 0.75499 103 102 92
2.47985 -2.59684 0.76820 94 97 90
2.48573 -2.61635 0.77330 85 86 88
2.47076 -2.62849 0.76855 83 66 56
2.49525 -2.63871 0.77798 83 74 81
2.48019 -2.65093 0.77320 86 68 57
2.49271 -2.65212 0.78430 79 66 73
2.48490 -2.66157 0.79132 74 65 72
2.46974 -2.66539 0.79928 88 84 95
2.45727 -2.67120 0.80688 123 123 135
2.41833 -2.76539 0.86028 182 183 193
2.43662 -2.84466 0.88343 119 77 76
2.43794 -2.86207 0.88967 100 60 53
2.42059 -2.86384 0.89776 130 108 67
2.41070 -2.87183 0.90511 157 130 77
2.39533 -2.88430 0.90023 160 133 95
2.22949 -2.82778 0.96524 165 145 127
2.24421 -2.81584 0.96991 175 147 114
2.23703 -2.81849 0.95840 174 148 115
2.23150 -2.84560 0.97134 118 93 101
2.20490 -2.83781 0.97965 51 37 47
2.19840 -2.84799 0.98640 45 45 56
2.19804 -2.85460 1.00471 88 84 74
2.19088 -2.85724 0.99323 70 75 72
2.18372 -2.85989 0.98175 61 67 65
1.72440 -2.51458 1.05850 94 91 83
1.21328 -2.95377 1.44816 151 157 157
1.22527 -2.94405 1.45197 152 158 165
1.21942 -2.94621 1.44259 152 159 167
1.21358 -2.94838 1.43321 152 159 168
1.20638 -2.96023 1.45363 142 140 137
1.21443 -2.98856 1.46126 105 92 102
1.20236 -2.99836 1.45743 94 83 80
1.29719 -3.19826 1.50783 82 70 50
1.29751 -3.19248 1.49183 91 80 62
1.29227 -3.20886 1.51407 41 42 43
1.28517 -3.21617 1.51996 26 39 45
1.27803 -3.24168 1.53297 115 105 88
1.27771 -3.24748 1.54904 124 111 101
1.27143 -3.24980 1.53896 125 112 102
1.26514 -3.25213 1.52888 125 114 100
1.25125 -3.29224 1.56414 124 112 88
1.22072 -3.28061 1.57263 37 17 29
1.22544 -3.30703 1.58093 59 52 58
1.20870 -3.29855 1.58477 103 95 91
1.19588 -3.30894 1.58071 116 101 91
2.81671 -1.46769 0.16945 143 145 175
2.66126 -1.44518 0.22756 120 120 171
2.65508 -1.44747 0.21765 104 106 138
2.64859 -1.45545 0.22354 102 106 128
2.64568 -1.44995 0.23611 114 117 159
2.63287 -1.45565 0.24383 107 113 152
2.62026 -1.46588 0.23983 111 112 127
2.60292 -1.46536 0.26048 102 108 143
2.59037 -1.47553 0.25650 108 108 122
2.59914 -1.47424 0.26555 99 108 143
2.58023 -1.47754 0.27496 97 106 145
2.58552 -1.48979 0.27743 99 103 145
2.59160 -1.50241 0.27971 100 107 142
2.57900 -1.51263 0.27572 155 149 155
2.65738 -1.55912 0.27343 106 112 134
2.65770 -1.55330 0.25730 142 140 150
2.65443 -1.56871 0.27842 66 89 127
2.64173 -1.57449 0.28613 104 100 138
2.75398 -1.62970 0.25928 179 181 213
2.75365 -1.63574 0.27599 207 200 216
2.74711 -1.63815 0.26551 204 194 216
2.74058 -1.64057 0.25504 197 183 203
2.92687 -2.07299 0.35692 143 153 188
2.97965 -2.11298 0.34974 197 207 221
2.96441 -2.12535 0.34491 214 226 238
2.74354 -2.23108 0.49708 134 140 151
2.74391 -2.22441 0.47859 128 138 152
2.74547 -2.24595 0.50202 112 112 115
2.73743 -2.25508 0.50902 69 64 69
2.75796 -2.40932 0.56004 94 87 73
2.75833 -2.40243 0.54095 83 80 72
2.75749 -2.42362 0.56578 131 118 97
2.71599 -2.42650 0.58474 149 144 142
2.69395 -2.42693 0.59439 155 152 160
2.66648 -2.42374 0.60496 184 188 193
2.66484 -2.43719 0.61089 192 194 208
2.66503 -2.45191 0.61651 171 175 189
2.67707 -2.47453 0.62011 163 160 176
2.65652 -2.49040 0.63511 165 162 183
2.63353 -2.48974 0.64473 165 159 168
2.60237 -2.49812 0.66138 171 171 166
2.58732 -2.51032 0.65661 189 192 210
2.60604 -2.51544 0.66652 185 192 194
2.59093 -2.52769 0.66173 198 201 206
2.59847 -2.52508 0.67352 196 201 193
2.58991 -2.53403 0.68068 192 188 187
2.57171 -2.53622 0.68935 176 176 168
2.53582 -2.52581 0.70074 154 156 149
2.52671 -2.53418 0.70790 142 141 138
2.51718 -2.55713 0.72091 130 142 151
2.49868 -2.55869 0.72947 132 142 146
2.49845 -2.57348 0.73530 116 116 117
2.49349 -2.58487 0.74185 101 103 98
2.47855 -2.59698 0.73712 87 65 68
2.49109 -2.61332 0.75392 88 69 65
2.48235 -2.62199 0.76104 82 64 59
2.48104 -2.66697 0.77906 86 67 66
2.46420 -2.66948 0.78728 95 79 82
2.47493 -2.69326 0.79189 128 122 123
2.44786 -2.68776 0.80140 163 163 161
2.42036 -2.71277 0.82292 176 170 167
2.43539 -2.70058 0.82769 163 163 162
2.42806 -2.70330 0.81593 177 171 167
2.40655 -2.71737 0.83064 174 166 163
2.39962 -2.72744 0.83753 172 165 161
2.39174 -2.73674 0.84453 177 174 166
2.37674 -2.74891 0.83977 207 201 199
2.40596 -2.76406 0.84901 196 187 181
2.41477 -2.81927 0.86664 206 199 176
2.39158 -2.84840 0.88791 134 112 79
2.38623 -2.86014 0.89477 158 128 90
2.37094 -2.87254 0.88992 165 136 102
2.24513 -2.83468 0.94556 160 139 107
2.25993 -2.82267 0.95025 172 144 108
2.25271 -2.82534 0.93868 173 146 114
2.22807 -2.83557 0.95324 107 86 70
2.22191 -2.84613 0.95999 39 23 37
2.21247 -2.85374 0.96700 19 11 31
2.19574 -2.85472 0.97457 37 38 50
2.18104 -2.86664 0.96991 53 59 60
1.73702 -2.50669 1.03678 60 55 62
1.73733 -2.50107 1.02122 82 81 74
1.73093 -2.50894 1.02702 56 53 64
1.71826 -2.50290 1.04338 47 44 51
1.72392 -2.52213 1.04841 97 94 82
1.71700 -2.52950 1.05424 144 136 123
1.70452 -2.53962 1.05029 151 135 118
1.21398 -2.96545 1.43966 151 157 156
1.21428 -2.96003 1.42465 154 158 167
1.21323 -2.98094 1.44599 129 125 121
1.21260 -2.99671 1.45238 103 85 86
1.20050 -3.00652 1.44854 95 82 74
1.28885 -3.21553 1.50449 50 47 45
1.28170 -3.22277 1.51038 23 33 33
1.27674 -3.23340 1.51663 79 79 80
1.25543 -3.29257 1.54875 120 109 94
1.26838 -3.28206 1.55286 126 110 102
1.26206 -3.28440 1.54273 125 111 99
1.25053 -3.30352 1.55510 119 109 86
1.23994 -3.30533 1.56036 85 63 66
1.21757 -3.28793 1.56323 42 23 26
1.21866 -3.30854 1.57076 87 80 68
1.20578 -3.31899 1.56667 120 108 86
1.21202 -3.31659 1.57673 111 102 87
1.19914 -3.32704 1.57265 119 104 90
2.66514 -1.39999 0.19500 107 111 144
2.67159 -1.39205 0.18915 104 111 148
2.66545 -1.39432 0.17930 107 117 136
2.67607 -1.41383 0.19560 108 112 142
2.62672 -1.45793 0.23397 111 110 128
2.57413 -1.47980 0.26518 119 104 119
2.57940 -1.49205 0.26762 131 105 123
2.58877 -1.50594 0.26891 141 120 128
2.63848 -1.55657 0.26689 117 118 127
2.63028 -1.56407 0.27333 67 77 100
2.63257 -1.57570 0.27682 76 50 83
2.70734 -1.61618 0.26004 162 158 180
2.92971 -2.06748 0.33763 136 146 162
2.91471 -2.07964 0.33287 96 95 100
2.92001 -2.07592 0.34509 111 116 142
2.92901 -2.09383 0.34809 170 183 201
2.76779 -2.25193 0.47886 133 139 151
2.76816 -2.24520 0.46019 133 143 152
2.74833 -2.25451 0.48828 118 117 119
2.74509 -2.26649 0.49430 78 70 70
2.72800 -2.27034 0.50319 50 42 46
2.71311 -2.28242 0.49846 50 47 50
2.74631 -2.40946 0.54887 89 80 70
2.74669 -2.40258 0.52980 85 80 75
2.73646 -2.41782 0.55635 126 111 96
2.72155 -2.42294 0.56479 143 129 108
2.70569 -2.42740 0.57337 148 141 142
2.69048 -2.43220 0.58181 152 146 156
2.65848 -2.44058 0.59890 180 179 205
2.63871 -2.44217 0.60808 185 194 211
2.64169 -2.45874 0.61317 196 200 209
2.61177 -2.48274 0.63538 204 199 193
2.60343 -2.50659 0.64819 198 203 203
2.58833 -2.51883 0.64340 184 184 207
2.58685 -2.53977 0.66816 203 203 205
2.58446 -2.55308 0.67432 177 180 180
2.53582 -2.53366 0.68791 149 155 155
2.52455 -2.54052 0.69543 139 141 134
2.53582 -2.56353 0.69942 119 111 116
2.52440 -2.58538 0.71278 97 90 94
2.51740 -2.59539 0.71967 87 77 68
2.50234 -2.60759 0.71490 96 76 68
2.49802 -2.59628 0.72841 85 69 65
2.48325 -2.63087 0.74814 89 72 60
2.47864 -2.64269 0.75469 91 72 63
2.48154 -2.66026 0.76021 95 74 70
2.47138 -2.66793 0.76756 96 78 77
2.47303 -2.70025 0.77931 139 135 126
2.44583 -2.69463 0.78892 168 164 167
2.43754 -2.70370 0.79601 179 170 171
2.43156 -2.71459 0.80279 186 177 176
2.41880 -2.72009 0.81044 191 183 177
2.40235 -2.72258 0.81852 195 188 176
2.39159 -2.72957 0.82588 198 191 182
2.37659 -2.74173 0.82112 214 210 211
2.40539 -2.75649 0.83028 201 196 197
2.41585 -2.82913 0.85374 212 202 186
2.40006 -2.83212 0.86173 136 101 98
2.41705 -2.86271 0.86616 112 60 28
2.38340 -2.85054 0.87604 145 124 90
2.36813 -2.86292 0.87120 166 137 98
2.37229 -2.85735 0.88348 161 132 94
2.35703 -2.86972 0.87865 170 140 101
2.28833 -2.84960 0.91686 167 148 109
2.30332 -2.83745 0.92162 167 140 100
2.29601 -2.84015 0.90990 169 143 106
2.29564 -2.84690 0.92858 169 142 105
2.26534 -2.84553 0.92525 148 133 104
2.24009 -2.85541 0.94000 37 27 25
2.22523 -2.86745 0.93529 20 16 20
2.23005 -2.86259 0.94711 12 10 15
2.21126 -2.86182 0.95496 15 11 18
2.19647 -2.87381 0.95027 31 33 43
2.19365 -2.86200 0.96265 33 33 41
2.17892 -2.87394 0.95798 47 53 58
1.72100 -2.51346 1.03307 47 46 57
1.72130 -2.50785 1.01752 52 52 65
1.72080 -2.52721 1.03845 97 97 87
1.71355 -2.53427 1.04432 142 135 123
1.70105 -2.54440 1.04035 149 133 116
1.51595 -2.68917 1.18960 155 137 147
1.52823 -2.67922 1.19349 149 123 116
1.52224 -2.68143 1.18389 144 118 117
1.51565 -2.69470 1.20491 182 180 177
1.50966 -2.69692 1.19531 188 188 189
1.50367 -2.69913 1.18570 192 195 196
1.21359 -2.97559 1.43095 150 154 152
1.21388 -2.97015 1.41590 156 159 164
1.21163 -2.98939 1.43712 115 111 107
1.20630 -2.99830 1.44286 100 82 80
1.19420 -3.00811 1.43902 95 84 73
1.29614 -3.22034 1.48951 96 83 58
1.29645 -3.21453 1.47341 89 83 68
1.28380 -3.21971 1.49462 55 48 44
1.27812 -3.22924 1.50075 24 32 25
1.27431 -3.24170 1.50720 71 73 72
1.27255 -3.25739 1.51401 113 103 89
1.25962 -3.26788 1.50991 123 112 96
1.25766 -3.28978 1.53294 120 105 93
1.27063 -3.27927 1.53705 129 114 106
1.26430 -3.28161 1.52691 130 116 103
1.25309 -3.30127 1.53935 96 92 80
1.24809 -3.31211 1.54569 90 85 73
1.23304 -3.30671 1.55013 61 47 54
1.22586 -3.31397 1.55603 67 58 39
1.22051 -3.32420 1.56230 109 104 85
1.20757 -3.33469 1.55819 126 109 96
2.65901 -1.40225 0.18515 108 109 130
2.65932 -1.39659 0.16946 126 111 125
2.65809 -1.41208 0.18931 116 99 123
2.60687 -1.46552 0.23212 133 121 150
2.59068 -1.46989 0.24086 124 112 141
2.58690 -1.47877 0.24591 137 122 146
2.57913 -1.48619 0.25214 170 148 175
2.48579 -1.46142 0.28339 208 189 192
2.55553 -1.49794 0.26693 241 223 221
2.51713 -1.49359 0.28202 252 247 231
2.54971 -1.51641 0.27654 210 217 206
2.53717 -1.52657 0.27257 103 95 102
2.62994 -1.55802 0.25746 121 114 119
2.59066 -1.55332 0.27280 48 39 92
2.57792 -1.56365 0.26876 109 82 139
2.59855 -1.56706 0.27462 86 56 104
2.72104 -1.63775 0.24823 191 175 189
2.72071 -1.64376 0.26487 208 204 222
2.70769 -1.64857 0.24400 196 189 210
3.39795 -2.07510 0.12028 130 143 169
3.41439 -2.06177 0.12549 134 146 174
3.40637 -2.06473 0.11263 81 88 124
3.40597 -2.07213 0.13313 164 175 192
3.38993 -2.07807 0.10742 97 110 134
3.39754 -2.08250 0.14078 179 185 196
3.40794 -2.09369 0.12303 167 176 192
3.40754 -2.10113 0.14363 183 186 197
3.39948 -2.10411 0.13071 180 184 194
2.88851 -2.04005 0.32915 193 203 205
2.88888 -2.03337 0.31066 132 129 146
2.92933 -2.07366 0.32420 164 171 159
2.90793 -2.08956 0.33963 142 159 175
2.78009 -2.26599 0.46295 138 145 155
2.78046 -2.25922 0.44418 139 150 157
2.75664 -2.26630 0.47330 127 127 128
2.76631 -2.28594 0.47660 85 78 72
2.74285 -2.28612 0.48690 49 43 43
2.72786 -2.29827 0.48215 54 49 49
2.74213 -2.41428 0.53627 83 76 77
2.74251 -2.40739 0.51719 86 84 80
2.72742 -2.41956 0.54472 106 98 90
2.69754 -2.41511 0.55605 134 127 106
2.66703 -2.42455 0.57297 152 148 163
2.64358 -2.42382 0.58293 190 193 199
2.63608 -2.44799 0.59545 185 185 202
2.63189 -2.45984 0.60181 184 189 208
2.61615 -2.47866 0.61589 194 199 206
2.60977 -2.50388 0.62832 192 195 209
2.60823 -2.51768 0.63428 189 194 205
2.59308 -2.52997 0.62947 180 179 189
2.60242 -2.54356 0.64672 192 194 199
2.59089 -2.55051 0.65442 190 190 196
2.57692 -2.55571 0.66250 172 172 170
2.54281 -2.54652 0.67386 139 135 133
2.53974 -2.55930 0.68010 126 127 124
2.55406 -2.58467 0.68356 117 110 98
2.53891 -2.59696 0.67875 111 100 95
2.53873 -2.58874 0.69180 110 97 87
2.52934 -2.59706 0.69909 103 86 77
2.52163 -2.60661 0.70611 97 79 64
2.50045 -2.62142 0.72102 96 77 73
2.49171 -2.63016 0.72818 98 80 70
2.48535 -2.64070 0.73499 100 84 69
2.48185 -2.65342 0.74138 103 88 73
2.46674 -2.66567 0.73659 119 96 79
2.47270 -2.69288 0.76048 127 117 102
2.45050 -2.70679 0.77549 176 171 176
2.44168 -2.71550 0.78267 186 176 180
2.42655 -2.72777 0.77787 198 199 199
2.43203 -2.72353 0.78996 192 186 187
2.41466 -2.72537 0.79824 199 197 192
2.40104 -2.73012 0.80601 206 202 200
2.39910 -2.77598 0.82441 216 215 215
2.39171 -2.77871 0.81255 209 216 218
2.40858 -2.83207 0.84174 216 209 190
2.38756 -2.83063 0.85036 152 116 114
2.39090 -2.84970 0.85620 141 83 73
2.36904 -2.84740 0.86486 158 134 91
2.35381 -2.85975 0.86003 173 142 99
2.29284 -2.84648 0.89776 167 144 110
2.30785 -2.83431 0.90252 166 139 106
2.30053 -2.83702 0.89078 171 143 106
2.27804 -2.84968 0.90544 131 118 89
2.28132 -2.86882 0.91134 74 62 43
2.19888 -2.85979 0.94385 20 17 26
2.19924 -2.85315 0.92545 25 22 20
2.19168 -2.86245 0.93231 22 21 24
2.18412 -2.87176 0.93917 30 34 39
1.71975 -2.52029 1.02297 48 47 63
1.72005 -2.51467 1.00739 52 50 49
1.71787 -2.53249 1.02845 97 95 89
1.70535 -2.54263 1.02448 138 128 118
1.71189 -2.54079 1.03424 138 130 118
1.69937 -2.55094 1.03027 149 133 115
1.52826 -2.69704 1.17418 143 120 110
1.54061 -2.68703 1.17809 154 131 111
1.53458 -2.68925 1.16844 153 131 105
1.52856 -2.69148 1.15878 153 129 106
1.50497 -2.68578 1.18003 161 149 152
1.49272 -2.69572 1.17614 196 200 196
1.21144 -2.98324 1.42197 144 145 144
1.21232 -3.00128 1.42849 105 100 97
1.20018 -3.01113 1.42464 97 86 85
1.20318 -3.00460 1.43376 97 83 85
1.19106 -3.01443 1.42991 95 86 75
1.29658 -3.23296 1.48041 97 86 64
1.29690 -3.22713 1.46426 90 84 77
1.28387 -3.23180 1.48551 55 49 44
1.27915 -3.24288 1.49182 25 24 20
1.26986 -3.24689 1.49740 69 73 61
1.26964 -3.26504 1.50445 112 104 97
1.25668 -3.27555 1.50034 123 111 96
1.25914 -3.30458 1.52416 109 84 89
1.24357 -3.29849 1.52863 63 49 53
1.23156 -3.29798 1.53367 49 43 46
1.22614 -3.30807 1.53990 61 56 59
1.23603 -3.34326 1.54905 104 99 82
1.22298 -3.35384 1.54492 133 117 108
1.22931 -3.35143 1.55511 127 115 101
1.21627 -3.36201 1.55097 127 109 98
2.65057 -1.40374 0.17603 123 113 153
2.65267 -1.41460 0.17923 157 134 175
2.57854 -1.46993 0.23285 254 247 227
2.56602 -1.48008 0.22888 254 254 254
2.55716 -1.47227 0.24314 254 249 229
2.54470 -1.48238 0.23919 250 254 254
2.52840 -1.47176 0.25558 253 252 238
2.51603 -1.48179 0.25166 252 254 254
2.51868 -1.47828 0.26234 254 254 245
2.50632 -1.48831 0.25842 254 254 254
2.51085 -1.48551 0.26853 254 254 253
2.50011 -1.49161 0.27556 254 254 254
2.53962 -1.51713 0.26790 215 214 219
2.60504 -1.56372 0.25686 27 19 78
2.65033 -1.66960 0.27721 239 223 205
2.65711 -1.66126 0.27106 249 233 221
2.65001 -1.67555 0.29370 175 155 150
2.64356 -1.67794 0.28335 142 117 149
2.63711 -1.68032 0.27301 127 93 104
3.42719 -2.10892 0.10277 147 158 173
3.42760 -2.10143 0.08203 75 78 95
3.33475 -2.18121 0.17089 176 180 188
3.35128 -2.16781 0.17613 180 184 190
3.34322 -2.17079 0.16320 179 183 191
3.33516 -2.17377 0.15028 178 182 191
3.33128 -2.19404 0.17729 168 165 167
3.33051 -2.20821 0.18301 148 134 119
3.33010 -2.21567 0.20369 143 137 135
3.32202 -2.21866 0.19072 133 116 102
3.31393 -2.22165 0.17775 142 121 97
2.92120 -2.06265 0.30758 182 192 200
2.92157 -2.05590 0.28888 131 118 125
2.90620 -2.07481 0.30283 206 216 219
2.90963 -2.07015 0.31552 203 208 196
2.91586 -2.08664 0.31905 121 126 130
2.79232 -2.30833 0.45764 92 89 78
2.77181 -2.31037 0.46742 55 49 42
2.75666 -2.32266 0.46262 57 49 55
2.73626 -2.41804 0.52399 86 85 76
2.73663 -2.41115 0.50490 90 92 81
2.72095 -2.43046 0.51913 82 78 56
2.72615 -2.42625 0.53155 89 81 59
2.67820 -2.42471 0.55204 138 145 148
2.66100 -2.42813 0.56090 142 147 160
2.63443 -2.42534 0.57152 163 172 184
2.64102 -2.44422 0.57580 185 194 199
2.62594 -2.45646 0.57102 177 174 186
2.63467 -2.45465 0.58256 174 173 192
2.63195 -2.46750 0.58864 176 177 195
2.61683 -2.47976 0.58385 184 188 197
2.62134 -2.51960 0.61311 186 185 195
2.61761 -2.53200 0.61946 182 177 191
2.60238 -2.54435 0.61463 177 176 173
2.59992 -2.56483 0.63972 183 183 189
2.58933 -2.57248 0.64729 177 179 171
2.57163 -2.57504 0.65603 130 121 123
2.56265 -2.58376 0.66330 113 99 96
2.54746 -2.59608 0.65848 102 88 78
2.55053 -2.59020 0.67107 109 97 90
2.53536 -2.60250 0.66626 109 96 88
2.52819 -2.60434 0.68627 111 96 84
2.52080 -2.60707 0.67444 114 98 83
2.51305 -2.61662 0.68147 116 96 79
2.52358 -2.61621 0.69281 109 90 76
2.50843 -2.62850 0.68800 115 97 79
2.50962 -2.62117 0.70083 106 88 77
2.49450 -2.63343 0.69603 117 101 76
2.50815 -2.63539 0.70688 108 91 77
2.50045 -2.64500 0.71392 110 92 76
2.48530 -2.65729 0.70911 124 107 83
2.49495 -2.65626 0.72062 112 95 77
2.47979 -2.66856 0.71581 127 106 85
2.47569 -2.68807 0.74118 122 101 79
2.49088 -2.71550 0.74493 144 133 105
2.44254 -2.72476 0.76970 193 192 192
2.40471 -2.72600 0.78680 203 206 209
2.38711 -2.72752 0.79511 207 212 216
2.37821 -2.73600 0.80225 210 216 220
2.40000 -2.81769 0.82373 206 206 205
2.40789 -2.84052 0.82894 202 192 174
2.37132 -2.82594 0.83947 166 125 102
2.36329 -2.83533 0.84657 167 127 83
2.34809 -2.84766 0.84175 177 145 100
2.35395 -2.84359 0.85382 172 142 91
2.33875 -2.85591 0.84900 174 149 100
2.30576 -2.85067 0.87769 166 142 96
2.31348 -2.84117 0.87069 177 146 99
2.29069 -2.86289 0.87291 88 79 80
2.28191 -2.84601 0.88640 132 109 62
2.27405 -2.85531 0.89339 67 59 55
2.28090 -2.87767 0.89888 34 30 41
1.72093 -2.52947 1.01264 53 49 49
1.72123 -2.52383 0.99701 45 48 56
1.71992 -2.54256 1.01805 99 96 86
1.70736 -2.55275 1.01407 143 136 125
1.52525 -2.70264 1.16448 142 119 109
1.52555 -2.69707 1.14906 153 128 108
1.49283 -2.68105 1.17052 166 159 153
1.48062 -2.69095 1.16665 199 203 194
1.22165 -2.99226 1.40803 156 157 156
1.23380 -2.98240 1.41189 153 159 165
1.22787 -2.98459 1.40238 154 160 163
1.22194 -2.98678 1.39287 155 161 165
1.21610 -3.00092 1.41377 135 129 130
1.20394 -3.01079 1.40991 102 86 74
1.21068 -3.00979 1.41952 102 89 82
1.19851 -3.01966 1.41566 98 88 85
1.29622 -3.24445 1.47114 97 86 76
1.29654 -3.23860 1.45493 88 82 79
1.28564 -3.24659 1.47660 51 44 42
1.27899 -3.25477 1.48263 29 21 27
1.26469 -3.25098 1.48748 74 74 71
1.26765 -3.27420 1.49500 112 103 95
1.25467 -3.28473 1.49088 124 111 99
1.25771 -3.29592 1.50763 129 114 97
1.25136 -3.29826 1.49746 129 115 102
1.25711 -3.31385 1.51471 111 87 92
1.23836 -3.30261 1.51868 76 46 58
1.22863 -3.30578 1.52416 69 59 65
1.24922 -3.35840 1.53512 100 90 93
1.24269 -3.36702 1.54126 130 119 109
1.22956 -3.37767 1.53710 128 116 112
2.65753 -1.35020 0.13932 123 103 136
2.65722 -1.35581 0.15488 109 100 119
2.62853 -1.35070 0.15235 140 120 163
2.62823 -1.35628 0.16780 115 99 111
2.61622 -1.35656 0.16001 165 149 169
2.61591 -1.36213 0.17544 119 95 116
2.62719 -1.38007 0.16403 218 202 217
2.68126 -1.40835 0.15077 246 235 220
2.66857 -1.41864 0.14674 254 254 254
2.68987 -1.42150 0.15193 254 249 231
2.67712 -1.43184 0.14788 254 254 254
2.67674 -1.42727 0.15992 254 252 239
2.66402 -1.43759 0.15588 254 254 254
2.67583 -1.43724 0.16408 254 254 241
2.66309 -1.44757 0.16004 254 254 254
2.65451 -1.44009 0.17460 254 254 254
2.64182 -1.45038 0.17058 254 254 254
2.48003 -1.48841 0.27010 254 254 254
2.48033 -1.48288 0.25478 254 254 254
2.47404 -1.49062 0.26049 254 254 254
2.51531 -1.51231 0.26350 236 230 210
2.50286 -1.52240 0.25955 162 143 126
2.55663 -1.53885 0.25523 102 81 65
2.63030 -1.57850 0.23758 22 15 50
2.61734 -1.58900 0.23347 146 153 179
2.53300 -1.55053 0.27010 127 122 162
2.52040 -1.56074 0.26611 205 205 213
2.63609 -1.65755 0.26486 250 232 210
2.64926 -1.64687 0.26904 237 226 220
2.64284 -1.64925 0.25874 240 230 219
2.63642 -1.65162 0.24845 245 229 216
2.64833 -1.67386 0.26561 220 203 165
2.63509 -1.68460 0.26141 115 84 67
3.37006 -2.06168 0.09250 52 41 56
3.38642 -2.04842 0.09769 85 74 89
3.37844 -2.05137 0.08489 103 91 81
3.37046 -2.05432 0.07210 112 95 77
3.38096 -2.09476 0.10016 125 136 148
3.43412 -2.13309 0.09110 161 171 179
3.44004 -2.15026 0.09496 176 181 189
3.43963 -2.15781 0.11589 181 184 193
3.43144 -2.16084 0.10276 179 183 192
3.42326 -2.16387 0.08963 177 180 187
3.32439 -2.19759 0.16404 169 164 163
3.31624 -2.20819 0.17165 155 139 117
3.29968 -2.22162 0.16640 156 134 108
2.93641 -2.07664 0.29014 166 171 186
2.93678 -2.06985 0.27132 141 122 124
2.91205 -2.09115 0.30640 155 171 186
2.91046 -2.10377 0.31188 100 127 171
2.77705 -2.29229 0.44212 136 142 141
2.77743 -2.28548 0.42325 146 154 164
2.78822 -2.31304 0.44501 101 101 91
2.77173 -2.31746 0.45398 62 57 49
2.75655 -2.32977 0.44917 69 57 64
2.72724 -2.41982 0.51233 92 99 84
2.72762 -2.41294 0.49325 93 91 80
2.67486 -2.43007 0.53939 104 96 107
2.64598 -2.42587 0.55059 111 115 127
2.63884 -2.45036 0.56300 173 181 185
2.62373 -2.46262 0.55821 178 179 183
2.63209 -2.47527 0.57540 177 178 189
2.62470 -2.47800 0.56355 173 173 180
2.63138 -2.53436 0.59802 185 182 185
2.61608 -2.54676 0.59317 172 172 166
2.59830 -2.58690 0.63251 176 178 170
2.59868 -2.58001 0.61340 169 170 178
2.56138 -2.57574 0.64464 134 119 117
2.56695 -2.59494 0.64942 111 91 75
2.55170 -2.60730 0.64459 107 94 75
2.49996 -2.65294 0.70098 121 107 78
2.50034 -2.64610 0.68204 119 107 83
2.49256 -2.65568 0.68910 124 111 86
2.48478 -2.66525 0.69616 132 114 88
2.48456 -2.70342 0.72686 126 111 89
2.48493 -2.69655 0.70783 127 106 79
2.48289 -2.71785 0.73305 153 152 137
2.46432 -2.71906 0.74173 185 195 190
2.43333 -2.72605 0.75809 186 193 195
2.42087 -2.73186 0.76580 180 187 198
2.39487 -2.72671 0.77536 182 182 201
2.37913 -2.72969 0.78346 186 176 199
2.38622 -2.76708 0.79444 177 156 162
2.37110 -2.77934 0.78964 181 150 112
2.39092 -2.78691 0.79984 171 140 143
2.37574 -2.79922 0.79502 178 147 105
2.37894 -2.79298 0.80744 162 132 128
2.36377 -2.80528 0.80263 179 150 106
2.37243 -2.80360 0.81433 155 128 118
2.36676 -2.81494 0.82112 151 123 109
2.35379 -2.82010 0.82882 160 124 95
2.33863 -2.83240 0.82401 176 154 116
2.34612 -2.82974 0.83585 171 149 102
2.31536 -2.85192 0.85784 161 142 88
2.30024 -2.86418 0.85305 74 68 77
2.28763 -2.84396 0.86711 118 87 53
2.27262 -2.85613 0.86235 77 89 88
2.26841 -2.85949 0.88149 84 87 76
2.25341 -2.87165 0.87673 41 43 41
2.27713 -2.88358 0.88672 53 58 49
2.27911 -2.90180 0.89273 36 33 34
2.26398 -2.91407 0.88793 24 29 32
1.72312 -2.53967 1.00216 47 49 56
1.72343 -2.53401 0.98648 46 49 56
1.72670 -2.55724 1.00721 102 104 88
1.71407 -2.56748 1.00320 145 136 124
1.52711 -2.71374 1.15466 144 122 107
1.52742 -2.70815 1.13919 153 128 110
1.48301 -2.67888 1.16103 171 167 148
1.22517 -3.00830 1.39957 155 157 152
1.22547 -3.00280 1.38433 155 162 165
1.22486 -3.02478 1.40593 123 112 113
1.21259 -3.03472 1.40204 103 88 84
1.29924 -3.26121 1.46227 92 83 72
1.28527 -3.25817 1.46731 43 38 29
1.27707 -3.26397 1.47313 31 27 29
1.26877 -3.26961 1.47893 79 76 81
1.26911 -3.28884 1.48604 112 102 91
1.25578 -3.32431 1.50534 129 115 99
1.25610 -3.31842 1.48902 131 118 108
1.24940 -3.32667 1.49510 133 122 106
1.24270 -3.33492 1.50119 130 117 101
1.25375 -3.34013 1.51221 120 98 88
1.24064 -3.35077 1.50805 124 103 100
1.25169 -3.35599 1.51911 115 95 92
1.23854 -3.36666 1.51494 121 101 101
1.24879 -3.37058 1.52590 116 101 99
1.23562 -3.38127 1.52172 123 111 100
1.24314 -3.38070 1.53223 124 116 106
1.22995 -3.39139 1.52804 124 113 103
2.68903 -1.38480 0.12493 254 253 238
2.67636 -1.39507 0.12092 254 254 254
2.70188 -1.39923 0.12461 254 254 249
2.68913 -1.40956 0.12057 254 254 254
2.69748 -1.40798 0.12985 254 254 254
2.68473 -1.41832 0.12581 254 254 254
2.69070 -1.41593 0.13586 254 254 254
2.67795 -1.42628 0.13182 254 254 254
2.48445 -1.50488 0.26120 253 243 230
2.48475 -1.49932 0.24580 254 254 254
2.47842 -1.50711 0.25154 243 250 247
2.55077 -1.55179 0.24921 63 50 60
2.54460 -1.55407 0.23930 108 76 116
2.61377 -1.65324 0.25915 251 236 206
2.59372 -1.65585 0.26907 197 174 146
2.58067 -1.66642 0.26494 101 72 69
3.35087 -2.07368 0.08810 63 63 70
3.35127 -2.06632 0.06771 66 54 43
3.34290 -2.07663 0.07531 48 47 54
3.37581 -2.09904 0.08648 106 116 132
3.42190 -2.13426 0.07913 149 155 163
3.43335 -2.15397 0.08142 170 175 181
3.29734 -2.17695 0.15069 174 180 182
3.29774 -2.16955 0.13019 179 181 185
3.28312 -2.18451 0.15987 168 163 157
3.26337 -2.18932 0.17048 162 145 125
3.24700 -2.20259 0.16529 169 147 119
2.90265 -2.07942 0.29014 193 205 219
2.90731 -2.09519 0.29397 188 195 206
2.91459 -2.11240 0.29718 94 101 156
2.91927 -2.14201 0.30619 155 183 211
2.92970 -2.16118 0.30873 187 200 220
2.92932 -2.16807 0.32780 197 204 217
2.92186 -2.17083 0.31584 192 199 214
2.78489 -2.30400 0.42686 142 148 150
2.78527 -2.29716 0.40790 149 155 168
2.79176 -2.32230 0.43066 112 113 110
2.78863 -2.33474 0.43672 75 66 69
2.71238 -2.41787 0.50190 100 106 98
2.71276 -2.41100 0.48286 89 88 76
2.70494 -2.42063 0.48996 99 108 96
2.70851 -2.44472 0.51369 87 77 62
2.70098 -2.45459 0.52075 90 76 73
2.67412 -2.45181 0.53169 89 82 90
2.65128 -2.45151 0.54176 101 95 120
2.63860 -2.53217 0.57766 184 186 183
2.63897 -2.52527 0.55855 167 170 177
2.63112 -2.53493 0.56568 169 171 178
2.62327 -2.54459 0.57280 169 168 175
2.63620 -2.54559 0.58377 180 180 175
2.62085 -2.55804 0.57890 167 168 172
2.59947 -2.59584 0.61898 171 173 170
2.59125 -2.60528 0.62619 158 148 136
2.57189 -2.60665 0.63534 122 105 72
2.48447 -2.71190 0.71379 130 107 85
2.48484 -2.70501 0.69471 148 121 78
2.48282 -2.72639 0.71996 148 130 114
2.47346 -2.73487 0.72731 157 140 135
2.45813 -2.74729 0.72245 164 136 91
2.45664 -2.73742 0.73577 155 129 121
2.43413 -2.73534 0.74503 137 113 99
2.41932 -2.73928 0.75311 111 95 93
2.41105 -2.74845 0.76024 115 96 107
2.39839 -2.75403 0.76798 150 124 120
2.38325 -2.76631 0.76317 173 155 100
2.39213 -2.76480 0.77481 169 143 114
2.37698 -2.77709 0.77000 176 151 106
2.38722 -2.77671 0.78146 177 149 118
2.37205 -2.78901 0.77665 175 149 106
2.35099 -2.81060 0.81033 177 148 108
2.35136 -2.80379 0.79145 173 146 112
2.34360 -2.81333 0.79849 173 145 109
2.33585 -2.82288 0.80553 173 145 102
2.34090 -2.81816 0.81766 173 145 104
2.32418 -2.83619 0.83188 179 153 108
2.32139 -2.85002 0.83831 149 133 98
2.29113 -2.83993 0.84802 102 77 63
2.26497 -2.86564 0.86933 73 83 74
2.25764 -2.86835 0.85758 55 54 66
2.29424 -2.92482 0.87846 28 31 33
1.72110 -2.54589 0.99197 53 53 62
1.72141 -2.54022 0.97626 44 50 40
1.72365 -2.56252 0.99707 106 103 93
1.71100 -2.57278 0.99306 146 136 123
1.54408 -2.74195 1.14443 150 127 118
1.54439 -2.73630 1.12879 151 126 106
1.48771 -2.69316 1.15128 179 174 165
1.46107 -2.67763 1.15733 201 203 200
1.46077 -2.68309 1.17247 205 207 206
1.45485 -2.68528 1.16297 205 206 207
1.44893 -2.68747 1.15348 206 205 207
1.22567 -3.02002 1.39070 151 150 147
1.22397 -3.03454 1.39690 114 99 101
1.21168 -3.04451 1.39300 103 92 90
1.30331 -3.26109 1.44647 83 80 72
1.31639 -3.25048 1.45062 87 79 74
1.31001 -3.25284 1.44039 86 76 75
1.29709 -3.27010 1.45262 81 76 60
1.28614 -3.27175 1.45812 39 36 23
1.27901 -3.27929 1.46413 44 43 41
1.27158 -3.28636 1.47010 90 85 86
1.26871 -3.30064 1.47673 113 104 93
1.26373 -3.31165 1.48308 125 113 101
1.25064 -3.32226 1.47892 133 121 111
2.60662 -1.63320 0.24091 232 220 218
2.60694 -1.62733 0.22464 171 152 170
2.59604 -1.65082 0.25222 249 235 209
2.61123 -1.66836 0.25193 164 133 147
3.37510 -2.10533 0.07153 87 94 104
3.41118 -2.13610 0.06678 133 141 152
3.43408 -2.16111 0.06581 162 168 176
3.42550 -2.17174 0.07362 173 177 184
3.42508 -2.17931 0.09461 178 181 189
3.41688 -2.18235 0.08145 176 180 190
3.40867 -2.18538 0.06829 171 177 187
2.91830 -2.09381 0.27243 177 189 209
2.91867 -2.08700 0.25358 142 137 123
2.91610 -2.10617 0.27802 196 202 211
2.90787 -2.11547 0.28517 114 116 162
2.89448 -2.13566 0.29871 127 147 177
2.90977 -2.15736 0.29992 157 175 199
2.90979 -2.17113 0.30504 177 192 210
2.90942 -2.17801 0.32409 191 197 209
2.90197 -2.18076 0.31214 186 196 211
2.89452 -2.18352 0.30020 168 178 205
2.78549 -2.31149 0.41314 148 152 157
2.78586 -2.30463 0.39413 152 159 172
2.78768 -2.32706 0.41795 123 125 123
2.79000 -2.34280 0.42277 90 83 83
2.78012 -2.35124 0.43035 80 68 65
2.77227 -2.36090 0.43747 78 72 59
2.71313 -2.44055 0.49370 89 81 67
2.71350 -2.43365 0.47457 99 101 97
2.70474 -2.44989 0.50094 77 69 49
2.69391 -2.45762 0.50868 81 79 62
2.67768 -2.46178 0.51752 88 87 80
2.65229 -2.45981 0.52819 97 100 109
2.66314 -2.48180 0.53151 159 169 179
2.60821 -2.59488 0.59829 163 169 181
2.62361 -2.58239 0.60317 168 168 178
2.61610 -2.58517 0.59113 168 168 183
2.60032 -2.60459 0.60545 161 171 178
2.59239 -2.61428 0.61262 159 169 161
2.57156 -2.61458 0.62209 117 115 100
2.56013 -2.62165 0.62985 100 93 86
2.55976 -2.62855 0.64896 113 100 81
2.54555 -2.62636 0.63816 103 101 95
2.54518 -2.63324 0.65722 120 100 84
2.54345 -2.64025 0.64427 108 113 106
2.54307 -2.64714 0.66337 123 100 84
2.53930 -2.65267 0.65076 109 114 97
2.53893 -2.65957 0.66988 123 103 84
2.52804 -2.65978 0.65847 104 105 92
2.52131 -2.67028 0.66540 94 85 95
2.50250 -2.68723 0.68016 140 121 89
2.49466 -2.69688 0.68728 147 124 85
2.48719 -2.69965 0.67530 151 125 81
2.48190 -2.71848 0.70105 151 122 84
2.48228 -2.71158 0.68194 153 124 81
2.47443 -2.72124 0.68906 155 125 86
2.46658 -2.73090 0.69619 157 130 90
2.47256 -2.72697 0.70841 157 129 96
2.45724 -2.73939 0.70355 160 134 91
2.46352 -2.73568 0.71571 162 135 99
2.44820 -2.74810 0.71086 158 133 89
2.42862 -2.73960 0.73285 153 130 86
2.41463 -2.74420 0.74084 135 116 91
2.40424 -2.75166 0.74829 134 115 102
2.38799 -2.75430 0.75657 157 144 102
2.37286 -2.76656 0.75177 169 147 99
2.31647 -2.82243 0.81406 168 154 106
2.30796 -2.83126 0.82118 134 127 81
2.30820 -2.84770 0.82719 72 66 41
2.29154 -2.84942 0.83531 63 59 72
2.27647 -2.86164 0.83053 70 76 76
2.27951 -2.85512 0.84284 74 77 86
2.27111 -2.86401 0.84992 72 82 82
2.25607 -2.87621 0.84515 42 35 54
2.31329 -2.93474 0.85731 34 27 37
2.30581 -2.93751 0.84531 27 21 27
2.29795 -2.94718 0.85244 15 14 18
2.31213 -2.95048 0.86369 25 22 23
1.72475 -2.55760 0.98123 53 55 60
1.72506 -2.55190 0.96546 43 48 49
1.72020 -2.56744 0.98694 107 104 104
1.70754 -2.57770 0.98293 145 138 124
1.54143 -2.74813 1.13453 155 135 134
1.46912 -2.68101 1.14201 185 183 184
1.45694 -2.69088 1.13814 204 205 203
1.45468 -2.67928 1.14785 202 204 204
1.44255 -2.68912 1.14401 205 204 204
1.40811 -2.66962 1.16517 205 204 206
1.42008 -2.65992 1.16897 206 207 209
1.41424 -2.66208 1.15961 206 206 209
1.40840 -2.66423 1.15025 206 205 206
1.41395 -2.66746 1.17453 206 207 207
1.40782 -2.67501 1.18010 189 192 192
1.39927 -2.68876 1.17627 164 169 179
1.39898 -2.69416 1.19122 161 166 174
1.39313 -2.69632 1.18184 160 165 174
1.38728 -2.69848 1.17247 158 166 173
1.23468 -3.02728 1.37625 150 160 157
1.24700 -3.01729 1.38016 156 161 162
1.24099 -3.01951 1.37053 156 162 161
1.23310 -3.04204 1.38246 140 134 134
1.22424 -3.04607 1.38794 109 94 92
1.21191 -3.05607 1.38403 105 94 92
1.31046 -3.26567 1.43099 77 65 72
1.32359 -3.25502 1.43515 92 82 73
1.31719 -3.25739 1.42488 92 83 69
1.30265 -3.27228 1.43696 67 66 58
1.29543 -3.27980 1.44299 62 60 49
1.28622 -3.28419 1.44876 39 34 31
1.27652 -3.28775 1.45445 68 64 54
1.27359 -3.30197 1.46106 102 93 92
1.26707 -3.31055 1.46719 117 106 97
1.25396 -3.32119 1.46303 127 118 107
1.26129 -3.32032 1.47342 126 118 102
1.24817 -3.33096 1.46926 133 122 111
2.36473 -1.41793 0.25680 246 252 253
2.37653 -1.40837 0.26054 254 254 254
2.37077 -1.41050 0.25131 254 254 254
2.37048 -1.41581 0.26603 254 254 254
2.36444 -1.42325 0.27151 254 254 254
2.36994 -1.42965 0.25877 245 247 252
2.36965 -1.43498 0.27354 254 254 254
2.36387 -1.43712 0.26428 251 254 254
2.44594 -1.49893 0.25001 193 198 225
2.49747 -1.53999 0.24187 64 52 75
2.59393 -1.63291 0.23260 225 210 208
2.58091 -1.64347 0.22847 243 225 197
2.58236 -1.63906 0.24010 247 229 207
2.57570 -1.64726 0.24614 242 225 199
2.62969 -1.68134 0.23433 127 100 140
2.60767 -1.68314 0.24495 73 60 80
2.60735 -1.68907 0.26139 94 84 74
2.61857 -1.69910 0.24592 85 79 77
2.61824 -1.70507 0.26245 97 83 77
2.61178 -1.70746 0.25209 93 80 74
2.60531 -1.70985 0.24172 92 83 78
3.41764 -2.14580 0.04959 111 122 137
3.43097 -2.16650 0.05121 148 155 168
3.43226 -2.18175 0.05627 166 173 181
3.20467 -2.15998 0.15118 145 130 83
3.18852 -2.17307 0.14605 174 155 108
2.91833 -2.10031 0.25866 157 169 181
2.91870 -2.09349 0.23978 137 119 93
2.89994 -2.10439 0.26848 185 199 210
2.90163 -2.11879 0.27304 138 151 184
2.88998 -2.13991 0.28612 140 145 156
2.87386 -2.15870 0.30036 145 158 193
2.77590 -2.31296 0.40172 150 155 161
2.77628 -2.30610 0.38272 157 165 177
2.77953 -2.32940 0.40616 129 130 130
2.79122 -2.35080 0.40878 102 98 87
2.78304 -2.36031 0.41599 92 85 68
2.77728 -2.37129 0.42266 85 76 60
2.77690 -2.37821 0.44184 79 72 61
2.76644 -2.37917 0.43048 76 66 57
2.76606 -2.38608 0.44964 77 73 60
2.76406 -2.39226 0.43639 63 58 55
2.76368 -2.39919 0.45559 82 76 56
2.76105 -2.40501 0.44247 66 61 53
2.76067 -2.41195 0.46169 88 80 64
2.74963 -2.41252 0.45041 85 78 60
2.74926 -2.41945 0.46961 88 81 68
2.74175 -2.42222 0.45757 83 76 65
2.73687 -2.43385 0.46407 78 78 70
2.71547 -2.44966 0.47960 92 87 77
2.72134 -2.46831 0.48384 42 36 21
2.71343 -2.47805 0.49102 32 31 31
2.70334 -2.48636 0.49866 43 35 50
2.67925 -2.48536 0.50919 51 54 85
2.66945 -2.49376 0.51672 128 141 155
2.65997 -2.50236 0.52419 176 189 188
2.65960 -2.50926 0.54333 169 164 164
2.65211 -2.51203 0.53132 173 172 168
2.66118 -2.53325 0.53507 167 173 177
2.66871 -2.53047 0.54713 165 166 171
2.65398 -2.54346 0.54210 167 176 182
2.65143 -2.55689 0.54822 159 169 178
2.63504 -2.57599 0.56270 149 160 176
2.63466 -2.58295 0.58197 167 168 178
2.62245 -2.58244 0.57078 144 155 174
2.61547 -2.59283 0.57778 141 151 172
2.59769 -2.59550 0.58681 124 137 165
2.59550 -2.60930 0.59290 112 118 154
2.58063 -2.61398 0.60136 106 102 127
2.58463 -2.63234 0.60633 69 64 78
2.57115 -2.63798 0.61452 48 30 46
2.55702 -2.64310 0.62280 45 32 38
2.54691 -2.65113 0.63035 41 44 45
2.53726 -2.65950 0.63781 30 35 40
2.53196 -2.67112 0.64450 21 21 33
2.51447 -2.68918 0.65910 82 82 75
2.49828 -2.69249 0.66764 138 120 87
2.48296 -2.70491 0.66278 155 126 69
2.42057 -2.74184 0.72104 151 126 88
2.42095 -2.73500 0.70207 159 133 95
2.41316 -2.74459 0.70915 155 134 106
2.40536 -2.75418 0.71622 151 135 112
2.40763 -2.74727 0.72890 140 115 87
2.39245 -2.75958 0.72409 153 139 112
2.39683 -2.75438 0.73642 135 112 90
2.38203 -2.75819 0.74453 147 128 96
2.31739 -2.80002 0.78924 170 150 120
2.32510 -2.79054 0.78224 170 147 123
2.30836 -2.80837 0.79641 164 145 101
2.30894 -2.82500 0.80229 108 77 68
2.30900 -2.84127 0.80828 26 29 32
2.30116 -2.85072 0.81532 40 44 59
2.28340 -2.85145 0.82363 64 67 73
2.26833 -2.86366 0.81885 60 66 67
1.72368 -2.56481 0.97086 51 54 72
1.72399 -2.55910 0.95505 46 47 41
1.71489 -2.57057 0.97696 107 105 111
1.55024 -2.75209 1.11856 152 128 113
1.56286 -2.74186 1.12256 158 134 110
1.55670 -2.74413 1.11270 160 135 113
1.55055 -2.74641 1.10284 161 135 120
1.52359 -2.73709 1.12508 161 146 149
1.47316 -2.69461 1.13219 190 189 193
1.46092 -2.70454 1.12831 205 205 203
1.41091 -2.68191 1.15565 201 201 201
1.41121 -2.67650 1.14066 206 205 204
1.40624 -2.70614 1.16672 160 167 172
1.39418 -2.71592 1.16289 161 166 175
1.24118 -3.03082 1.36144 146 154 153
1.23602 -3.04034 1.36730 138 146 142
1.23655 -3.05833 1.37371 124 118 112
1.22414 -3.06840 1.36977 107 95 92
1.22662 -3.06082 1.37913 108 93 90
1.21422 -3.07087 1.37520 106 95 93
1.31616 -3.26799 1.41522 90 78 69
1.32933 -3.25731 1.41940 97 89 75
1.32290 -3.25969 1.40910 98 90 78
1.31381 -3.28307 1.42186 59 37 62
1.30191 -3.28343 1.42737 42 36 45
1.29596 -3.29298 1.43359 39 39 53
1.28420 -3.29341 1.43907 55 51 59
1.27754 -3.30179 1.44519 95 85 67
1.27291 -3.31342 1.45158 110 101 94
1.25976 -3.32408 1.44741 120 111 106
1.26330 -3.31711 1.45729 119 110 102
1.25017 -3.32776 1.45313 127 116 114
1.93582 -1.03884 0.30041 82 93 159
1.94541 -1.03107 0.30345 190 186 231
1.94073 -1.03279 0.29596 92 102 155
1.93606 -1.03452 0.28846 118 102 113
1.94050 -1.03711 0.30791 207 226 254
1.93559 -1.04315 0.31237 212 242 254
1.92902 -1.04433 0.30553 97 90 156
1.92879 -1.04864 0.31747 229 250 254
1.91234 -1.04686 0.31406 145 134 182
1.91210 -1.05115 0.32595 247 253 254
2.35418 -1.40856 0.24553 254 254 254
2.36593 -1.39903 0.24926 254 254 254
2.36020 -1.40115 0.24007 254 254 254
2.35446 -1.40327 0.23087 254 254 254
2.35527 -1.41866 0.24874 214 224 240
2.35283 -1.42747 0.25309 210 198 213
2.34103 -1.43703 0.24935 235 248 252
2.38053 -1.44789 0.24796 243 250 253
2.39332 -1.47272 0.25125 235 246 244
2.37367 -1.47499 0.26104 111 115 180
2.49169 -1.54237 0.23200 29 36 63
2.49991 -1.55616 0.23332 97 104 125
2.53882 -1.60406 0.23318 164 141 157
2.57103 -1.62834 0.22741 216 199 195
2.55146 -1.64199 0.24134 225 206 178
2.59996 -1.67376 0.23091 105 78 100
2.58925 -1.68033 0.23820 34 26 50
2.57611 -1.69098 0.23404 62 51 62
2.61537 -1.70292 0.23459 68 65 71
2.60211 -1.71368 0.23038 92 83 82
3.38050 -2.13550 0.04479 98 103 115
3.38091 -2.12801 0.02404 51 46 56
