ply
format ascii 1.0
element face 0
property list uchar int vertex_indices
element vertex 1338
property float x
property float y
property float z
property uchar diffuse_red
property uchar diffuse_green
property uchar diffuse_blue
end_header
2.57832 -2.62752 0.04786 38 55 147
2.57825 -2.62020 0.02738 44 63 178
2.57190 -2.63910 0.05508 33 34 99
2.57139 -2.65468 0.06030 26 21 71
2.55514 -2.66836 0.05539 21 16 61
2.62367 -3.10227 0.17326 121 98 59
2.62359 -3.09437 0.15116 122 101 70
2.61231 -3.11148 0.18246 99 78 52
2.62659 -3.14124 0.18400 41 24 11
2.48967 -3.13902 0.25909 10 23 40
2.48959 -3.13127 0.23740 8 6 8
2.43877 -3.11449 0.27948 102 134 143
2.48230 -3.16945 0.27281 191 213 215
2.46509 -3.18394 0.26761 208 214 220
2.38881 -3.23626 0.34574 201 205 204
2.38353 -3.25020 0.35308 199 203 201
2.34049 -3.26734 0.38235 193 199 189
2.34041 -3.25966 0.36086 196 200 202
2.33635 -3.28233 0.38939 158 149 124
2.36245 -3.32540 0.38859 43 20 6
2.25481 -3.30014 0.44017 5 10 38
2.16811 -3.23603 0.46784 20 26 57
1.56021 -3.09916 0.76095 170 157 145
1.56014 -3.09277 0.74307 169 146 134
1.53241 -3.08445 0.77167 190 195 193
1.51838 -3.09626 0.76743 182 188 198
1.25631 -2.85927 0.85312 168 188 216
1.24638 -2.87879 0.86480 223 242 247
1.23375 -2.88942 0.86098 241 251 250
1.24124 -2.88835 0.87068 222 220 228
1.23706 -2.89912 0.87640 218 195 214
1.23712 -2.90483 0.89239 181 189 232
1.23317 -2.91027 0.88209 209 187 214
1.23322 -2.91599 0.89810 172 192 230
1.22388 -2.91476 0.88866 202 185 216
1.22393 -2.92048 0.90465 182 182 213
1.21798 -2.92344 0.89468 202 177 206
1.21803 -2.92916 0.91067 199 170 193
1.21092 -2.93067 0.90088 206 183 206
1.19827 -2.94132 0.89706 211 237 250
1.20890 -2.94426 0.90630 203 211 232
1.20493 -2.95543 0.91204 205 234 248
1.20200 -2.96797 0.91764 226 245 250
1.18611 -2.99666 0.93553 208 231 242
1.19884 -2.98594 0.93938 225 228 235
1.19245 -2.98843 0.92941 229 241 247
1.19250 -2.99417 0.94550 193 203 225
1.18617 -3.00241 0.95161 193 227 247
1.17977 -3.00489 0.94165 201 231 247
1.15647 -3.09137 0.98196 198 230 250
1.15427 -3.10548 0.98766 196 230 252
1.14629 -3.11165 0.99403 195 228 252
1.13861 -3.11822 1.00036 192 227 251
1.13237 -3.12679 1.00653 191 229 249
1.12135 -3.12861 1.01321 190 228 248
1.10667 -3.12512 1.02023 190 227 247
1.09759 -3.12952 1.02665 187 221 247
1.09035 -3.13651 1.03287 182 217 242
1.07524 -3.14952 1.04536 174 205 233
1.07418 -3.16553 1.05103 171 203 234
1.07093 -3.17840 1.05691 169 199 233
1.06345 -3.18504 1.06315 165 194 227
1.05884 -3.19596 1.06916 162 185 226
1.05699 -3.21106 1.07497 154 177 222
1.05739 -3.22965 1.08065 146 170 217
1.06063 -3.25270 1.08616 138 158 207
1.04689 -3.24990 1.09288 131 151 195
1.03747 -3.25363 1.09927 120 139 184
1.02459 -3.26448 1.09538 97 118 151
1.02902 -3.25879 1.10559 112 132 177
1.01615 -3.26962 1.10170 97 117 150
1.00034 -3.26879 1.12464 91 118 162
0.98753 -3.27957 1.12077 101 122 146
0.99762 -3.28289 1.13061 90 121 165
0.98479 -3.29369 1.12674 97 122 146
0.98670 -3.28394 1.13699 88 118 165
0.97391 -3.29471 1.13312 98 121 150
0.97634 -3.30435 1.14919 88 116 155
0.96353 -3.31514 1.14532 98 122 141
0.97022 -3.31307 1.15534 89 116 153
0.95741 -3.32386 1.15147 98 122 138
0.95887 -3.31319 1.16166 89 115 150
0.94609 -3.32395 1.15780 97 122 140
0.94788 -3.31379 1.16794 88 114 148
0.93513 -3.32453 1.16409 95 122 142
0.97476 -3.90312 1.33989 112 134 128
0.95847 -3.91740 1.35344 85 78 75
0.94423 -3.92939 1.34913 68 70 78
0.94990 -3.92365 1.36016 72 65 74
0.94464 -3.93652 1.36715 69 67 84
0.93859 -3.94781 1.37409 87 98 115
0.93206 -3.95818 1.38099 117 130 142
0.92708 -3.97174 1.38804 117 112 119
0.91441 -3.99339 1.40191 90 92 100
0.90735 -4.00272 1.40878 106 117 123
0.90029 -4.01207 1.41565 118 123 113
0.89877 -4.03312 1.42317 103 97 98
0.89439 -4.04826 1.43039 78 72 87
0.88890 -4.06108 1.43750 73 69 83
0.87453 -4.07317 1.43315 73 76 90
0.88404 -4.07531 1.44470 74 74 86
0.88055 -4.09260 1.45211 74 76 87
0.87393 -4.10313 1.45912 73 78 81
0.86775 -4.11466 1.46619 66 72 78
0.86071 -4.12431 1.47315 69 78 89
0.85347 -4.13352 1.48007 83 94 102
0.84355 -4.13672 1.48658 81 84 97
0.83811 -4.14993 1.49378 76 73 76
0.82668 -4.14961 1.50000 85 87 79
0.82096 -4.16221 1.50716 89 94 76
1.48597 -1.14175 0.17116 222 208 198
1.49517 -1.13400 0.17394 219 205 198
1.49055 -1.13579 0.16674 220 205 199
1.48592 -1.13759 0.15953 223 207 194
1.48553 -1.14912 0.17372 198 187 184
1.49888 -1.16126 0.17010 135 121 137
1.48959 -1.16908 0.16729 98 78 78
1.49883 -1.16885 0.17252 97 80 87
1.48952 -1.17669 0.16970 97 85 79
1.50764 -1.18730 0.17340 93 85 74
1.52149 -1.19999 0.16968 72 64 63
1.54382 -1.21586 0.16223 29 21 44
1.53426 -1.22391 0.15934 18 16 24
2.00116 -1.43806 -0.02270 64 49 55
2.01269 -1.42834 -0.01921 35 25 38
2.00690 -1.43059 -0.02825 35 29 43
2.00110 -1.43285 -0.03728 32 32 54
2.02026 -1.45507 -0.02800 133 123 107
2.03099 -1.46900 -0.02960 156 141 118
2.02517 -1.47657 -0.02397 157 142 123
2.01652 -1.48303 -0.01712 131 119 113
2.02592 -1.49666 -0.01808 97 79 86
2.01416 -1.50655 -0.02163 94 77 82
2.87602 -2.08962 -0.30527 55 47 42
2.87595 -2.08245 -0.32530 62 47 52
2.88230 -2.10654 -0.30345 38 30 31
2.85255 -2.24923 -0.24202 15 10 46
2.84123 -2.25800 -0.23296 28 27 80
2.84476 -2.27448 -0.22975 34 37 102
2.82855 -2.28812 -0.23465 42 45 125
2.84082 -2.28712 -0.22358 29 36 116
2.84089 -2.29445 -0.20308 28 34 117
2.83274 -2.29762 -0.21578 29 37 121
2.82459 -2.30078 -0.22848 38 43 129
2.70254 -2.30078 -0.14226 34 45 129
2.71837 -2.28746 -0.13748 29 37 134
2.71042 -2.29055 -0.14986 28 42 136
2.70247 -2.29364 -0.16225 35 43 143
2.71049 -2.29769 -0.12987 29 37 124
2.70261 -2.30793 -0.12227 27 33 110
2.69348 -2.31036 -0.13420 36 39 121
2.69355 -2.31750 -0.11421 23 34 127
2.68561 -2.32059 -0.12660 27 37 131
2.69681 -2.34153 -0.12626 25 34 133
2.70149 -2.35894 -0.12339 30 25 125
2.69205 -2.36841 -0.11515 29 20 127
2.68737 -2.38061 -0.10872 99 74 159
2.67965 -2.39107 -0.10113 164 143 199
2.68221 -2.40752 -0.09738 152 144 215
2.64344 -2.39981 -0.07821 58 62 189
2.66624 -2.42822 -0.08198 101 107 217
2.66576 -2.44305 -0.07705 168 157 225
2.66058 -2.45511 -0.07037 173 157 196
2.62287 -2.44756 -0.05174 167 152 122
2.61495 -2.45786 -0.04409 161 156 101
2.61861 -2.47527 -0.04066 157 149 86
2.62576 -2.49493 -0.03846 139 123 66
2.62583 -2.50217 -0.01818 46 40 81
2.59467 -2.49095 -0.02239 93 78 61
2.59475 -2.49815 -0.00225 34 40 121
2.58696 -2.50140 -0.01481 60 52 97
2.58703 -2.50860 0.00534 35 51 155
2.57101 -2.51483 -0.01963 61 64 119
2.59571 -2.52224 -0.01314 47 53 150
2.59578 -2.52948 0.00711 37 60 174
2.58773 -2.53260 -0.00544 43 60 172
2.55941 -2.63935 0.04389 33 39 103
2.55468 -2.65208 0.05053 26 23 73
2.53848 -2.66572 0.04563 21 17 66
2.62564 -3.11425 0.15627 125 101 64
2.62556 -3.10632 0.13409 122 101 69
2.61683 -3.11767 0.14253 126 104 73
2.61690 -3.12560 0.16470 105 84 54
2.62789 -3.15285 0.16714 45 29 11
2.61520 -3.16109 0.17681 16 10 3
2.61527 -3.16905 0.19908 7 6 4
2.60642 -3.17250 0.18528 8 7 3
2.59757 -3.17594 0.17148 11 7 5
2.49928 -3.15766 0.24030 5 12 37
2.49920 -3.14987 0.21850 14 7 7
2.47346 -3.15428 0.25362 95 122 144
2.45938 -3.21611 0.28090 206 209 205
2.46798 -3.20494 0.27260 206 212 216
2.45930 -3.20831 0.25908 206 213 212
2.43626 -3.21462 0.29331 206 203 186
2.42158 -3.22036 0.30329 206 201 173
2.38904 -3.22881 0.32408 204 199 170
2.38210 -3.24127 0.33185 199 196 160
2.37907 -3.25726 0.33857 199 192 157
2.36699 -3.26510 0.34776 198 194 173
2.34760 -3.28505 0.36484 196 201 193
2.34673 -3.30316 0.37101 164 157 132
2.34948 -3.32473 0.37626 49 35 19
2.34594 -3.34055 0.38321 16 4 4
2.32872 -3.35504 0.37800 10 6 4
2.24652 -3.30357 0.42697 9 4 20
2.24645 -3.29598 0.40572 8 6 6
2.21068 -3.28804 0.44205 11 11 43
1.84307 -3.01836 0.56207 127 125 109
1.85046 -3.00875 0.55493 71 70 76
1.83567 -3.02797 0.56922 154 142 126
1.82821 -3.03087 0.55758 155 142 127
1.56294 -3.11321 0.74794 175 162 154
1.54873 -3.12518 0.74364 193 194 199
1.53265 -3.09560 0.75927 193 198 199
1.51858 -3.10745 0.75502 167 172 194
1.25072 -2.86264 0.84310 166 187 208
1.25067 -2.85694 0.82716 138 148 174
1.24438 -2.86510 0.83322 153 173 191
1.24339 -2.86954 0.84936 206 230 237
1.23890 -2.87987 0.85511 231 246 248
1.23088 -2.90181 0.86647 235 244 243
1.22586 -2.91157 0.87233 223 230 237
1.22040 -2.92081 0.87828 218 217 233
1.21561 -2.93091 0.88412 216 217 234
1.20969 -2.93960 0.89015 214 229 240
1.20046 -2.96034 0.90181 206 235 251
1.19383 -2.96816 0.90796 203 232 250
1.18833 -2.97742 0.91394 200 230 250
1.18507 -2.98963 0.91959 199 229 249
1.17980 -2.99925 0.92555 197 232 249
1.17172 -3.00520 0.93192 194 230 248
1.17178 -3.01094 0.94799 201 232 248
1.16479 -3.01263 0.93812 193 230 247
1.16485 -3.01837 0.95418 201 230 248
1.15954 -3.02229 0.94408 192 226 246
1.15960 -3.02804 0.96015 200 230 247
1.15072 -3.02718 0.95053 193 224 245
1.15077 -3.03292 0.96659 202 230 247
1.14910 -3.04176 0.95601 189 219 244
1.14999 -3.05981 0.96119 185 216 241
1.14946 -3.07605 0.96659 180 214 238
1.14745 -3.09036 0.97221 175 207 235
1.13959 -3.09664 0.97856 169 199 241
1.10824 -3.08724 0.99307 161 186 231
1.09726 -3.08890 0.99971 154 179 214
1.08210 -3.08456 1.00679 148 170 214
1.07712 -3.09459 1.01272 141 161 208
1.07347 -3.10657 1.01851 134 151 203
1.06082 -3.11723 1.01469 110 125 159
1.07238 -3.12229 1.02406 126 142 193
1.05969 -3.13297 1.02023 108 127 154
1.06611 -3.13056 1.03016 119 137 180
1.05342 -3.14125 1.02632 112 129 154
1.06686 -3.16670 1.04110 109 133 166
1.05408 -3.17746 1.03724 112 132 151
1.06514 -3.19966 1.05242 101 128 161
1.05229 -3.21048 1.04853 117 131 151
1.06997 -3.22483 1.05764 101 123 161
1.05704 -3.23572 1.05373 115 129 149
1.04808 -3.22784 1.07078 97 119 158
1.03521 -3.23868 1.06689 110 128 149
1.05277 -3.25316 1.07612 95 118 155
1.03983 -3.26406 1.07221 109 129 146
1.03239 -3.24006 1.08336 96 121 150
1.01954 -3.25088 1.07948 107 129 145
1.02160 -3.24157 1.08984 95 120 147
1.00878 -3.25236 1.08597 107 127 144
0.96454 -3.87686 1.32131 57 67 70
0.96447 -3.87046 1.30340 44 51 60
0.95718 -3.90854 1.33537 57 61 83
0.94295 -3.92052 1.33107 73 77 76
0.93919 -3.94273 1.35613 71 73 78
0.93913 -3.93629 1.33812 73 75 77
0.93285 -3.95349 1.36304 88 92 97
0.92742 -3.96612 1.37004 103 106 116
0.91746 -3.99337 1.38416 81 76 74
0.90926 -4.00037 1.39093 77 80 91
0.90394 -4.01341 1.39798 91 103 108
0.89297 -4.01455 1.40446 111 122 108
0.89183 -4.03646 1.41198 94 91 77
0.87749 -4.04853 1.40765 66 62 57
0.88735 -4.05141 1.41917 65 60 61
0.87299 -4.06350 1.41484 61 62 71
0.88386 -4.06858 1.42651 65 64 79
0.87413 -4.09721 1.44093 74 78 85
0.86821 -4.10929 1.44803 62 63 62
0.85377 -4.12144 1.44367 51 55 46
0.86253 -4.12197 1.45517 53 60 57
0.85372 -4.12769 1.46189 63 69 70
0.84897 -4.14250 1.46918 69 71 69
0.83452 -4.15467 1.46481 51 57 48
0.84044 -4.14883 1.47592 61 63 67
0.82600 -4.16099 1.47156 48 57 53
0.83371 -4.15921 1.48294 57 61 65
0.81926 -4.17138 1.47857 58 62 62
0.82150 -4.15708 1.48907 65 69 63
0.80709 -4.16920 1.48472 62 64 53
0.81695 -4.17244 1.49643 65 65 53
0.80253 -4.18458 1.49207 59 54 46
0.81132 -4.18537 1.50363 55 51 49
0.79688 -4.19753 1.49926 54 53 47
1.47575 -1.14164 0.16650 220 207 188
1.47571 -1.13750 0.15490 224 210 194
1.46921 -1.14691 0.17181 177 163 163
1.48363 -1.15941 0.16762 116 93 107
1.47438 -1.16720 0.16482 99 82 72
1.49114 -1.18494 0.17137 86 79 76
1.49109 -1.18072 0.15957 96 86 77
1.52625 -1.20525 0.15801 50 47 62
1.53668 -1.21688 0.15579 23 15 33
1.52712 -1.22493 0.15290 17 15 18
1.98366 -1.43583 -0.02657 68 59 63
1.98360 -1.43064 -0.04108 36 30 55
1.97788 -1.43807 -0.03556 53 47 62
2.01440 -1.45733 -0.03710 130 123 110
2.01587 -1.46769 -0.03470 146 131 105
2.01006 -1.47524 -0.02909 146 129 104
2.00909 -1.48470 -0.02560 111 103 93
1.99740 -1.49454 -0.02913 95 80 84
2.01034 -1.49508 -0.02306 95 78 85
1.99863 -1.50495 -0.02661 95 79 80
2.86444 -2.10499 -0.31183 29 22 42
2.86548 -2.11951 -0.30789 18 13 35
2.85023 -2.24078 -0.26155 14 7 21
2.86639 -2.22718 -0.25667 11 8 11
2.85827 -2.23033 -0.26932 12 9 10
2.84755 -2.25400 -0.25593 26 20 74
2.83467 -2.26196 -0.24623 39 42 100
2.81851 -2.27557 -0.25112 49 51 126
2.83323 -2.27587 -0.24109 46 48 117
2.81704 -2.28950 -0.24598 45 47 129
2.66629 -2.28827 -0.14364 55 61 146
2.65852 -2.29845 -0.13611 54 62 149
2.64282 -2.31166 -0.14086 54 48 146
2.66301 -2.31548 -0.13332 40 52 147
2.67802 -2.33855 -0.13455 44 45 148
2.67890 -2.35378 -0.13029 51 57 152
2.68612 -2.37272 -0.12844 95 93 187
2.68193 -2.38521 -0.12220 178 168 228
2.65921 -2.38697 -0.10891 219 196 248
2.65280 -2.39815 -0.10184 196 171 244
2.65972 -2.41719 -0.09978 87 76 218
2.66623 -2.43612 -0.09754 123 130 233
2.67352 -2.45563 -0.09554 210 209 246
2.66549 -2.46606 -0.08779 208 209 203
2.61031 -2.44790 -0.06252 179 169 95
2.60577 -2.46025 -0.05612 150 143 86
2.61985 -2.48409 -0.05659 130 122 82
2.61963 -2.49926 -0.05174 130 112 73
2.59952 -2.50208 -0.03958 150 138 70
2.60388 -2.52018 -0.03639 113 106 60
2.59605 -2.54616 -0.02391 43 56 165
2.58797 -2.54931 -0.03651 49 55 136
2.59612 -2.55344 -0.00356 43 60 170
2.58804 -2.55658 -0.01617 41 58 169
2.53560 -2.61614 0.03179 40 58 158
2.53553 -2.60888 0.01147 36 60 178
2.54944 -2.64127 0.03186 34 42 110
2.53976 -2.65064 0.04021 27 25 75
2.52359 -2.66426 0.03532 22 18 69
2.62335 -3.14129 0.14623 109 91 59
2.62327 -3.13333 0.12396 123 103 68
2.63145 -3.16635 0.14950 48 35 13
2.62301 -3.17812 0.15789 19 12 5
2.60530 -3.19303 0.15254 15 7 6
2.52524 -3.19019 0.21647 9 10 34
2.52516 -3.18232 0.19444 16 9 10
2.47513 -3.16635 0.23713 95 118 138
2.47193 -3.23795 0.26123 206 204 177
2.47593 -3.26028 0.26595 207 189 116
2.42037 -3.26779 0.29944 200 177 77
2.40308 -3.28235 0.29421 184 163 27
2.41123 -3.27850 0.30790 192 171 62
2.39943 -3.28679 0.31710 197 170 65
2.38037 -3.28844 0.32829 198 181 113
2.37650 -3.30388 0.33528 199 201 203
2.37274 -3.31949 0.34224 201 204 196
2.35087 -3.31833 0.35415 168 162 142
2.36483 -3.35049 0.35634 64 52 43
2.34162 -3.34798 0.36857 18 5 3
2.32438 -3.36249 0.36336 9 6 5
2.22442 -3.29376 0.41738 11 6 18
2.22434 -3.28620 0.39623 9 6 5
2.20176 -3.29077 0.42915 17 20 42
1.83595 -3.02161 0.55035 129 126 111
1.82109 -3.03412 0.54586 154 143 124
1.57793 -3.12403 0.72691 168 146 138
1.59223 -3.11199 0.73123 169 150 129
1.58505 -3.11478 0.72004 171 151 130
1.57787 -3.11757 0.70885 171 151 131
1.56449 -3.12598 0.73506 181 168 165
1.55022 -3.13799 0.73075 195 193 198
1.23853 -2.87379 0.83921 171 194 203
1.23848 -2.86809 0.82326 137 155 177
1.23219 -2.87626 0.82933 124 145 169
1.22591 -2.88442 0.83539 126 151 188
1.22978 -2.87895 0.84572 190 214 225
1.22837 -2.89307 0.85092 209 232 247
1.22374 -2.90330 0.85670 209 230 245
1.21950 -2.91405 0.86242 202 227 242
1.21427 -2.92357 0.86832 196 223 239
1.20995 -2.93427 0.87408 194 222 240
1.19936 -2.93706 0.88088 191 218 238
1.19375 -2.94613 0.88685 186 212 236
1.18995 -2.95751 0.89253 178 205 236
1.18887 -2.97247 0.89779 171 198 236
1.18011 -2.97753 0.90428 168 195 236
1.17751 -2.99059 0.90981 164 192 233
1.17701 -3.00647 0.91504 159 189 226
1.17586 -3.02159 0.92040 151 178 219
1.16367 -3.02211 0.92739 147 169 210
1.15930 -3.04982 0.93848 139 152 201
1.15260 -3.05766 0.94467 132 142 196
1.14441 -3.06346 0.95107 122 138 185
1.13848 -3.08940 0.96248 109 131 166
1.12565 -3.10020 0.95860 120 132 149
1.12656 -3.09000 0.96935 103 127 167
1.10778 -3.09806 0.98239 100 126 164
1.10274 -3.10816 0.98836 102 125 157
1.09014 -3.10753 0.99523 103 124 158
1.07742 -3.11824 0.99138 119 135 147
1.08444 -3.11666 1.00127 103 126 156
1.07171 -3.12738 0.99742 120 135 154
1.07820 -3.12504 1.00738 108 127 159
1.06547 -3.13576 1.00353 121 134 154
0.96134 -3.88732 1.31041 41 45 48
0.96128 -3.88090 1.29246 43 46 52
0.95421 -3.89009 1.29929 48 46 48
0.94714 -3.89928 1.30612 49 43 40
0.95201 -3.91525 1.32435 60 62 70
0.93414 -3.94978 1.34512 73 79 78
0.92670 -3.95832 1.35196 91 101 84
0.92001 -3.96840 1.35885 101 103 88
0.91616 -3.98436 1.36598 87 78 77
0.90940 -3.99434 1.37288 76 67 71
0.90231 -4.00365 1.37975 70 70 78
0.89787 -4.01856 1.38689 78 85 89
0.89053 -4.02738 1.39375 89 97 92
0.88362 -4.03712 1.40066 83 82 71
0.86930 -4.04918 1.39633 65 68 65
0.87080 -4.08357 1.42232 67 72 81
0.87074 -4.07707 1.40413 56 62 66
0.86357 -4.08638 1.41105 60 64 65
0.86666 -4.09952 1.42961 70 75 74
0.86207 -4.11455 1.43687 59 61 52
0.84762 -4.12671 1.43250 49 52 46
0.84646 -4.13050 1.45059 56 60 59
0.83921 -4.13331 1.43929 49 52 51
0.83203 -4.14265 1.44622 50 52 51
0.84347 -4.14929 1.45812 58 60 57
0.82900 -4.16147 1.45374 49 53 51
0.80618 -4.29945 1.52581 49 51 58
0.79147 -4.31184 1.52136 47 46 40
1.46035 -1.13976 0.16427 208 195 179
1.48383 -1.15531 0.15582 149 131 135
1.47844 -1.16102 0.16063 104 77 77
1.46919 -1.16881 0.15783 101 84 72
1.48885 -1.18762 0.16297 76 71 69
1.52230 -1.20740 0.15021 32 30 59
1.51280 -1.21539 0.14734 16 14 27
1.52727 -1.21707 0.15039 17 14 29
1.51773 -1.22510 0.14751 19 15 18
1.99638 -1.45489 -0.04080 113 105 92
1.99633 -1.44965 -0.05544 42 39 61
2.00301 -1.46723 -0.04073 132 122 94
1.99193 -1.47267 -0.03280 128 114 91
1.98031 -1.48246 -0.03631 98 82 91
1.99908 -1.48533 -0.03292 101 89 89
1.98741 -1.49516 -0.03645 95 80 84
2.84472 -2.08858 -0.32366 40 36 46
2.84465 -2.08145 -0.34361 53 48 44
2.82893 -2.10188 -0.32843 22 17 37
2.84842 -2.11829 -0.31657 25 26 48
2.84045 -2.12139 -0.32900 27 26 55
2.84958 -2.13292 -0.31270 21 13 44
2.84965 -2.14011 -0.29260 14 7 19
2.85428 -2.14934 -0.31028 15 9 24
2.85435 -2.15656 -0.29011 13 6 13
2.84633 -2.15967 -0.30261 13 7 9
2.83961 -2.22812 -0.27768 15 9 28
2.85572 -2.21455 -0.27281 14 9 15
2.84763 -2.21770 -0.28542 15 10 16
2.82528 -2.23531 -0.26737 26 21 53
2.81515 -2.24461 -0.25878 35 38 97
2.82306 -2.26330 -0.25747 45 51 115
2.65818 -2.27676 -0.16030 45 45 143
2.67384 -2.26358 -0.15556 37 47 148
2.66597 -2.26664 -0.16782 47 45 139
2.64251 -2.28995 -0.16503 54 65 164
2.65967 -2.30654 -0.15194 57 64 155
2.68038 -2.34748 -0.15098 68 66 158
2.66447 -2.36087 -0.15578 74 80 182
2.68885 -2.36711 -0.14970 76 87 186
2.66610 -2.36895 -0.13630 120 138 227
2.66809 -2.38496 -0.13247 152 159 238
2.64970 -2.38920 -0.12079 182 186 249
2.66936 -2.41567 -0.12370 152 142 241
2.67164 -2.43211 -0.11991 102 106 232
2.66769 -2.44492 -0.11372 132 129 233
2.66542 -2.45878 -0.10817 206 223 228
2.65642 -2.46862 -0.10005 197 182 151
2.61387 -2.45803 -0.07931 157 131 101
2.63720 -2.48753 -0.08336 105 98 92
2.62613 -2.49606 -0.07449 69 59 74
2.61156 -2.50239 -0.06431 100 95 90
2.59551 -2.50773 -0.05360 155 149 89
2.57948 -2.52122 -0.05845 171 165 102
2.59565 -2.52321 -0.04890 168 153 76
2.59732 -2.53974 -0.04474 99 88 85
2.58397 -2.56231 -0.03024 39 54 162
2.58404 -2.56959 -0.00987 38 56 168
2.57595 -2.57273 -0.02249 38 56 167
2.52916 -2.62038 0.01862 42 59 163
2.52909 -2.61311 -0.00171 43 56 175
2.52296 -2.63201 0.02571 38 45 118
2.52647 -2.65027 0.02937 30 27 82
2.51032 -2.66387 0.02449 21 18 72
2.63398 -3.16046 0.12630 113 95 58
2.63390 -3.15246 0.10390 122 102 63
2.63903 -3.18320 0.13047 52 37 12
2.62789 -3.19284 0.13974 23 11 4
2.61011 -3.20782 0.13436 14 8 9
2.53122 -3.20605 0.19835 11 11 35
2.53114 -3.19814 0.17623 18 12 13
2.49698 -3.21431 0.22022 188 206 211
2.47956 -3.22898 0.21495 209 215 220
2.48155 -3.23851 0.23640 206 213 211
2.46938 -3.24674 0.24581 206 203 166
2.47243 -3.26831 0.25075 207 187 80
2.45760 -3.27419 0.26093 209 182 26
2.44016 -3.28888 0.25566 204 178 19
2.44345 -3.28060 0.27089 209 180 28
2.42604 -3.29527 0.26563 197 172 16
2.41798 -3.27681 0.28409 197 171 27
2.40065 -3.29140 0.27885 182 166 22
2.39380 -3.29293 0.30271 195 168 41
2.37770 -3.29726 0.31313 199 178 85
2.37027 -3.30948 0.32110 203 204 202
2.36469 -3.32343 0.32855 205 209 199
2.34867 -3.32769 0.33890 166 160 144
2.36306 -3.36037 0.34088 88 65 50
2.35720 -3.37422 0.34847 21 5 4
2.33983 -3.38885 0.34322 9 6 7
2.21588 -3.29690 0.40431 12 8 16
2.21581 -3.28934 0.38316 8 8 7
2.20755 -3.30773 0.41235 22 25 39
2.16699 -3.28715 0.42888 61 62 58
2.15043 -3.30110 0.42387 90 88 71
1.79931 -2.97856 0.54099 73 75 74
1.79925 -2.97194 0.52247 49 53 55
1.57188 -3.12812 0.71548 168 145 136
1.57182 -3.12166 0.69741 172 150 132
1.55520 -3.12631 0.72434 187 177 168
1.54095 -3.13831 0.72003 194 194 194
1.22898 -2.90412 0.83974 138 163 213
1.22893 -2.89839 0.82372 118 141 168
1.22502 -2.91523 0.84541 133 152 205
1.21882 -2.92360 0.85149 124 145 198
1.21827 -2.93905 0.85657 118 142 192
1.21520 -2.95141 0.86213 114 138 188
1.20244 -2.96215 0.85827 112 133 153
1.20591 -2.95593 0.86876 113 138 181
1.19562 -2.95911 0.87555 110 134 172
1.18886 -2.96677 0.88173 107 132 169
1.18283 -2.97538 0.88779 106 131 166
1.17467 -2.98122 0.89419 106 126 169
1.17218 -2.99445 0.89969 104 127 167
1.17129 -3.00987 0.90495 103 129 163
1.16466 -3.01775 0.91112 100 127 162
1.15916 -3.02713 0.91713 103 119 157
1.15461 -3.03780 0.92299 101 98 150
1.15237 -3.05164 0.92853 106 116 153
1.14790 -3.06251 0.93440 113 121 154
1.14270 -3.07240 0.94040 110 124 150
1.13495 -3.07882 0.94675 115 124 152
1.13190 -3.09171 0.95245 117 126 150
1.10080 -3.09974 0.97248 114 129 149
1.08805 -3.11048 0.96862 118 88 108
1.09498 -3.10874 0.97854 116 127 143
1.08402 -3.11040 0.98523 117 128 145
0.94400 -3.93975 1.32039 54 57 61
0.92970 -3.95179 1.31607 55 58 62
0.93833 -3.95193 1.32735 59 55 64
0.92402 -3.96397 1.32302 61 65 61
0.93037 -3.95948 1.33417 64 64 60
0.91607 -3.97152 1.32985 62 66 62
0.92419 -3.97064 1.34110 73 80 62
0.89157 -3.99896 1.36825 57 55 58
0.89012 -4.02017 1.37562 64 67 67
0.88443 -4.03250 1.38264 73 80 82
0.87010 -4.04457 1.37831 68 69 75
0.86864 -4.12265 1.41939 60 64 60
0.85414 -4.13486 1.41501 45 49 38
0.86275 -4.13498 1.42652 54 57 48
0.84824 -4.14720 1.42214 45 49 46
1.45852 -1.13503 0.15355 220 207 195
1.46765 -1.12734 0.15631 220 205 196
1.46307 -1.12912 0.14916 222 206 195
1.45848 -1.13090 0.14201 223 206 195
1.45129 -1.14002 0.15918 186 174 174
1.46104 -1.15085 0.15696 121 100 118
1.45186 -1.15858 0.15419 98 78 77
1.47127 -1.16195 0.15455 99 75 70
1.46203 -1.16973 0.15176 100 84 76
1.47205 -1.17744 0.15885 92 83 75
1.48114 -1.18836 0.15703 61 58 61
1.51224 -1.20734 0.14518 23 18 44
1.50277 -1.21532 0.14232 16 13 23
1.96845 -1.44855 -0.03995 86 77 80
1.96839 -1.44335 -0.05448 41 37 62
1.98839 -1.46606 -0.04592 116 109 90
1.97679 -1.47583 -0.04942 102 88 88
1.98218 -1.47339 -0.04014 110 97 90
1.97058 -1.48316 -0.04365 97 82 89
2.82463 -2.12783 -0.31805 29 26 61
2.83493 -2.14694 -0.31805 19 14 34
2.83674 -2.16201 -0.31445 12 10 18
2.83681 -2.16922 -0.29429 13 6 12
2.82879 -2.17234 -0.30678 13 6 17
2.82078 -2.17545 -0.31928 14 8 22
2.83492 -2.21850 -0.29613 17 12 16
2.85101 -2.20495 -0.29126 13 7 15
2.84293 -2.20809 -0.30386 15 9 11
2.83484 -2.21123 -0.31646 16 9 13
2.82370 -2.22727 -0.28707 23 17 50
2.81453 -2.23707 -0.27887 42 41 81
2.80274 -2.24550 -0.26959 41 47 110
2.81174 -2.26477 -0.26881 40 52 118
2.78505 -2.26538 -0.25347 40 47 123
2.77130 -2.27270 -0.24342 41 41 126
2.77137 -2.27994 -0.22317 44 47 134
2.74955 -2.27570 -0.23015 45 45 123
2.74962 -2.28291 -0.20998 47 48 141
2.73358 -2.28914 -0.23498 75 29 85
2.72600 -2.27762 -0.21620 53 48 122
2.72607 -2.28479 -0.19612 46 47 138
2.71010 -2.29100 -0.22100 101 29 70
2.70381 -2.28014 -0.20283 60 45 117
2.68980 -2.28703 -0.19276 67 46 120
2.66174 -2.32984 -0.16373 56 62 156
2.66167 -2.32269 -0.18372 44 56 155
2.65380 -2.33292 -0.17612 51 61 161
2.67598 -2.35262 -0.16484 79 84 164
2.66006 -2.36602 -0.16965 57 70 175
2.68055 -2.38498 -0.15753 72 79 187
2.67903 -2.39908 -0.15235 61 66 191
2.65261 -2.39868 -0.13748 82 76 211
2.67755 -2.42837 -0.14254 102 105 232
2.66743 -2.43754 -0.13399 116 126 235
2.65022 -2.44245 -0.12272 119 120 204
2.65978 -2.46341 -0.12173 177 166 185
2.62207 -2.45584 -0.10264 160 131 122
2.63313 -2.47782 -0.10219 115 95 96
2.61705 -2.49136 -0.10705 34 33 93
2.63436 -2.49390 -0.09796 53 54 81
2.62338 -2.50251 -0.08910 23 31 94
2.62272 -2.51752 -0.08412 57 68 118
2.59300 -2.51434 -0.06823 125 131 115
2.58370 -2.53936 -0.05529 158 143 93
2.58918 -2.55842 -0.05256 87 65 97
2.57304 -2.57202 -0.05744 68 48 112
2.57859 -2.56721 -0.04386 46 43 137
2.56246 -2.58079 -0.04874 54 47 139
2.51444 -2.61904 0.00843 47 58 166
2.51436 -2.61179 -0.01186 40 57 173
2.50637 -2.62217 -0.00414 42 62 172
2.50656 -2.62950 0.01610 39 46 129
2.51224 -2.64924 0.01892 29 28 91
2.49612 -2.66281 0.01405 21 18 69
2.63732 -3.17384 0.10851 119 96 52
2.63725 -3.16581 0.08604 124 101 64
2.63788 -3.19302 0.11407 59 44 12
2.62849 -3.20414 0.12280 25 12 9
2.61066 -3.21916 0.11741 16 9 10
2.53457 -3.21978 0.18090 12 12 35
2.53449 -3.21184 0.15870 23 18 15
2.51134 -3.21877 0.19378 92 111 132
2.49740 -3.22560 0.20379 186 204 210
2.47993 -3.24031 0.19851 209 219 222
2.48261 -3.25047 0.21980 208 214 213
2.47442 -3.26223 0.22805 207 205 168
2.46478 -3.27271 0.23673 203 187 77
2.45197 -3.28038 0.24635 202 180 17
2.43451 -3.29508 0.24107 192 164 18
2.38975 -3.30053 0.28784 190 170 37
2.38967 -3.29271 0.26596 171 153 17
2.37336 -3.30459 0.29839 203 185 81
2.37598 -3.32612 0.30349 208 210 203
2.36735 -3.33733 0.31182 206 212 206
2.35504 -3.34510 0.32119 162 161 149
2.36584 -3.37458 0.32408 97 72 53
2.35051 -3.37954 0.33430 24 6 5
2.33313 -3.39418 0.32905 7 7 9
2.21748 -3.30983 0.38848 13 11 19
2.21740 -3.30225 0.36727 8 9 7
2.20912 -3.32070 0.39656 27 26 43
2.19232 -3.33484 0.39148 65 66 60
1.79913 -2.98858 0.52763 74 79 70
1.79906 -2.98194 0.50906 48 48 66
1.83184 -3.03826 0.52427 132 131 111
1.81692 -3.05083 0.51976 155 143 126
1.56987 -3.13688 0.70318 169 143 135
1.56981 -3.13041 0.68506 173 148 128
1.55600 -3.13833 0.71150 190 184 169
1.54414 -3.15961 0.72474 158 164 192
1.54421 -3.16608 0.74282 157 172 190
1.53702 -3.16887 0.73162 148 166 192
1.52983 -3.17166 0.72042 142 159 187
1.22701 -2.91202 0.82898 110 138 175
1.22695 -2.90628 0.81292 127 147 168
1.22062 -2.91450 0.81903 122 141 165
1.21430 -2.92272 0.82514 118 131 157
1.22322 -2.92340 0.83462 105 130 169
1.22215 -2.93823 0.83976 106 129 162
1.21716 -2.94819 0.84564 108 128 154
1.20860 -2.95366 0.85217 110 129 150
1.18994 -2.96250 0.86548 112 130 150
1.18528 -2.97288 0.87130 115 125 140
1.17761 -2.97938 0.87764 113 115 129
1.17127 -2.98759 0.88376 115 111 125
1.16685 -2.99834 0.88955 115 109 128
1.15412 -3.00906 0.88570 113 66 76
1.16743 -3.01572 0.89455 113 112 137
1.16039 -3.02308 0.90080 117 124 144
1.15638 -3.03449 0.90657 118 110 134
1.14360 -3.04525 0.90270 118 47 71
1.15974 -3.05589 0.91121 108 38 98
1.14580 -3.05394 0.91853 119 108 142
1.13951 -3.06234 0.92467 126 128 149
1.13479 -3.07289 0.93058 122 118 132
1.12699 -3.07920 0.93694 119 111 126
1.11249 -3.09329 0.94948 125 132 140
1.10297 -3.09712 0.95606 117 114 122
1.09797 -3.10731 0.96201 117 97 114
1.08334 -3.12108 0.97454 119 89 112
0.86485 -3.60058 1.24536 83 109 133
0.86370 -3.61956 1.25183 72 83 88
0.86376 -3.62556 1.26861 69 75 77
0.85709 -3.62815 1.25821 62 61 59
0.85042 -3.63074 1.24781 55 62 53
0.91257 -3.98827 1.33696 63 61 66
0.91251 -3.98180 1.31886 57 59 61
0.90538 -3.99106 1.32574 57 58 60
0.89825 -4.00033 1.33263 57 58 59
0.88484 -4.02703 1.36457 56 53 61
0.88478 -4.02056 1.34646 57 53 53
0.87764 -4.02983 1.35335 53 53 58
0.87051 -4.03910 1.36024 54 58 68
0.88151 -4.04446 1.37180 63 65 77
0.86715 -4.05656 1.36745 59 61 68
0.87165 -4.14828 1.40918 50 52 44
0.87158 -4.14169 1.39075 54 48 50
0.86432 -4.15113 1.39776 46 45 40
0.85706 -4.16056 1.40477 43 48 36
1.44668 -1.13434 0.14979 209 200 188
1.45235 -1.14373 0.14940 156 145 150
1.45879 -1.15346 0.14868 104 82 96
1.44960 -1.16120 0.14590 98 83 81
1.47120 -1.18061 0.14982 84 75 74
1.49148 -1.19559 0.14279 44 39 53
1.48208 -1.20350 0.13995 17 12 26
1.50349 -1.20774 0.13961 20 13 32
1.49403 -1.21570 0.13675 17 13 17
1.97088 -1.46372 -0.04972 97 93 78
2.80669 -2.11207 -0.33046 29 19 63
2.81453 -2.10187 -0.33804 20 14 36
2.80662 -2.10495 -0.35038 16 10 24
2.79993 -2.12279 -0.32335 48 57 63
2.81848 -2.14591 -0.32693 35 22 42
2.82556 -2.16357 -0.32562 17 12 32
2.83225 -2.22439 -0.31098 20 13 28
2.81613 -2.23796 -0.31585 33 33 59
2.81928 -2.23229 -0.30118 31 30 55
2.80661 -2.24028 -0.29151 31 38 68
2.79196 -2.24722 -0.28104 26 31 71
2.77591 -2.26073 -0.28589 18 16 45
2.77366 -2.25219 -0.26908 24 31 73
2.75766 -2.26566 -0.27392 25 14 45
2.74873 -2.25357 -0.25442 25 27 76
2.72835 -2.25723 -0.24167 33 20 84
2.72446 -2.26965 -0.23568 51 32 93
2.68208 -2.30481 -0.20080 74 68 154
2.66624 -2.31814 -0.20559 48 64 169
2.67934 -2.40709 -0.16820 34 48 162
2.67192 -2.41783 -0.16071 25 43 171
2.66881 -2.43113 -0.15490 22 47 182
2.67149 -2.44792 -0.15134 56 67 177
2.63988 -2.44422 -0.13440 107 97 136
2.62482 -2.45032 -0.12395 131 112 102
2.65893 -2.48630 -0.13251 117 100 66
2.63424 -2.48659 -0.11832 66 60 79
2.61472 -2.50530 -0.10149 39 35 113
2.60995 -2.51776 -0.09499 43 47 127
2.59546 -2.52411 -0.08479 95 86 113
2.57936 -2.53767 -0.08965 142 111 85
2.59231 -2.53762 -0.07889 144 133 93
2.57619 -2.55119 -0.08376 148 116 72
2.58619 -2.54926 -0.07186 161 131 84
2.49665 -2.63138 0.00420 37 50 141
2.49658 -2.62413 -0.01607 45 64 176
2.50214 -2.65101 0.00702 28 29 96
2.63831 -3.18538 0.09137 123 99 48
2.63823 -3.17732 0.06883 122 102 61
2.65454 -3.21748 0.09183 66 52 13
2.63069 -3.21681 0.10526 30 14 14
2.61280 -3.23188 0.09985 20 12 9
2.54502 -3.23963 0.16112 15 15 34
2.54494 -3.23164 0.13878 30 25 20
2.50470 -3.22403 0.17942 94 114 132
2.50195 -3.24050 0.18599 183 204 209
2.48441 -3.25527 0.18069 212 224 223
2.48585 -3.26439 0.20243 209 215 214
2.47465 -3.27358 0.21161 204 202 172
2.46052 -3.28013 0.22168 194 177 81
2.43164 -3.27347 0.23615 188 164 16
2.41424 -3.28812 0.23090 197 166 10
2.38579 -3.30824 0.27289 176 158 38
2.38571 -3.30041 0.25098 177 153 26
2.38640 -3.32796 0.27853 203 193 109
2.37214 -3.33402 0.28851 210 211 200
2.36350 -3.34525 0.29685 203 206 197
2.35873 -3.36012 0.30409 162 158 148
2.36979 -3.38998 0.30684 111 91 74
2.35657 -3.39700 0.31652 29 9 6
2.33910 -3.41170 0.31124 8 8 10
2.23308 -3.33642 0.36868 16 14 20
2.23300 -3.32877 0.34729 7 8 8
2.22465 -3.34737 0.37681 32 30 44
2.20773 -3.36162 0.37170 64 69 61
1.80997 -3.00969 0.51125 74 78 91
1.80990 -3.00301 0.49255 49 47 67
1.57493 -3.15388 0.68926 170 146 132
1.57487 -3.14737 0.67105 170 148 127
1.55555 -3.14896 0.69884 195 190 174
1.54706 -3.15665 0.70602 192 191 187
1.54241 -3.16885 0.71238 157 163 185
1.52807 -3.18092 0.70804 138 154 177
1.21538 -2.94026 0.82984 117 125 149
1.21180 -2.95201 0.83545 117 124 145
1.20209 -2.95602 0.84221 119 127 147
1.19351 -2.96140 0.84875 120 134 153
1.18492 -2.96674 0.85527 118 119 134
1.17956 -2.97624 0.86122 116 94 107
1.17331 -2.98458 0.86732 114 88 102
1.16942 -2.99603 0.87302 119 98 107
1.16634 -3.00859 0.87859 118 87 97
1.16354 -3.03838 0.88922 118 83 89
1.15710 -3.04088 0.87918 121 54 52
1.15147 -3.03901 0.89631 125 108 125
1.13869 -3.05551 0.90862 125 121 131
1.13306 -3.06481 0.91465 122 101 128
1.12027 -3.07558 0.91078 128 103 118
1.12660 -3.07295 0.92082 119 105 125
1.12259 -3.08451 0.92661 116 92 108
1.11968 -3.09765 0.93226 112 49 79
1.10647 -3.09636 0.93941 119 100 108
1.10090 -3.10576 0.94545 113 72 101
1.08832 -3.10519 0.95246 127 127 131
1.08287 -3.11473 0.95847 130 139 139
1.07011 -3.12548 0.95461 132 120 138
1.07073 -3.13206 0.97066 131 140 155
1.05797 -3.14281 0.96680 136 148 160
0.87559 -3.61510 1.22869 88 120 147
0.88891 -3.60388 1.23272 92 122 152
0.88222 -3.60648 1.22229 91 121 155
0.87553 -3.60908 1.21186 92 122 155
0.87025 -3.62619 1.23511 75 95 126
0.86333 -3.63426 1.24151 61 73 81
0.85000 -3.64549 1.23748 40 49 47
1.43812 -1.12734 0.14232 222 206 193
1.44719 -1.11971 0.14506 220 202 192
1.44263 -1.12148 0.13796 221 203 193
1.43808 -1.12325 0.13086 222 206 192
1.43006 -1.13200 0.14836 193 179 175
1.42427 -1.13741 0.15331 130 108 123
1.41522 -1.14503 0.15057 95 81 76
1.45724 -1.17147 0.14460 97 84 77
1.46645 -1.18240 0.14259 71 64 66
1.49248 -1.19950 0.13277 28 21 39
1.48307 -1.20742 0.12992 15 13 21
1.94556 -1.45825 -0.04987 81 72 73
1.94551 -1.45307 -0.06437 45 37 68
1.95835 -1.47306 -0.05277 96 85 82
1.95260 -1.48053 -0.04722 96 83 85
1.94680 -1.48278 -0.05626 96 83 87
2.78873 -2.13831 -0.33007 61 54 66
2.81901 -2.16741 -0.33872 28 17 34
2.81972 -2.18205 -0.33473 16 12 28
2.81979 -2.18927 -0.31453 14 7 14
2.81176 -2.19239 -0.32705 15 9 16
2.80373 -2.19551 -0.33957 16 17 30
2.82195 -2.22641 -0.32267 18 15 44
2.82188 -2.21914 -0.34302 15 16 38
2.81386 -2.22956 -0.33528 16 19 47
2.80584 -2.23998 -0.32754 30 31 47
2.79749 -2.24288 -0.30366 21 30 42
2.78942 -2.24602 -0.31624 31 33 27
2.77891 -2.24775 -0.29152 18 20 33
2.72762 -2.26420 -0.25709 42 21 72
2.69185 -2.27395 -0.23360 129 39 61
2.67690 -2.28030 -0.22310 152 54 63
2.67036 -2.29123 -0.21605 69 39 118
2.66338 -2.30193 -0.20882 49 57 157
2.66418 -2.43632 -0.16887 27 46 142
2.64806 -2.44990 -0.17375 74 48 79
2.65276 -2.44472 -0.15979 50 36 92
2.65498 -2.46130 -0.15608 100 80 85
2.65390 -2.47597 -0.15105 120 99 72
2.63767 -2.48144 -0.14007 73 72 68
2.62152 -2.49504 -0.14495 45 37 72
2.62573 -2.48948 -0.13079 50 41 70
2.61223 -2.49652 -0.12091 58 45 79
2.60001 -2.50431 -0.11155 82 63 81
2.59128 -2.51426 -0.10354 102 75 97
2.57520 -2.52779 -0.10840 157 139 98
2.58870 -2.52809 -0.09790 133 107 93
2.57260 -2.54165 -0.10277 162 137 88
2.57229 -2.56429 -0.07758 142 98 60
2.57222 -2.55700 -0.09798 160 140 75
2.56153 -2.57295 -0.06879 119 67 70
2.55350 -2.58338 -0.06104 103 59 88
2.49179 -2.63669 -0.00954 38 54 148
2.49171 -2.62944 -0.02983 42 62 171
2.50128 -2.65914 -0.00825 28 35 100
2.49284 -2.66931 -0.00034 20 22 71
2.49292 -2.67660 0.02006 20 18 61
2.48481 -2.67975 0.00742 18 18 66
2.47670 -2.68290 -0.00522 21 18 72
2.63797 -3.19590 0.07457 123 102 41
2.63789 -3.18782 0.05197 123 99 67
2.65576 -3.22941 0.07441 69 61 12
2.63878 -3.23443 0.08568 34 17 13
2.62080 -3.24957 0.08025 26 17 11
2.58763 -3.24881 0.11941 21 19 16
2.60549 -3.23378 0.12480 14 11 11
2.59652 -3.23727 0.11083 18 16 10
2.59660 -3.24533 0.13338 16 14 13
2.55299 -3.25748 0.14193 20 20 35
2.49170 -3.22383 0.16704 93 111 129
2.49469 -3.24527 0.17177 182 204 208
2.47714 -3.26005 0.16646 213 223 224
2.48141 -3.27166 0.18733 212 220 215
2.47359 -3.28384 0.19549 206 205 174
2.44651 -3.27890 0.20958 193 173 80
2.42892 -3.28225 0.22069 188 158 9
2.38116 -3.31537 0.25810 179 161 71
2.38108 -3.30753 0.23616 176 145 39
2.37569 -3.32954 0.26550 206 209 174
2.36776 -3.34144 0.27364 205 206 184
2.35801 -3.35166 0.28232 196 196 180
2.36041 -3.37332 0.28745 170 162 143
2.37174 -3.40358 0.29004 135 117 92
2.36064 -3.41267 0.29915 38 14 7
2.34310 -3.42743 0.29385 16 11 16
2.26377 -3.37788 0.34437 16 16 22
2.26370 -3.37014 0.32271 10 8 9
2.24689 -3.38078 0.35495 31 33 43
2.22979 -3.39518 0.34978 64 70 61
1.81901 -3.02914 0.49517 75 81 92
1.81894 -3.02242 0.47636 46 46 51
1.80412 -3.04168 0.49067 135 133 122
1.57634 -3.16674 0.67603 171 151 134
1.57628 -3.16021 0.65776 170 147 133
1.55813 -3.16320 0.68544 197 193 177
1.55139 -3.17302 0.69226 189 188 185
1.54323 -3.18115 0.69940 154 160 175
1.52884 -3.19326 0.69505 141 155 172
1.22976 -2.95261 0.81087 120 105 124
1.23615 -2.94430 0.80470 126 133 157
1.22076 -2.95762 0.81755 118 90 102
1.21269 -2.96379 0.82404 117 87 106
1.19987 -2.97458 0.82017 125 112 108
1.20123 -2.96559 0.83117 121 98 117
1.19144 -2.96946 0.83796 121 114 138
1.18297 -2.97497 0.84449 117 73 126
1.17328 -2.97887 0.85123 123 100 126
1.17079 -2.99215 0.85665 130 139 148
1.15804 -3.00289 0.85280 138 151 165
1.16627 -3.00281 0.86246 134 147 151
1.16155 -3.01323 0.86831 134 144 138
1.15726 -3.02426 0.87409 126 108 92
1.14961 -3.04770 0.88553 122 88 103
1.14314 -3.05586 0.89171 123 70 68
1.13031 -3.06666 0.88783 122 83 88
1.13668 -3.06406 0.89788 130 127 134
1.13102 -3.07335 0.90393 128 99 111
1.11706 -3.08828 0.91644 124 89 96
1.11183 -3.09819 0.92243 122 64 80
1.10369 -3.10400 0.92886 123 80 90
1.09598 -3.11040 0.93521 122 85 94
1.08124 -3.12410 0.94780 132 129 132
1.06908 -3.14149 0.96002 135 142 155
1.05628 -3.15226 0.95615 141 153 158
0.87411 -3.62764 1.21826 87 113 135
0.86938 -3.63998 1.22468 65 75 94
0.85707 -3.63770 1.23108 44 52 64
0.84373 -3.64893 1.22705 45 48 51
0.87740 -4.14809 1.37284 72 65 57
0.89204 -4.13577 1.37726 60 60 62
0.88469 -4.13862 1.36580 65 65 63
0.88475 -4.14523 1.38430 61 57 58
0.87005 -4.15095 1.36138 74 72 64
0.87234 -4.18831 1.38784 51 45 44
0.86501 -4.19783 1.39491 43 49 35
0.85762 -4.20070 1.38339 49 51 42
0.80068 -4.26040 1.45071 62 65 63
0.81535 -4.24805 1.45514 55 52 58
0.80798 -4.25091 1.44366 50 54 49
0.80805 -4.25754 1.46219 56 55 59
0.80075 -4.26702 1.46924 57 58 59
0.79613 -4.27646 1.45815 62 66 56
0.79619 -4.28310 1.47672 53 55 53
0.78881 -4.28597 1.46522 53 54 39
0.78143 -4.28884 1.45371 59 56 35
1.42502 -1.12621 0.13930 216 202 186
1.42498 -1.12213 0.12788 222 207 193
1.42381 -1.13318 0.14208 171 156 152
1.41476 -1.14080 0.13934 100 86 81
1.44775 -1.17155 0.13966 88 82 74
1.44771 -1.16738 0.12802 96 87 78
1.46290 -1.18461 0.13479 51 52 59
1.48333 -1.19973 0.12748 19 14 27
1.47393 -1.20764 0.12463 16 15 19
1.92454 -1.45443 -0.05183 65 54 71
1.92449 -1.44927 -0.06625 46 40 63
1.93189 -1.46703 -0.05233 90 82 75
1.92043 -1.47669 -0.05580 96 82 87
2.77407 -2.08231 -0.35613 22 14 30
2.78969 -2.06916 -0.35141 45 40 33
2.78184 -2.07221 -0.36364 40 34 32
2.76622 -2.08536 -0.36836 19 11 27
2.76588 -2.10610 -0.34431 38 28 60
2.79082 -2.13224 -0.35095 86 90 101
2.77935 -2.14068 -0.34180 85 81 87
2.81051 -2.17028 -0.35101 47 45 44
2.81505 -2.18685 -0.34870 22 20 46
2.79905 -2.20033 -0.35353 19 16 26
2.77022 -2.25054 -0.30379 34 18 32
2.77015 -2.24330 -0.32403 67 35 20
2.76217 -2.25366 -0.31633 86 34 27
2.75361 -2.25633 -0.29246 44 11 42
2.73496 -2.26097 -0.28029 63 27 39
2.72226 -2.26872 -0.27064 97 45 36
2.70388 -2.27335 -0.25863 130 56 46
2.69509 -2.28312 -0.25063 161 87 91
2.68347 -2.29134 -0.24146 127 79 112
2.67337 -2.30037 -0.23293 44 37 141
2.65754 -2.31370 -0.23772 25 49 156
2.66659 -2.31122 -0.22578 30 46 156
2.65075 -2.32456 -0.23056 33 52 160
2.63926 -2.45985 -0.16569 102 74 77
2.63919 -2.45258 -0.18605 102 72 73
2.63117 -2.46300 -0.17831 101 80 77
2.62935 -2.46913 -0.15720 97 76 79
2.61324 -2.48269 -0.16206 58 47 87
2.61603 -2.47629 -0.14736 53 47 83
2.59446 -2.49364 -0.12972 82 60 62
2.58556 -2.50345 -0.12164 123 98 75
2.59207 -2.52299 -0.11959 155 132 95
2.55858 -2.56379 -0.08806 159 134 56
2.55048 -2.56694 -0.10068 148 133 90
2.54581 -2.57111 -0.07850 155 119 50
2.54008 -2.58302 -0.07163 140 100 46
2.54015 -2.59029 -0.05129 66 50 126
2.51340 -2.61250 -0.04742 65 52 132
2.52148 -2.60936 -0.03483 36 53 163
2.50532 -2.61564 -0.06002 87 61 93
2.51347 -2.61976 -0.02710 41 59 172
2.48902 -2.64347 -0.02409 37 54 148
2.48895 -2.63621 -0.04442 52 59 172
2.49180 -2.66134 -0.02038 29 39 103
2.63267 -3.20241 0.05933 127 105 62
2.63259 -3.19432 0.03672 123 98 66
2.66269 -3.24610 0.05499 74 66 21
2.64616 -3.25157 0.06618 37 18 8
2.62809 -3.26678 0.06072 27 26 13
2.60884 -3.25867 0.08988 23 21 15
2.58929 -3.26129 0.10197 28 26 21
2.57580 -3.26898 0.11206 40 33 28
2.55131 -3.26716 0.12568 28 26 40
2.49112 -3.23433 0.15072 91 108 128
2.49593 -3.25744 0.15482 181 201 209
2.47833 -3.27227 0.14950 212 223 231
2.47734 -3.27928 0.17207 213 218 216
2.46553 -3.28795 0.18149 209 207 180
2.44227 -3.28637 0.19447 201 177 83
2.42443 -3.28949 0.20572 198 164 3
2.40698 -3.30419 0.20044 210 182 7
2.42109 -3.30562 0.21246 206 177 7
2.42116 -3.31351 0.23455 197 165 17
2.40360 -3.32034 0.20717 205 176 24
2.37412 -3.32031 0.24400 174 149 83
2.37405 -3.31246 0.22205 181 147 44
2.37341 -3.33891 0.24995 200 207 186
2.35600 -3.35357 0.24469 173 167 158
2.36452 -3.34996 0.25839 185 179 160
2.35444 -3.35990 0.26718 186 190 179
2.36415 -3.38854 0.27009 161 150 127
2.36155 -3.40569 0.27671 139 129 104
2.35553 -3.41964 0.28434 45 26 9
2.28456 -3.40996 0.32251 19 15 26
2.28448 -3.40214 0.30064 12 11 8
1.82951 -3.05019 0.47852 77 81 87
1.82944 -3.04342 0.45958 46 44 52
1.81451 -3.06281 0.47399 137 133 125
1.57086 -3.17164 0.66430 173 157 146
1.55406 -3.16973 0.67345 197 197 183
1.54814 -3.18054 0.68009 185 183 184
1.53813 -3.18650 0.68765 154 157 168
1.52373 -3.19862 0.68330 140 155 175
1.21973 -2.93432 0.79669 126 120 135
1.23251 -2.92356 0.80055 133 152 171
1.22609 -2.92605 0.79055 133 157 168
1.21967 -2.92855 0.78054 136 153 168
1.21331 -2.93682 0.78668 133 129 138
1.21248 -2.95781 0.80788 126 88 86
1.20494 -2.96462 0.81427 126 104 99
1.18937 -2.97756 0.82713 124 96 114
1.17939 -2.98113 0.83397 118 59 99
1.17518 -2.99220 0.83970 129 134 157
1.16939 -3.00122 0.84574 136 153 167
1.16027 -3.02258 0.85737 136 145 154
1.15384 -3.02508 0.84734 139 135 150
1.15670 -3.03463 0.86303 132 120 111
1.15066 -3.04339 0.86913 130 92 81
1.14745 -3.05601 0.87474 127 81 89
1.13858 -3.06095 0.88134 129 88 78
1.11886 -3.08508 0.89994 132 115 116
1.10914 -3.08870 0.90664 129 70 82
1.10442 -3.09932 0.91254 130 84 103
1.10427 -3.11647 0.91773 130 116 129
1.08905 -3.11219 0.92526 123 68 77
1.08012 -3.11679 0.93180 127 95 116
1.07264 -3.12345 0.93811 124 99 130
1.07154 -3.13938 0.94349 132 132 150
1.05873 -3.15017 0.93961 145 156 156
0.88121 -3.63525 1.20129 93 121 153
0.89463 -3.62395 1.20535 94 123 162
0.88789 -3.62657 1.19484 95 122 160
0.88115 -3.62919 1.18434 94 122 156
0.87416 -3.64322 1.20775 82 102 128
0.86628 -3.64958 1.21420 63 65 78
0.85288 -3.66087 1.21014 61 56 57
0.85846 -3.65602 1.22064 50 47 58
0.84507 -3.66731 1.21659 56 52 51
0.88964 -4.09244 1.33262 49 53 41
0.90420 -4.08018 1.33702 52 52 50
0.89689 -4.08302 1.32562 47 49 38
0.89695 -4.08960 1.34402 52 54 53
0.88971 -4.09902 1.35101 57 59 64
0.88806 -4.11417 1.34001 64 65 63
0.88813 -4.12077 1.35846 61 62 68
0.88268 -4.12776 1.34717 70 70 73
0.87737 -4.14155 1.35435 70 69 66
0.86273 -4.15387 1.34992 71 72 71
0.87145 -4.17982 1.36917 71 67 63
0.86407 -4.18269 1.35765 66 67 69
0.87070 -4.20411 1.37684 59 57 57
0.85593 -4.21655 1.37238 49 50 44
0.80561 -4.26563 1.43282 57 60 51
0.82032 -4.25324 1.43726 51 55 46
0.81293 -4.25612 1.42575 55 54 46
0.80555 -4.25899 1.41423 54 50 42
0.79090 -4.27802 1.42837 78 76 71
0.79313 -4.26281 1.43920 76 80 68
0.79353 -4.29085 1.44732 71 72 64
1.40935 -1.12417 0.13758 201 187 179
1.40396 -1.12967 0.14234 145 130 129
1.44464 -1.17389 0.13172 75 73 70
1.46458 -1.18872 0.12449 32 34 52
1.45526 -1.19657 0.12167 14 13 26
1.47125 -1.19888 0.12361 15 13 25
1.46188 -1.20677 0.12078 16 15 20
1.91672 -1.45582 -0.05980 56 48 70
1.91667 -1.45067 -0.07421 46 43 58
1.91875 -1.46630 -0.05789 83 73 75
2.77508 -2.07577 -0.37635 35 29 29
2.79070 -2.06261 -0.37163 57 47 43
2.78286 -2.06566 -0.38386 53 47 41
2.75945 -2.08893 -0.38107 17 12 21
2.74971 -2.09125 -0.35702 9 8 32
2.77505 -2.11746 -0.36403 62 60 76
2.75932 -2.13070 -0.36879 89 91 110
2.78406 -2.13590 -0.36383 89 92 113
2.76826 -2.14920 -0.36861 85 88 101
2.77776 -2.14690 -0.35692 87 88 97
2.77369 -2.15902 -0.35097 72 73 70
2.81652 -2.19476 -0.36535 37 30 48
2.75297 -2.26337 -0.30811 97 27 27
2.73233 -2.26695 -0.29504 110 46 29
2.71768 -2.27366 -0.28454 134 77 67
2.70175 -2.28707 -0.28935 149 154 167
2.69742 -2.27727 -0.27169 150 123 112
2.69974 -2.29313 -0.26835 157 148 146
2.67680 -2.29515 -0.25441 61 71 157
2.66095 -2.30849 -0.25920 25 42 157
2.67917 -2.31110 -0.25108 25 39 152
2.66327 -2.32448 -0.25588 29 50 161
2.62379 -2.47382 -0.17082 71 60 87
2.59437 -2.48638 -0.14999 56 48 74
2.57597 -2.49026 -0.13814 103 87 57
2.59251 -2.51603 -0.14016 125 111 92
2.58610 -2.52749 -0.13305 148 135 112
2.57404 -2.53535 -0.12371 127 114 123
2.56704 -2.54642 -0.11636 134 129 101
2.55910 -2.55690 -0.10865 132 121 94
2.54236 -2.57729 -0.09289 163 138 75
2.53603 -2.58883 -0.08580 163 127 59
2.51988 -2.59385 -0.07492 137 96 40
2.51970 -2.60950 -0.07020 122 81 43
2.47777 -2.64443 -0.03549 43 55 153
2.47781 -2.66040 -0.03079 33 41 106
2.48292 -2.68001 -0.02798 25 27 74
2.46674 -2.69363 -0.03287 20 20 67
2.60717 -3.19232 0.05092 129 105 74
2.67002 -3.26324 0.03528 78 70 37
2.65563 -3.27055 0.04581 39 24 9
2.63747 -3.28584 0.04032 30 33 22
2.61996 -3.27919 0.06911 30 30 23
2.60143 -3.28276 0.08096 40 36 35
2.59022 -3.29250 0.09035 54 46 38
2.56606 -3.29105 0.10398 42 43 48
2.50668 -3.25888 0.12905 95 110 127
2.50171 -3.27364 0.13630 179 198 211
2.48269 -3.29526 0.15375 214 218 219
2.47381 -3.29871 0.13991 215 217 220
2.47658 -3.30908 0.16138 212 210 185
2.44304 -3.29836 0.17773 210 191 88
2.41888 -3.29580 0.19104 209 178 2
2.36599 -3.32425 0.23022 176 151 80
2.34862 -3.33888 0.22496 199 200 173
2.35925 -3.33727 0.23798 196 201 180
2.34187 -3.35190 0.23273 169 167 164
2.34750 -3.36500 0.25300 185 194 185
2.35273 -3.38947 0.25718 174 157 125
2.34266 -3.39947 0.26600 148 140 113
2.34993 -3.42615 0.26964 55 40 13
2.32311 -3.42002 0.28344 23 18 7
2.30564 -3.43473 0.27816 19 13 12
2.30262 -3.43958 0.30114 23 15 27
1.57263 -3.16725 0.64558 169 143 134
1.58712 -3.15506 0.64996 169 148 128
1.57984 -3.15789 0.63862 172 146 127
1.57257 -3.16071 0.62728 169 147 127
1.56316 -3.17396 0.65308 176 164 152
1.55586 -3.18320 0.66005 198 199 192
1.54699 -3.19058 0.66739 182 181 185
1.53445 -3.19355 0.67557 152 157 170
1.52002 -3.20569 0.67121 137 156 177
1.21372 -2.95365 0.79141 130 115 121
1.20654 -2.96093 0.79774 131 117 118
1.19839 -2.96697 0.80426 126 98 84
1.18711 -2.96894 0.81141 125 95 77
1.18246 -2.97941 0.81721 129 103 97
1.17178 -2.98206 0.82420 124 61 73
1.17088 -2.99748 0.82928 126 114 139
1.17272 -3.01660 0.83385 136 145 163
1.16483 -3.02294 0.84031 141 144 155
1.15171 -3.03909 0.85271 137 131 134
1.14583 -3.04809 0.85879 137 137 124
1.14194 -3.05981 0.86451 135 110 114
1.13473 -3.06702 0.87084 139 127 116
1.12824 -3.07519 0.87703 135 123 119
1.12174 -3.08336 0.88322 134 110 106
1.12000 -3.09819 0.88861 139 128 125
1.11521 -3.10880 0.89453 139 128 136
1.10231 -3.11965 0.89064 149 157 164
1.11096 -3.12021 0.90037 142 140 147
1.09805 -3.13108 0.89647 150 155 164
1.10382 -3.12754 0.90669 143 154 154
1.09092 -3.13841 0.90279 151 157 168
1.09702 -3.13534 0.91295 142 143 140
1.08412 -3.14620 0.90905 150 156 171
1.08878 -3.14106 0.91944 142 142 149
1.07589 -3.15191 0.91554 149 158 166
1.08511 -3.15339 0.92521 143 151 154
1.07220 -3.16425 0.92131 151 160 165
1.07705 -3.15935 0.93166 146 155 157
1.06416 -3.17021 0.92776 150 157 158
0.97753 -3.39342 1.05866 128 147 168
0.99068 -3.38235 1.06264 128 142 165
0.98408 -3.38492 1.05234 129 148 170
0.98413 -3.39086 1.06896 127 142 162
0.97759 -3.39936 1.07528 125 141 161
0.97178 -3.40326 1.06492 127 146 165
0.97184 -3.40920 1.08154 123 140 158
0.97343 -3.42566 1.07056 122 144 164
0.97349 -3.43162 1.08726 122 139 157
0.96726 -3.43489 1.07688 119 142 165
0.96732 -3.44086 1.09358 120 140 156
0.95917 -3.44085 1.08335 118 140 159
0.95923 -3.44681 1.10003 120 138 157
0.94900 -3.44319 1.08996 119 137 156
0.94906 -3.44914 1.10661 118 135 161
0.94326 -3.45315 1.09623 116 134 157
0.94332 -3.45910 1.11290 116 133 158
0.93931 -3.46624 1.10240 113 129 154
0.93937 -3.47221 1.11908 116 131 155
0.93068 -3.47117 1.10888 107 125 153
0.93074 -3.47713 1.12554 112 129 155
0.92488 -3.48105 1.11517 102 124 152
0.92494 -3.48701 1.13184 105 129 158
0.91794 -3.48894 1.12153 98 125 155
0.91800 -3.49489 1.13820 105 129 161
0.90919 -3.49355 1.12799 99 125 159
0.90925 -3.49950 1.14464 104 128 157
0.89993 -3.49719 1.13445 102 126 156
0.89998 -3.50313 1.15108 104 127 152
0.89338 -3.50570 1.14078 106 126 151
0.88115 -3.65064 1.19067 90 119 145
0.88109 -3.64456 1.17365 91 124 150
0.87879 -3.66774 1.19709 76 91 105
0.86402 -3.66086 1.20366 62 61 66
0.85058 -3.67218 1.19960 53 53 52
0.89118 -4.08931 1.31431 51 53 31
0.90575 -4.07704 1.31872 52 53 43
0.89843 -4.07989 1.30731 54 52 42
0.88327 -4.09732 1.32128 61 69 43
0.88599 -4.12853 1.32891 90 93 85
0.87941 -4.13957 1.33599 103 99 96
0.87594 -4.15751 1.34331 89 87 79
0.86943 -4.22088 1.36580 59 59 59
0.86198 -4.22377 1.35420 56 50 53
0.85460 -4.23336 1.36132 51 50 47
0.80421 -4.28281 1.42203 62 58 61
0.80415 -4.27614 1.40338 48 48 44
0.78945 -4.29524 1.41757 73 69 76
0.78811 -4.29852 1.43604 71 67 68
0.78404 -4.31604 1.44358 60 53 42
0.78410 -4.32272 1.46226 63 58 53
0.76925 -4.32849 1.43911 48 44 39
0.77948 -4.33247 1.45109 55 48 40
0.77210 -4.34205 1.45820 44 43 37
0.76467 -4.34494 1.44661 41 45 36
1.39497 -1.11524 0.13319 219 205 191
1.40391 -1.10771 0.13589 220 204 188
1.39942 -1.10946 0.12890 222 205 192
