ply
format ascii 1.0
element face 0
property list uchar int vertex_indices
element vertex 1313
property float x
property float y
property float z
property uchar diffuse_red
property uchar diffuse_green
property uchar diffuse_blue
end_header
2.17528 -2.42946 -0.45321 72 45 67
2.16726 -2.44169 -0.44742 46 29 68
2.16878 -2.45957 -0.44651 49 51 84
2.15744 -2.46990 -0.43900 48 46 105
2.13782 -2.47526 -0.42725 56 58 139
2.12358 -2.48378 -0.41826 84 74 154
2.11858 -2.49791 -0.41400 106 86 166
2.09902 -2.50316 -0.40229 132 131 182
2.10028 -2.52119 -0.40122 140 146 208
2.09545 -2.53555 -0.39704 114 102 210
2.08788 -2.54823 -0.39146 144 130 200
2.08572 -2.56437 -0.38863 153 138 202
2.08609 -2.58219 -0.38708 188 200 215
2.07262 -2.59124 -0.37847 87 101 154
2.09156 -2.62120 -0.38635 52 37 131
2.08494 -2.63481 -0.38122 71 55 110
2.07634 -2.66521 -0.37329 113 105 36
2.06923 -2.66839 -0.38858 107 128 48
2.07154 -2.68018 -0.36906 94 121 34
2.07512 -2.70081 -0.36907 46 67 81
2.10314 -2.73805 -0.38142 20 24 68
2.08477 -2.75231 -0.38949 11 13 23
2.10664 -2.75902 -0.38135 13 13 42
2.09680 -2.78981 -0.37268 16 17 24
2.09238 -2.80564 -0.36858 24 25 23
2.10399 -2.83274 -0.37255 37 34 42
2.12409 -2.86602 -0.38076 48 50 57
2.13779 -2.89510 -0.38573 73 81 69
2.13472 -2.91245 -0.38225 119 122 98
2.10002 -2.96632 -0.35707 122 126 115
2.10410 -2.95824 -0.38089 109 112 123
2.08144 -2.97253 -0.34582 136 134 129
2.07737 -2.98059 -0.32205 135 137 126
2.06991 -2.98393 -0.33810 135 142 143
2.06246 -2.98726 -0.35415 133 136 145
1.33940 -3.55219 0.13608 132 141 153
1.34337 -3.54432 0.11286 132 145 156
1.33212 -3.55545 0.12040 129 143 156
1.31918 -3.55336 0.14777 130 139 148
1.30473 -3.56085 0.15678 126 137 148
1.28627 -3.57518 0.14867 125 133 148
1.28763 -3.58905 0.16935 112 129 144
1.28314 -3.60787 0.17378 103 114 135
1.27529 -3.62291 0.17976 101 112 123
1.27789 -3.65011 0.18096 108 125 123
1.27838 -3.67508 0.18315 116 133 132
1.27129 -3.69134 0.18881 121 138 138
1.25255 -3.70589 0.18058 146 159 155
1.25634 -3.69837 0.19806 127 144 148
1.24529 -3.70998 0.20554 136 148 152
1.23554 -3.72317 0.21242 142 153 152
1.21681 -3.73771 0.20419 153 160 153
1.22202 -3.73182 0.22101 145 150 151
1.20330 -3.74635 0.21279 154 162 167
1.21079 -3.74323 0.22856 150 154 157
1.18545 -3.83908 0.25254 152 157 144
1.18951 -3.83104 0.22883 153 156 151
1.16653 -3.85377 0.24423 135 138 145
-0.18661 -4.76863 1.12954 79 88 78
-0.18282 -4.76111 1.10737 80 81 66
-0.20755 -4.74886 1.13956 105 113 106
-0.22201 -4.74801 1.14775 134 129 117
-0.22577 -4.75546 1.16972 145 128 109
-0.23266 -4.75854 1.15489 143 128 107
-0.26834 -4.73508 1.17298 137 122 96
-0.28039 -4.74079 1.18045 108 93 68
-0.28929 -4.75636 1.18708 76 68 39
-0.29736 -4.77467 1.19351 53 45 36
-0.30631 -4.79032 1.20017 27 19 30
-0.32373 -4.80384 1.19253 16 16 16
2.60757 -2.23320 -0.73995 42 36 28
2.61151 -2.22540 -0.76296 51 44 39
2.59211 -2.24214 -0.73020 32 24 22
2.57948 -2.25243 -0.72195 20 14 17
2.56114 -2.26667 -0.73000 12 8 15
2.19261 -2.41294 -0.48402 32 21 44
2.17857 -2.42166 -0.47511 43 20 38
2.16496 -2.44754 -0.46480 28 14 65
2.15835 -2.46064 -0.45974 32 24 86
2.15261 -2.47430 -0.45513 30 17 102
2.13417 -2.48036 -0.44395 31 22 118
2.10778 -2.48153 -0.42865 46 51 138
2.10759 -2.49857 -0.42691 52 69 156
2.10114 -2.51185 -0.42193 127 140 158
2.09080 -2.52275 -0.41493 68 84 161
2.09667 -2.54379 -0.41630 47 38 149
2.08128 -2.55160 -0.40670 100 95 167
2.07194 -2.56320 -0.40021 106 124 197
2.07169 -2.58062 -0.39840 110 103 170
2.08637 -2.60774 -0.40425 55 63 133
2.08309 -2.62345 -0.40086 42 23 102
2.07412 -2.63554 -0.39454 92 59 79
2.07247 -2.65245 -0.39197 115 95 47
2.05725 -2.67858 -0.38071 74 98 55
2.08496 -2.71541 -0.39313 24 37 69
2.06670 -2.72958 -0.40115 16 12 30
2.09478 -2.74050 -0.39638 13 13 45
2.09117 -2.77537 -0.39096 17 18 23
2.08513 -2.79002 -0.38608 21 22 27
2.08679 -2.81007 -0.38512 36 26 33
2.11212 -2.84684 -0.39617 52 57 41
2.11676 -2.86937 -0.39668 88 93 94
2.12353 -2.89357 -0.39826 108 113 99
2.10465 -2.90823 -0.40655 123 124 126
2.11857 -2.90956 -0.39387 124 122 113
2.09965 -2.92424 -0.40218 125 128 127
2.11424 -2.92607 -0.38980 127 126 121
2.09529 -2.94078 -0.39812 128 128 126
2.10653 -2.94021 -0.38401 130 129 129
2.07544 -2.95706 -0.36452 118 126 128
2.06800 -2.96039 -0.38053 123 128 127
2.05651 -2.97176 -0.37283 128 125 130
1.31419 -3.55914 0.13107 129 144 152
1.31815 -3.55128 0.10790 134 143 148
1.30086 -3.56789 0.13958 127 138 149
1.28345 -3.59582 0.15227 126 139 144
1.27849 -3.61413 0.15688 125 136 140
1.27497 -3.63421 0.16082 130 141 140
1.25637 -3.64865 0.15265 161 168 162
1.27909 -3.66329 0.16124 140 153 146
1.26039 -3.67781 0.15303 154 161 157
1.26944 -3.67652 0.16805 144 156 152
1.25074 -3.69104 0.15984 143 153 150
1.26150 -3.69178 0.17408 144 157 153
1.24278 -3.70632 0.16586 143 155 154
1.24060 -3.71646 0.18847 152 160 152
1.22186 -3.73101 0.18024 159 172 163
1.23182 -3.73084 0.19490 153 164 151
1.19625 -3.76290 0.21843 151 158 159
1.18623 -3.77584 0.22543 145 149 159
1.17484 -3.78710 0.23306 152 155 157
1.17255 -3.83549 0.23902 146 151 144
1.16513 -3.83881 0.22304 144 144 140
1.15366 -3.85015 0.23072 145 145 140
-0.19435 -4.76941 1.11480 71 78 73
-0.19056 -4.76190 1.09264 83 83 71
-0.20130 -4.77252 1.09983 78 82 74
-0.21084 -4.76278 1.12365 81 91 90
-0.23497 -4.73274 1.13465 114 116 110
-0.24692 -4.73912 1.14214 136 128 115
-0.26159 -4.73703 1.15038 143 129 110
-0.27342 -4.74355 1.15781 130 108 92
-0.28174 -4.76102 1.16427 97 73 57
-0.29035 -4.77771 1.17082 68 55 33
-0.29656 -4.80220 1.17673 43 33 29
-0.31405 -4.81578 1.16905 19 15 17
-0.30590 -4.81682 1.18351 23 16 24
-0.32341 -4.83041 1.17582 16 15 16
1.86268 -1.70976 -0.37761 27 25 25
1.87164 -1.70089 -0.38362 20 19 21
1.86584 -1.70349 -0.39610 18 16 21
1.86848 -1.70716 -0.36513 30 27 32
1.85688 -1.71235 -0.39010 24 22 23
1.85372 -1.71862 -0.37161 37 25 36
1.86327 -1.74857 -0.37436 63 53 48
1.87229 -1.73964 -0.38041 50 37 46
1.86911 -1.74596 -0.36178 69 59 49
1.86008 -1.75489 -0.35573 74 59 50
1.85424 -1.75751 -0.36831 70 58 53
2.60032 -2.23641 -0.75547 45 39 31
2.60426 -2.22861 -0.77847 53 43 42
2.58238 -2.24414 -0.74437 34 28 23
2.56422 -2.25171 -0.73317 21 15 18
2.54592 -2.26592 -0.74121 12 8 18
2.19716 -2.40585 -0.50659 17 16 42
2.20791 -2.39522 -0.51379 17 16 48
2.20095 -2.39833 -0.52877 12 13 38
2.17733 -2.41124 -0.49463 24 26 52
2.16446 -2.42060 -0.48631 54 59 69
2.15080 -2.42947 -0.47759 45 35 63
2.15051 -2.44622 -0.47587 69 52 117
2.15848 -2.46798 -0.47847 101 88 133
2.14147 -2.47493 -0.46798 102 67 134
2.12655 -2.48308 -0.45860 90 82 150
2.11915 -2.49577 -0.45315 93 98 165
2.09580 -2.49872 -0.43937 56 58 145
2.10147 -2.51947 -0.44073 124 132 147
2.08200 -2.52473 -0.42897 72 74 143
2.09346 -2.54929 -0.43333 50 53 118
2.07578 -2.55566 -0.42251 88 95 146
2.07784 -2.57452 -0.42196 66 76 161
2.08063 -2.59397 -0.42177 61 65 147
2.07646 -2.60905 -0.41796 53 63 128
2.07209 -2.62407 -0.41405 78 46 79
2.06629 -2.63820 -0.40938 104 80 57
2.06572 -2.65584 -0.40742 109 124 33
2.05744 -2.66846 -0.40146 89 119 60
2.06016 -2.68845 -0.40118 36 55 49
2.04203 -2.70252 -0.40914 14 13 20
2.08557 -2.72386 -0.41260 14 16 34
2.08596 -2.76128 -0.40936 19 19 21
2.06755 -2.77557 -0.41744 25 30 32
2.08127 -2.77679 -0.40520 22 27 26
2.07875 -2.79388 -0.40217 26 23 31
2.07924 -2.81315 -0.40066 50 41 45
2.09574 -2.84378 -0.40737 86 86 77
2.11422 -2.87609 -0.41507 108 117 114
2.09540 -2.89070 -0.42333 122 122 116
2.11420 -2.89552 -0.41326 122 128 114
2.09533 -2.91017 -0.42154 123 121 127
1.53918 -3.43735 -0.03049 149 152 140
1.55798 -3.42276 -0.02224 145 146 152
1.55059 -3.42606 -0.03814 138 140 141
1.54657 -3.43405 -0.01459 154 155 149
1.52038 -3.45194 -0.03874 144 151 150
1.53889 -3.45986 -0.02824 147 148 146
1.53485 -3.46787 -0.00461 133 134 141
1.52744 -3.47118 -0.02057 137 136 144
1.52003 -3.47450 -0.03652 141 142 147
1.31143 -3.56743 0.11329 138 157 146
1.30415 -3.57069 0.09762 150 166 154
1.29291 -3.58181 0.10515 151 157 149
1.30073 -3.57918 0.12056 139 150 143
1.28221 -3.59356 0.11243 153 155 158
1.29265 -3.59389 0.12660 145 148 148
1.27410 -3.60829 0.11846 153 155 162
1.28388 -3.60788 0.13296 151 154 153
1.26532 -3.62229 0.12481 150 153 158
1.27522 -3.62202 0.13929 150 156 155
1.25664 -3.63644 0.13113 149 152 152
1.27582 -3.64693 0.14125 155 162 157
1.25716 -3.66140 0.13306 147 151 151
1.18455 -3.76084 0.20459 147 152 149
1.16583 -3.77537 0.19637 137 144 143
1.17458 -3.77381 0.21156 138 141 149
-0.21866 -4.76317 1.10901 76 82 79
-0.21489 -4.75569 1.08695 82 85 78
-0.22558 -4.76627 1.09411 80 82 78
-0.23252 -4.76411 1.11712 96 100 95
-0.25526 -4.73761 1.12781 124 121 107
-0.26854 -4.73974 1.13569 137 128 105
-0.27447 -4.76468 1.14143 114 97 82
-0.27707 -4.80044 1.14624 81 64 53
-0.28580 -4.81712 1.15284 57 46 37
-0.29163 -4.84325 1.15863 30 23 25
-0.30927 -4.85694 1.15089 15 15 13
1.85956 -1.73920 -0.38925 41 30 40
1.86274 -1.73289 -0.40785 27 23 23
1.85372 -1.74181 -0.40181 35 27 30
2.58185 -2.23420 -0.76494 47 39 37
2.58577 -2.22642 -0.78788 55 43 43
2.57466 -2.23742 -0.78043 49 39 38
2.56697 -2.24336 -0.75547 36 30 28
2.55438 -2.25363 -0.74723 22 16 22
2.53609 -2.26783 -0.75526 10 8 14
2.19208 -2.41005 -0.52256 12 13 30
2.19588 -2.40252 -0.54475 11 11 42
2.18512 -2.41316 -0.53755 10 10 37
2.17303 -2.41587 -0.51097 23 31 52
2.18218 -2.43810 -0.51430 66 88 102
2.14943 -2.43585 -0.49545 69 61 128
2.16377 -2.46131 -0.50151 85 76 161
2.17838 -2.48716 -0.50769 150 157 184
2.16522 -2.49653 -0.49921 161 151 169
2.15828 -2.50964 -0.49400 152 136 185
2.13005 -2.50980 -0.47756 145 130 184
2.11673 -2.51897 -0.46900 107 97 179
2.10251 -2.52755 -0.45996 154 176 191
2.08335 -2.53303 -0.44833 150 163 179
2.07597 -2.54583 -0.44290 127 134 174
2.07166 -2.56061 -0.43907 108 119 174
2.08101 -2.58415 -0.44240 46 50 143
2.06311 -2.59804 -0.45025 63 47 106
2.07896 -2.60056 -0.43974 47 51 128
2.07097 -2.61321 -0.43396 44 50 106
2.06383 -2.62644 -0.42862 97 66 60
2.06027 -2.64206 -0.42516 106 105 32
2.05640 -2.65754 -0.42152 95 127 27
2.04654 -2.66910 -0.41475 44 72 65
2.02850 -2.68311 -0.42268 13 12 19
2.07201 -2.70436 -0.42640 15 21 29
2.06874 -2.73906 -0.42140 22 21 30
2.06154 -2.74227 -0.43688 31 28 40
2.05043 -2.75327 -0.42944 29 31 31
2.07070 -2.75901 -0.42075 27 28 28
2.05233 -2.77327 -0.42882 22 25 37
2.06527 -2.79280 -0.41457 21 21 42
2.08826 -2.82781 -0.42480 66 64 60
2.10438 -2.85832 -0.43145 105 108 111
2.08563 -2.87288 -0.43968 119 120 119
2.09742 -2.87272 -0.42611 106 113 118
2.07864 -2.88729 -0.43435 122 116 123
1.52570 -3.41189 -0.04542 137 140 133
1.54440 -3.39738 -0.03721 149 147 147
1.53705 -3.40066 -0.05303 150 152 144
1.51836 -3.41518 -0.06123 147 156 149
1.50701 -3.42641 -0.05363 144 145 143
1.51500 -3.42377 -0.03813 138 143 134
1.49630 -3.43828 -0.04634 142 149 151
1.41974 -3.48573 0.02280 137 138 138
1.42705 -3.48246 0.03854 134 136 132
1.41575 -3.49364 0.04611 140 144 143
1.40844 -3.49690 0.03037 133 141 136
1.31721 -3.56159 0.08921 147 152 145
1.33575 -3.54720 0.09735 136 143 150
1.32118 -3.55371 0.06599 153 155 154
1.30993 -3.56484 0.07353 151 157 154
1.15677 -3.78951 0.20290 143 148 146
1.16079 -3.78155 0.17943 145 147 132
1.14721 -3.80304 0.20967 142 147 142
-0.23334 -4.78580 1.10038 82 84 79
-0.22956 -4.77831 1.07827 85 83 80
-0.24028 -4.78890 1.08545 83 81 74
-0.25284 -4.76931 1.11023 104 105 89
-0.27064 -4.75756 1.11953 124 116 88
-0.26814 -4.80925 1.12271 101 86 59
-0.27453 -4.83349 1.12859 71 61 37
-0.28079 -4.85841 1.13446 48 41 33
-0.29190 -4.86789 1.14177 21 17 24
-0.30962 -4.88164 1.13399 12 12 11
1.85869 -1.75698 -0.40340 44 34 32
1.86188 -1.75065 -0.42207 29 22 27
1.85689 -1.76921 -0.40129 57 51 37
2.55972 -2.24655 -0.77091 37 32 29
2.56364 -2.23878 -0.79384 50 40 40
2.54541 -2.25596 -0.76173 20 18 20
2.52712 -2.27016 -0.76976 10 9 12
2.17030 -2.42143 -0.52817 14 18 54
2.15034 -2.42665 -0.51605 32 45 93
2.13647 -2.43540 -0.50719 31 29 117
2.13784 -2.45317 -0.50645 46 50 129
2.17135 -2.49030 -0.52283 136 145 174
2.15820 -2.49967 -0.51433 155 144 192
2.15105 -2.51267 -0.50903 134 131 189
2.11015 -2.52236 -0.48429 88 91 184
2.08828 -2.52619 -0.47118 126 144 198
2.08004 -2.53844 -0.46530 141 132 200
2.07019 -2.54971 -0.45857 123 113 195
2.06493 -2.56390 -0.45427 118 109 188
2.07808 -2.58992 -0.45971 52 36 124
2.06540 -2.61733 -0.44993 72 50 83
2.05767 -2.63019 -0.44430 94 81 61
2.05316 -2.64520 -0.44037 95 119 38
2.04528 -2.65804 -0.43465 56 83 36
2.06140 -2.68693 -0.44158 14 23 47
2.04325 -2.70102 -0.44955 18 16 23
2.05431 -2.79346 -0.42823 24 25 46
2.06597 -2.82057 -0.43271 74 80 80
2.09258 -2.85849 -0.44499 117 119 119
2.07385 -2.87302 -0.45321 130 128 122
1.40529 -3.48145 0.01058 133 137 141
1.39907 -3.52126 0.01766 153 161 152
1.39508 -3.52919 0.04103 149 152 129
1.38041 -3.53575 0.00946 154 160 162
1.38489 -3.52939 0.02665 153 162 152
1.38089 -3.53731 0.05001 143 147 142
1.37240 -3.53931 0.03481 148 149 154
1.36841 -3.54723 0.05816 140 146 145
1.36108 -3.55050 0.04239 147 149 152
1.14328 -3.78508 0.18997 138 139 128
1.14728 -3.77713 0.16656 125 133 129
1.13593 -3.78836 0.17416 127 129 123
1.12786 -3.79115 0.19951 134 134 133
1.11826 -3.80457 0.20628 146 154 135
1.11426 -3.81250 0.22968 144 154 143
1.09958 -3.81907 0.19808 126 134 139
-0.26064 -4.81342 1.09947 100 95 67
-0.26393 -4.84754 1.10434 84 74 48
-0.27047 -4.87170 1.11025 59 50 29
-0.27678 -4.89686 1.11611 37 29 24
-0.28883 -4.90365 1.12374 17 13 18
-0.30667 -4.91749 1.11591 11 10 10
1.85481 -1.76049 -0.41709 35 25 27
1.85800 -1.75416 -0.43577 23 20 29
1.84895 -1.76311 -0.42971 25 21 30
1.85769 -1.77485 -0.41759 45 39 34
1.85439 -1.78647 -0.41469 62 53 43
2.54796 -2.24752 -0.78389 36 32 30
2.55187 -2.23976 -0.80679 50 41 39
2.53420 -2.25719 -0.77500 19 18 19
2.51593 -2.27137 -0.78302 10 10 12
2.16185 -2.42367 -0.54233 19 22 72
2.14832 -2.43265 -0.53363 29 38 103
2.12989 -2.43871 -0.52230 22 24 96
2.12545 -2.45303 -0.51849 35 35 100
2.15304 -2.48667 -0.53191 90 100 144
2.15203 -2.50334 -0.52993 105 110 168
2.13473 -2.51015 -0.51919 95 104 156
2.12324 -2.52048 -0.51158 85 79 159
2.11485 -2.53272 -0.50563 89 107 169
2.10701 -2.54533 -0.49998 70 79 163
2.10895 -2.56410 -0.49955 63 58 169
2.09101 -2.57803 -0.50743 73 48 108
2.09920 -2.57560 -0.49286 65 53 155
2.08125 -2.58953 -0.50074 90 57 85
2.08607 -2.58495 -0.48437 69 50 143
2.07524 -2.59576 -0.47710 87 48 92
2.06518 -2.60707 -0.47026 108 72 68
2.05468 -2.61810 -0.46316 99 88 45
2.04757 -2.63136 -0.45789 83 101 47
2.04042 -2.64462 -0.45258 61 85 41
2.05412 -2.67179 -0.45837 24 31 40
2.03602 -2.68583 -0.46631 13 14 22
2.04957 -2.68697 -0.45443 12 12 30
2.04592 -2.77706 -0.44478 23 24 36
2.05707 -2.76602 -0.45226 22 24 18
2.05462 -2.80198 -0.44782 64 61 77
2.08136 -2.83980 -0.46039 100 106 104
2.06271 -2.85428 -0.46858 122 124 122
2.07073 -2.85150 -0.45317 124 126 119
2.05207 -2.86598 -0.46136 124 125 123
2.00165 -2.91790 -0.40705 116 117 116
2.02030 -2.90342 -0.39886 122 122 123
2.01297 -2.90670 -0.41463 120 124 126
2.00564 -2.90998 -0.43041 125 127 131
1.99765 -2.92583 -0.38368 129 128 134
1.98299 -2.93238 -0.41524 140 133 130
1.98375 -2.92421 -0.39600 137 128 134
1.97976 -2.93212 -0.37268 128 132 134
1.96513 -2.93866 -0.40418 125 121 119
1.68069 -3.22808 -0.19261 158 158 150
1.68468 -3.22016 -0.21595 161 163 165
1.68801 -3.22480 -0.17685 151 147 143
1.67337 -3.23135 -0.20837 161 164 159
1.67670 -3.23599 -0.16927 150 150 148
1.66206 -3.24254 -0.20079 160 165 156
1.39097 -3.47725 -0.00161 143 145 145
1.39493 -3.46938 -0.02482 137 141 144
1.37244 -3.49163 -0.00975 151 159 142
1.38339 -3.49230 0.00409 145 156 145
1.36484 -3.50669 -0.00405 153 159 151
1.35475 -3.53132 0.02417 154 159 157
1.35873 -3.52343 0.00090 149 152 156
1.34745 -3.53458 0.00846 156 160 157
1.33952 -3.53813 0.03369 152 151 154
1.33555 -3.54602 0.05693 147 150 154
1.32826 -3.54928 0.04124 147 149 151
1.24182 -3.61845 0.09779 143 153 151
1.25305 -3.60733 0.09026 140 148 145
1.24578 -3.61059 0.07461 144 154 144
1.24909 -3.61520 0.11345 146 156 162
1.23785 -3.62631 0.12097 149 154 154
1.23148 -3.63061 0.10488 141 149 150
1.22752 -3.63848 0.12807 148 153 149
1.21297 -3.64498 0.09675 123 127 134
1.22042 -3.64194 0.11232 137 147 145
1.21646 -3.64981 0.13551 145 156 153
1.20191 -3.65631 0.10419 125 130 134
1.09845 -3.76634 0.19436 129 131 137
1.10241 -3.75847 0.17115 126 135 124
1.09117 -3.76960 0.17869 127 130 129
-0.24290 -4.84946 1.07277 77 77 64
-0.23908 -4.84188 1.05045 81 81 72
-0.24990 -4.85259 1.05770 78 77 66
-0.25266 -4.86349 1.07968 77 75 61
-0.25890 -4.88879 1.08545 71 66 53
-0.26390 -4.91835 1.09085 54 45 33
-0.27599 -4.92530 1.09853 34 24 19
-0.28641 -4.93764 1.10568 17 12 13
-0.40444 -5.32689 1.20745 48 50 29
-0.42318 -5.34143 1.19922 68 71 47
1.85433 -1.77862 -0.43164 33 28 36
1.85754 -1.77226 -0.45039 20 22 29
1.84939 -1.78951 -0.42785 51 43 43
2.53570 -2.24824 -0.79656 35 30 30
2.52244 -2.25813 -0.78793 18 17 19
2.50419 -2.27229 -0.79594 10 10 12
2.16600 -2.43327 -0.56333 19 24 81
2.14826 -2.44704 -0.57112 19 23 85
2.14034 -2.43514 -0.54802 24 30 94
2.12267 -2.44886 -0.55578 26 24 77
2.12672 -2.44404 -0.53926 27 25 79
2.11971 -2.45686 -0.53409 44 51 98
2.15439 -2.49485 -0.55154 67 79 118
2.14105 -2.50408 -0.54291 74 77 110
2.12443 -2.51128 -0.53252 61 63 111
2.10658 -2.52513 -0.54036 50 22 78
2.11906 -2.52537 -0.52822 47 35 114
2.11046 -2.53749 -0.52217 51 50 121
2.10243 -2.55000 -0.51642 43 32 118
2.09963 -2.56582 -0.51350 44 40 124
2.07094 -2.60068 -0.49376 116 83 59
2.06388 -2.60383 -0.50894 106 114 42
2.06165 -2.61250 -0.48733 111 109 38
2.04973 -2.62262 -0.47947 95 119 30
2.03623 -2.63170 -0.47077 60 83 25
2.05086 -2.65937 -0.47719 31 35 35
2.04540 -2.67389 -0.47281 12 12 25
2.04204 -2.70821 -0.46807 22 17 18
2.03815 -2.71593 -0.44531 25 22 39
2.04113 -2.72603 -0.46611 34 22 29
2.03722 -2.73377 -0.44328 29 26 38
2.04073 -2.74430 -0.46441 31 18 38
2.04090 -2.76306 -0.46301 29 34 37
2.05618 -2.79247 -0.46968 62 62 51
2.07369 -2.82369 -0.47752 101 100 97
2.05509 -2.83813 -0.48569 123 125 118
2.06308 -2.83534 -0.47032 118 123 113
2.04447 -2.84978 -0.47849 123 122 129
1.98104 -2.91132 -0.41577 124 123 114
1.22798 -3.61404 0.08541 138 143 141
1.23193 -3.60620 0.06228 136 142 135
1.22072 -3.61729 0.06979 133 139 134
1.20951 -3.62838 0.07730 132 132 133
1.21657 -3.62490 0.09301 130 131 138
1.19811 -3.63924 0.08491 135 134 128
1.06526 -3.76188 0.19338 121 130 130
1.06920 -3.75405 0.17029 125 123 115
1.04683 -3.77618 0.18528 130 139 134
-0.25040 -4.89597 1.06147 77 75 65
-0.24656 -4.88834 1.03899 83 83 75
-0.25656 -4.92187 1.06718 72 69 59
-0.26161 -4.95166 1.07255 59 53 39
-0.27498 -4.95472 1.08069 41 32 23
-0.29020 -4.95153 1.08943 25 18 15
-0.29955 -4.96754 1.09624 16 14 11
-0.30341 -4.97520 1.11880 11 9 12
-0.31066 -4.97777 1.10362 14 12 13
-0.31452 -4.98543 1.12618 9 7 12
-0.32159 -4.98861 1.11094 12 9 14
-0.32545 -4.99627 1.13350 8 7 11
-0.32621 -5.02102 1.11627 12 9 18
-0.33009 -5.02871 1.13893 8 7 11
-0.33720 -5.03189 1.12363 16 10 19
1.84898 -1.78149 -0.44460 26 23 33
1.85218 -1.77513 -0.46335 18 21 23
1.84309 -1.78412 -0.45726 22 21 29
1.84475 -1.79272 -0.44123 39 33 42
2.52930 -2.23544 -0.81369 50 43 35
2.54752 -2.22130 -0.80570 57 45 44
2.54036 -2.22450 -0.82110 57 46 42
2.53320 -2.22770 -0.83651 58 47 41
2.52023 -2.24736 -0.80739 34 29 28
2.50685 -2.25715 -0.79869 17 14 19
2.48863 -2.27129 -0.80668 12 10 15
2.10975 -2.45816 -0.54739 38 37 84
2.11353 -2.45065 -0.56951 27 25 75
2.09209 -2.47186 -0.55514 37 26 58
2.10995 -2.47536 -0.54618 36 38 86
2.09223 -2.48911 -0.55396 43 24 69
2.09881 -2.48577 -0.53877 36 31 82
2.10037 -2.50396 -0.53829 39 28 85
2.10927 -2.54427 -0.54048 62 26 71
2.08762 -2.54826 -0.52731 76 38 65
2.09595 -2.57110 -0.53050 88 56 67
2.07800 -2.58503 -0.53838 96 106 50
2.08589 -2.58241 -0.52366 102 77 73
2.07944 -2.59604 -0.51878 108 97 50
2.05368 -2.61506 -0.50202 87 112 18
2.04099 -2.62467 -0.49374 54 81 24
2.02304 -2.63860 -0.50162 25 20 37
2.05133 -2.64946 -0.49797 32 36 28
2.04736 -2.66494 -0.49442 21 15 34
2.03804 -2.67690 -0.48797 17 14 21
2.03366 -2.69221 -0.48419 18 14 27
2.03554 -2.71184 -0.48380 30 28 20
2.05720 -2.74512 -0.49410 52 52 53
2.04477 -2.75523 -0.48594 65 56 60
2.07500 -2.79493 -0.50084 83 87 85
2.05522 -2.81910 -0.48723 122 122 104
2.03667 -2.83350 -0.49537 125 124 122
1.99549 -2.89166 -0.44617 124 123 133
2.00677 -2.88050 -0.45373 121 121 118
2.00279 -2.88840 -0.43045 124 122 131
1.97690 -2.90609 -0.45433 137 139 148
1.98155 -2.90086 -0.43719 131 133 138
1.96298 -2.91528 -0.44534 144 143 146
1.96869 -2.91083 -0.42878 136 137 131
1.95012 -2.92524 -0.43693 144 143 146
1.94347 -2.93110 -0.41224 138 132 120
1.92492 -2.94550 -0.42039 145 146 143
1.27362 -3.53464 0.03201 155 163 157
1.26247 -3.54568 0.03948 140 142 143
1.24409 -3.55994 0.03141 134 138 134
1.25698 -3.56316 0.04409 132 137 133
1.23856 -3.57745 0.03601 137 141 136
-0.25244 -4.96100 1.04807 78 74 66
-0.25899 -4.98638 1.05391 68 62 53
-0.27505 -4.98088 1.06303 53 44 40
-0.29061 -4.97670 1.07195 40 28 33
-0.30333 -4.98174 1.07989 32 25 31
-0.32838 -5.04122 1.09934 29 35 34
-0.34653 -5.05531 1.09137 69 76 63
1.84077 -1.80948 -0.45401 47 35 52
2.50262 -2.24539 -0.81695 34 28 27
2.48445 -2.25950 -0.82493 18 11 17
2.49888 -2.25994 -0.81364 18 12 20
2.48067 -2.27408 -0.82164 15 10 17
2.18075 -2.45640 -0.60922 15 18 73
2.18458 -2.44881 -0.63160 12 13 51
2.17373 -2.45954 -0.62433 13 13 54
2.14914 -2.45481 -0.59047 18 21 78
2.09451 -2.52513 -0.55266 76 39 53
2.09655 -2.54387 -0.55250 91 57 53
2.08258 -2.55264 -0.54351 109 89 35
2.06471 -2.56651 -0.55135 99 129 39
2.07880 -2.56785 -0.54013 111 99 45
2.07165 -2.59873 -0.53358 87 113 31
2.06234 -2.61056 -0.52715 75 101 29
2.05098 -2.62106 -0.51959 48 62 10
2.04866 -2.63750 -0.51699 20 27 16
2.04158 -2.66900 -0.51044 28 24 42
2.03728 -2.68434 -0.50674 37 27 45
2.04125 -2.70534 -0.50756 44 39 58
2.05132 -2.73064 -0.51170 60 62 60
2.04962 -2.74808 -0.50941 89 92 88
2.05350 -2.76947 -0.51014 109 105 99
2.03510 -2.78376 -0.51823 119 117 125
2.05251 -2.78760 -0.50821 117 117 115
2.03405 -2.80193 -0.51632 119 121 127
2.04472 -2.80108 -0.50257 116 124 120
2.02625 -2.81542 -0.51068 119 123 128
2.00893 -2.87129 -0.47602 121 126 121
2.02751 -2.85687 -0.46786 115 118 122
2.02021 -2.86013 -0.48357 110 114 117
2.01623 -2.86803 -0.46031 121 125 120
1.99653 -2.88162 -0.46785 128 128 124
1.97796 -2.89603 -0.47600 136 142 147
1.98366 -2.89160 -0.45943 134 137 143
1.96510 -2.90600 -0.46758 137 138 147
1.27406 -3.52292 0.01079 147 156 141
1.27799 -3.51512 -0.01220 144 151 147
1.26684 -3.52614 -0.00474 139 144 124
1.25570 -3.53717 0.00273 140 144 137
1.26394 -3.53510 0.01773 152 156 141
1.24558 -3.54936 0.00966 148 152 144
1.25516 -3.54882 0.02398 145 145 138
1.23678 -3.56308 0.01591 141 141 148
1.17438 -3.62288 0.07767 131 130 121
1.18553 -3.61185 0.07021 134 140 133
1.16717 -3.62611 0.06214 123 122 127
1.17045 -3.63068 0.10067 139 141 134
1.15916 -3.62902 0.08722 131 129 128
1.15523 -3.63681 0.11018 136 143 145
1.14082 -3.64326 0.07916 129 136 140
-0.25148 -4.99034 1.02983 83 78 73
-0.24757 -4.98259 1.00698 86 85 80
-0.25864 -4.99354 1.01440 85 81 78
-0.26022 -5.00889 1.03642 77 72 65
-0.26878 -5.02818 1.04295 68 64 55
-0.28026 -5.03793 1.05052 61 55 49
-0.28844 -5.05873 1.05695 59 55 50
-0.30167 -5.06262 1.06513 60 56 56
-0.31997 -5.07682 1.05709 84 83 74
2.49197 -2.23050 -0.83150 51 42 33
2.49585 -2.22280 -0.85419 60 47 43
2.48104 -2.24141 -0.82416 33 25 22
2.46292 -2.25548 -0.83212 17 14 15
2.09571 -2.51595 -0.57353 82 82 39
2.07240 -2.51887 -0.55933 85 91 38
2.07559 -2.53828 -0.55987 92 98 35
2.07345 -2.55445 -0.55745 101 121 26
2.06321 -2.58323 -0.54927 82 115 35
2.05723 -2.59714 -0.54470 63 88 24
2.06272 -2.61855 -0.54648 37 52 32
2.05238 -2.62976 -0.53948 23 27 22
2.04450 -2.64259 -0.53385 21 20 26
2.03722 -2.65584 -0.52854 38 30 41
2.02869 -2.66830 -0.52254 43 38 55
2.03792 -2.69275 -0.52635 60 50 70
2.04432 -2.71547 -0.52859 75 77 84
2.04510 -2.73452 -0.52771 91 97 97
2.02681 -2.74872 -0.53575 111 115 114
2.04642 -2.75406 -0.52712 110 112 105
2.02806 -2.76830 -0.53518 114 114 126
2.04416 -2.77124 -0.52455 119 119 123
2.02576 -2.78552 -0.53263 116 115 127
1.98256 -2.86066 -0.48127 126 133 131
1.98652 -2.85281 -0.50441 121 122 128
1.97530 -2.86390 -0.49690 127 136 136
1.96408 -2.87500 -0.48938 136 136 140
1.97690 -2.87584 -0.47680 135 139 139
1.95840 -2.89020 -0.48493 131 136 137
1.13940 -3.61715 0.07817 130 137 130
1.13223 -3.62036 0.06273 140 148 146
1.12114 -3.63133 0.07016 134 137 144
-0.26274 -5.02736 1.01925 82 80 75
-0.25882 -5.01957 0.99630 86 83 81
-0.26994 -5.03058 1.00375 83 82 77
-0.28107 -5.04158 1.01121 78 81 71
-0.27140 -5.04653 1.02580 77 80 69
-0.28975 -5.06078 1.01774 77 80 65
-0.28137 -5.06146 1.03284 75 77 64
-0.29974 -5.07572 1.02478 79 80 67
-0.29189 -5.07462 1.04009 76 78 65
-0.31027 -5.08888 1.03202 84 83 75
2.46340 -2.22308 -0.83459 49 41 33
2.46726 -2.21542 -0.85717 60 47 40
2.45446 -2.23491 -0.82840 30 25 19
2.43643 -2.24890 -0.83632 18 18 21
2.20155 -2.39794 -0.66484 33 28 44
2.20536 -2.39039 -0.68711 39 34 50
2.19457 -2.40107 -0.67988 41 38 46
2.18377 -2.41175 -0.67264 43 40 44
2.06516 -2.52182 -0.57420 64 86 49
2.06261 -2.53765 -0.57159 76 97 46
2.06096 -2.55412 -0.56948 79 108 47
2.05711 -2.56928 -0.56614 76 103 48
2.05507 -2.58566 -0.56380 56 76 35
2.05745 -2.60499 -0.56393 41 44 32
2.04208 -2.63081 -0.55292 24 23 42
2.04420 -2.65024 -0.55288 35 34 51
2.04156 -2.66663 -0.55019 56 51 67
2.03823 -2.68263 -0.54709 69 66 80
2.04007 -2.70221 -0.54689 82 81 90
2.02187 -2.71634 -0.55488 102 104 100
2.03975 -2.72044 -0.54546 92 98 93
2.02150 -2.73461 -0.55348 103 106 109
2.03214 -2.73378 -0.53997 101 110 105
2.01388 -2.74796 -0.54799 110 112 117
2.42567 -2.22723 -0.83119 29 26 24
2.40773 -2.24115 -0.83907 19 21 24
2.17706 -2.42480 -0.66773 43 40 46
2.18087 -2.41724 -0.69003 46 44 45
2.06057 -2.54389 -0.58944 34 45 67
2.04276 -2.55772 -0.59726 21 28 65
2.05937 -2.56070 -0.58763 37 54 61
2.05600 -2.57620 -0.58459 38 48 49
2.06117 -2.59727 -0.58636 31 36 46
2.04995 -2.60786 -0.57888 34 28 47
2.03915 -2.63669 -0.57048 37 39 60
2.03930 -2.65487 -0.56940 65 63 73
2.04221 -2.67499 -0.56987 80 83 104
2.02407 -2.68907 -0.57783 96 96 100
2.03705 -2.68982 -0.56578 90 90 101
2.01888 -2.70392 -0.57376 107 103 105
2.02767 -2.70185 -0.55933 103 102 108
2.00950 -2.71596 -0.56731 107 104 104
2.16957 -2.42764 -0.68251 50 47 53
2.15178 -2.44146 -0.69032 58 53 65
2.05221 -2.54616 -0.60372 23 25 66
2.05781 -2.58502 -0.60476 30 34 54
2.05329 -2.59990 -0.60110 41 41 63
2.03680 -2.62496 -0.58951 60 53 72
2.03310 -2.64054 -0.58631 71 75 79
2.03068 -2.65704 -0.58382 91 90 86
2.01262 -2.67106 -0.59175 97 96 102
2.02242 -2.66969 -0.57801 94 97 114
2.00434 -2.68372 -0.58595 99 95 95
2.18404 -2.42627 -0.71097 49 47 50
2.20189 -2.41242 -0.70314 41 41 46
2.19488 -2.41555 -0.71823 45 43 48
2.18786 -2.41869 -0.73333 48 44 54
2.16620 -2.44012 -0.71881 59 56 63
2.16623 -2.43290 -0.69967 55 52 59
2.14841 -2.44673 -0.70750 61 58 63
2.03557 -2.56073 -0.61222 59 59 72
2.02691 -2.57281 -0.60621 64 62 70
2.03708 -2.59712 -0.61103 70 71 75
2.02821 -2.60919 -0.60489 75 73 84
2.01905 -2.62110 -0.59859 83 79 88
2.01675 -2.63756 -0.59623 92 94 95
1.99877 -2.65152 -0.60412 103 104 100
2.01278 -2.65299 -0.59290 97 98 96
1.99476 -2.66697 -0.60081 99 101 97
1.95348 -2.70388 -0.55362 105 101 105
1.96440 -2.69308 -0.56094 106 107 101
1.95733 -2.69624 -0.57615 110 114 105
1.96055 -2.70072 -0.53840 105 104 113
1.94963 -2.71152 -0.53109 112 112 120
1.91975 -2.69879 -0.53325 114 114 117
1.91592 -2.70639 -0.51086 123 112 120
1.90889 -2.70953 -0.52598 125 121 121
1.90187 -2.71267 -0.54110 120 126 122
2.05377 -2.54472 -0.64385 84 85 82
2.05759 -2.53715 -0.66618 76 78 81
2.04676 -2.54785 -0.65892 83 88 87
2.03594 -2.55856 -0.65167 87 87 89
2.04343 -2.55573 -0.63687 91 86 83
2.02560 -2.56957 -0.64470 89 86 90
2.02071 -2.55882 -0.62272 89 85 79
2.00294 -2.57262 -0.63052 90 89 94
2.01529 -2.57296 -0.61860 89 85 81
2.01549 -2.59081 -0.61775 90 90 85
2.00926 -2.60455 -0.61316 92 93 94
1.99139 -2.61842 -0.62101 100 101 108
2.00324 -2.61847 -0.60869 91 91 101
1.98535 -2.63236 -0.61655 102 110 116
1.99948 -2.63394 -0.60552 96 103 110
1.90366 -2.69559 -0.54314 112 115 118
1.88582 -2.70944 -0.55097 122 124 128
2.16140 -2.47897 -0.73343 64 64 64
2.17230 -2.46819 -0.74074 61 60 67
2.16846 -2.47582 -0.71824 59 57 59
2.15756 -2.48660 -0.71094 65 63 64
2.14345 -2.49291 -0.74132 70 74 81
2.00570 -2.59213 -0.63122 96 93 96
1.99996 -2.60619 -0.62694 105 106 102
1.97193 -2.64140 -0.60778 104 102 100
1.96108 -2.65214 -0.60051 95 97 94
1.94062 -2.65633 -0.58763 107 108 102
1.94763 -2.65320 -0.57254 104 100 99
1.91579 -2.65744 -0.57220 108 106 112
1.90590 -2.68692 -0.56456 111 110 123
1.88807 -2.70075 -0.57239 124 123 123
1.88725 -2.69213 -0.55275 116 117 124
1.19630 -3.37605 -0.08979 149 150 151
1.21409 -3.36224 -0.08197 157 150 154
1.20011 -3.36849 -0.11207 162 165 153
1.20329 -3.37292 -0.07474 151 153 155
1.19249 -3.38360 -0.06750 148 152 162
1.17851 -3.38985 -0.09760 148 148 140
0.35968 -4.15789 0.46839 115 120 117
0.37734 -4.14418 0.47614 112 113 110
0.36346 -4.15038 0.44627 103 104 93
0.36662 -4.15478 0.48332 119 118 118
0.35590 -4.16539 0.49050 116 117 118
0.34896 -4.16849 0.47557 115 118 116
2.14106 -2.43983 -0.74240 57 55 69
2.15885 -2.42602 -0.73459 51 49 64
2.15186 -2.42914 -0.74964 52 51 61
2.14805 -2.43670 -0.72735 56 55 67
2.12326 -2.45364 -0.75022 66 67 75
2.14178 -2.45738 -0.74200 63 61 72
2.14075 -2.47397 -0.74056 68 69 72
2.12285 -2.48786 -0.74841 74 77 85
2.02083 -2.55650 -0.66196 87 89 92
2.03163 -2.54582 -0.66920 88 91 90
2.00305 -2.57031 -0.66978 72 75 78
1.99957 -2.57809 -0.64769 87 84 86
1.99257 -2.59126 -0.64270 91 82 78
1.98459 -2.60382 -0.63713 100 101 99
1.96677 -2.61766 -0.64495 78 81 96
1.97635 -2.61624 -0.63140 95 96 105
1.96225 -2.62476 -0.62221 99 101 110
1.95201 -2.63585 -0.61530 99 97 100
1.94003 -2.64577 -0.60738 95 97 91
1.89985 -2.65440 -0.58196 114 111 116
1.89191 -2.66700 -0.57641 123 117 123
1.87851 -2.67581 -0.56765 119 123 128
1.86403 -2.70210 -0.55737 129 128 132
1.86023 -2.70964 -0.53512 122 126 125
1.85325 -2.71276 -0.55014 132 134 135
1.26756 -3.30717 -0.15700 138 138 132
1.28536 -3.29335 -0.14918 148 154 154
1.27137 -3.29960 -0.17930 152 148 133
1.27456 -3.30404 -0.14194 153 158 152
1.26375 -3.31473 -0.13470 146 149 137
1.26272 -3.32417 -0.15317 159 167 156
1.25338 -3.33646 -0.14676 138 138 138
1.23553 -3.35032 -0.15459 141 143 131
1.23199 -3.33588 -0.13348 152 153 147
1.22136 -3.34675 -0.12634 150 150 161
1.21755 -3.35430 -0.10406 165 162 149
1.21056 -3.35743 -0.11911 158 152 156
1.20357 -3.36055 -0.13415 158 158 145
1.18091 -3.36993 -0.10006 148 147 144
1.16317 -3.38370 -0.10785 135 138 141
0.33705 -4.16202 0.46326 103 109 115
0.33328 -4.16950 0.48533 115 114 113
0.32636 -4.17260 0.47043 119 115 124
0.31943 -4.17569 0.45553 113 113 108
2.08117 -2.51447 -0.72115 79 82 86
2.06332 -2.52833 -0.72899 97 96 93
2.06320 -2.52074 -0.70963 93 91 92
2.01631 -2.54363 -0.67928 85 83 82
2.03407 -2.52985 -0.67149 81 83 88
2.02709 -2.53297 -0.68650 87 88 95
2.00681 -2.55511 -0.67282 80 73 73
1.97798 -2.58940 -0.65324 83 71 60
1.97306 -2.60396 -0.64951 86 82 88
1.94759 -2.62275 -0.63273 86 84 98
1.89334 -2.63980 -0.59804 122 120 121
1.88003 -2.64863 -0.58932 126 123 128
1.87854 -2.66566 -0.58762 132 132 130
1.86084 -2.67941 -0.59540 139 142 146
1.86608 -2.67510 -0.57940 127 127 131
1.84838 -2.68884 -0.58718 142 141 139
1.84924 -2.68143 -0.56859 129 128 126
1.83157 -2.69515 -0.57635 144 136 141
1.84197 -2.69450 -0.56345 133 132 136
1.82429 -2.70823 -0.57122 142 141 146
1.25588 -3.32748 -0.16835 164 179 168
1.23422 -3.32664 -0.15485 155 159 151
1.20720 -3.34211 -0.13726 136 143 148
1.20023 -3.34523 -0.15227 132 129 143
1.18946 -3.35589 -0.14505 144 147 145
1.18190 -3.35931 -0.12066 152 155 141
1.16418 -3.37306 -0.12844 129 130 137
1.16780 -3.36625 -0.11153 141 145 135
0.64454 -3.89235 0.23944 129 135 130
0.66226 -3.87859 0.24722 120 123 119
0.65530 -3.88170 0.23223 128 130 122
0.64833 -3.88481 0.21724 130 130 124
0.65150 -3.88923 0.25443 119 119 123
0.63757 -3.89546 0.22445 132 135 125
0.62947 -3.89620 0.24904 122 131 134
0.62568 -3.90372 0.27120 119 130 122
0.61873 -3.90683 0.25623 119 126 127
0.61178 -3.90993 0.24127 112 117 126
0.34765 -4.13660 0.43612 114 119 102
0.36523 -4.12295 0.44384 110 111 106
0.35832 -4.12604 0.42896 119 119 109
0.35142 -4.12913 0.41409 127 126 110
0.33007 -4.15025 0.42840 112 120 102
0.33738 -4.14794 0.44305 107 113 103
0.31980 -4.16159 0.43533 114 116 109
0.26314 -4.22287 0.49286 111 116 115
0.25937 -4.23034 0.51489 113 106 109
0.25246 -4.23343 0.50001 119 125 115
0.24555 -4.23652 0.48514 113 121 115
2.06991 -2.49758 -0.73442 84 84 85
2.08769 -2.48378 -0.72662 79 78 88
2.08071 -2.48690 -0.74166 84 81 86
2.07372 -2.49002 -0.75670 86 85 85
2.05213 -2.51138 -0.74223 101 97 97
2.05425 -2.50523 -0.72426 87 88 91
2.01696 -2.51664 -0.70035 91 89 88
2.00671 -2.52758 -0.69345 81 77 93
1.99860 -2.53988 -0.68784 74 68 76
1.99292 -2.55377 -0.68368 78 67 65
1.98194 -2.56427 -0.67634 75 80 94
1.97566 -2.57784 -0.67182 89 85 94
1.96701 -2.58990 -0.66588 95 90 92
1.96075 -2.60356 -0.66137 91 89 97
1.93899 -2.62479 -0.64680 83 76 91
1.93583 -2.64064 -0.64415 80 75 76
1.21981 -3.32181 -0.16555 164 173 156
1.22360 -3.31428 -0.18777 136 137 138
1.19881 -3.32143 -0.15238 148 154 150
1.16865 -3.35550 -0.13199 126 135 141
1.14299 -3.37206 -0.11517 135 138 147
1.13921 -3.37957 -0.09305 142 144 140
1.12533 -3.38577 -0.12292 147 151 157
0.33836 -4.13514 0.42255 114 119 105
0.27667 -4.20299 0.46417 118 116 113
0.26976 -4.20608 0.44930 120 120 120
0.25908 -4.21664 0.45645 116 122 119
0.26592 -4.21341 0.47136 117 117 111
0.24834 -4.22706 0.46364 115 116 125
1.94896 -2.05173 -0.69499 36 36 39
1.96511 -2.03919 -0.68790 37 30 32
1.95877 -2.04203 -0.70156 41 39 35
1.95242 -2.04487 -0.71523 37 40 41
1.94261 -2.05457 -0.70866 40 42 46
1.94550 -2.05859 -0.67476 22 26 32
1.95633 -2.07037 -0.69892 30 33 39
1.95285 -2.07727 -0.67859 22 26 35
1.94647 -2.08012 -0.69232 28 31 38
2.04958 -2.49245 -0.74136 91 90 92
2.05337 -2.48492 -0.76355 88 86 89
2.04262 -2.49556 -0.75635 95 93 98
2.01964 -2.50843 -0.72183 93 91 87
2.00196 -2.51466 -0.71042 81 68 73
1.99323 -2.52652 -0.70445 79 67 82
1.98642 -2.53964 -0.69964 91 89 101
1.97615 -2.55055 -0.69273 103 101 101
1.96641 -2.56181 -0.68614 110 111 117
1.95642 -2.57291 -0.67940 117 111 120
1.86237 -2.56332 -0.62038 119 121 116
1.90641 -2.62852 -0.64565 96 85 90
1.88694 -2.63317 -0.63318 85 91 89
1.86156 -2.63366 -0.61713 96 88 76
1.82067 -2.62323 -0.59171 89 96 114
1.81522 -2.63730 -0.58773 104 103 122
1.81429 -2.65461 -0.58646 122 125 135
1.80597 -2.66677 -0.58074 135 134 140
1.79533 -2.67730 -0.57361 152 145 147
1.17780 -3.30932 -0.15903 150 155 154
1.16824 -3.32110 -0.15254 143 137 134
1.15064 -3.33476 -0.16026 162 166 168
1.15842 -3.33261 -0.14589 147 154 150
1.15227 -3.34819 -0.14140 139 137 141
1.13464 -3.36187 -0.14914 151 154 140
1.14450 -3.36204 -0.13596 141 144 137
1.12686 -3.37573 -0.14370 145 149 152
1.13251 -3.37121 -0.12803 143 148 148
1.11488 -3.38490 -0.13577 142 148 155
0.34007 -4.12376 0.40169 113 115 108
0.35761 -4.11014 0.40940 131 136 114
0.35072 -4.11323 0.39456 114 124 112
0.34382 -4.11631 0.37972 115 111 115
0.33317 -4.12685 0.38685 112 112 116
0.32857 -4.13269 0.40930 101 99 99
0.32035 -4.14791 0.41508 94 92 105
0.30910 -4.15730 0.42255 101 105 112
0.30534 -4.16476 0.44454 111 110 110
0.29844 -4.16785 0.42970 101 105 105
0.29155 -4.17093 0.41485 118 123 123
0.27844 -4.19155 0.44325 115 115 121
0.29601 -4.17792 0.45096 112 108 111
0.28221 -4.18409 0.42124 120 117 122
0.27154 -4.19464 0.42839 128 123 137
1.95688 -2.07684 -0.71692 37 40 44
1.96036 -2.06993 -0.73728 43 42 49
1.95049 -2.07970 -0.73067 44 44 50
1.95920 -2.09302 -0.71780 35 36 42
1.95570 -2.09995 -0.69737 29 31 39
1.94929 -2.10281 -0.71117 31 30 42
2.01261 -2.49416 -0.73735 98 96 97
1.99886 -2.50283 -0.72832 74 68 77
1.98819 -2.51342 -0.72117 78 56 71
1.98178 -2.52674 -0.71662 99 96 91
1.96414 -2.54043 -0.72436 123 119 123
1.97047 -2.53694 -0.70908 120 121 125
1.95284 -2.55063 -0.71683 124 122 121
1.97195 -2.55543 -0.70936 124 121 120
1.95426 -2.56916 -0.71713 123 124 124
1.94862 -2.55783 -0.69447 123 124 124
1.93099 -2.57152 -0.70221 125 127 128
1.85433 -2.56556 -0.63435 138 136 128
1.83695 -2.57906 -0.64199 136 140 141
1.79979 -2.59878 -0.59855 120 117 108
1.80610 -2.62091 -0.60176 102 106 112
1.77722 -2.63634 -0.58289 99 96 98
1.16321 -3.30408 -0.16933 150 155 158
1.16696 -3.29663 -0.19131 149 156 159
1.15632 -3.30716 -0.18417 128 123 145
1.15532 -3.31763 -0.16385 154 156 157
1.13777 -3.33126 -0.17156 158 147 154
1.13654 -3.34153 -0.15107 156 154 150
1.12963 -3.34462 -0.16593 157 157 143
1.11896 -3.35517 -0.15879 147 149 139
0.32092 -4.13429 0.39490 108 103 104
0.32467 -4.12685 0.37294 112 109 107
0.31116 -4.14654 0.40153 107 104 106
0.29362 -4.16016 0.39383 109 114 118
0.30024 -4.15655 0.40882 112 121 125
0.28270 -4.17016 0.40112 107 111 117
0.25136 -4.18597 0.44089 128 126 129
0.25510 -4.17854 0.41899 126 123 126
0.24449 -4.18904 0.42610 129 123 121
0.23961 -4.19416 0.44864 111 117 108
0.22900 -4.20465 0.45574 109 113 113
1.94268 -2.04596 -0.72678 34 34 44
1.95920 -2.09927 -0.73558 40 40 49
1.96270 -2.09233 -0.75605 52 48 49
1.95278 -2.10214 -0.74941 46 46 51
1.97340 -2.12192 -0.74390 34 34 45
1.96988 -2.12891 -0.72330 30 29 42
1.96342 -2.13179 -0.73721 30 31 42
1.95696 -2.13468 -0.75113 35 37 38
1.94424 -2.34193 -0.71814 48 42 49
2.00420 -2.47909 -0.75191 93 89 97
2.01487 -2.46853 -0.75906 90 85 91
2.00797 -2.47162 -0.77392 85 85 90
1.98663 -2.49273 -0.75963 69 60 70
1.99414 -2.49002 -0.74514 78 75 83
1.97799 -2.49711 -0.73461 65 54 63
1.98108 -2.51640 -0.73595 90 89 84
1.96347 -2.53007 -0.74369 114 115 114
1.98145 -2.53407 -0.73561 118 116 111
1.96379 -2.54778 -0.74337 120 119 123
1.77375 -2.58847 -0.60137 140 140 137
1.77744 -2.58115 -0.62295 134 133 142
1.76698 -2.59149 -0.61594 134 134 138
1.77452 -2.62443 -0.60069 145 138 135
1.74840 -2.64163 -0.58347 81 84 70
1.74160 -2.65469 -0.57871 109 110 111
1.76260 -2.68795 -0.59102 137 138 148
1.75885 -2.69538 -0.56912 138 135 138
1.75198 -2.69845 -0.58391 145 141 147
1.74511 -2.70152 -0.59870 145 150 146
1.14020 -3.31170 -0.17374 145 157 167
1.14395 -3.30426 -0.19567 115 120 133
1.12269 -3.32529 -0.18143 158 162 150
0.31519 -4.13962 0.37940 112 109 106
0.31894 -4.13216 0.35743 116 122 116
0.30578 -4.15257 0.38583 113 112 109
0.28822 -4.16619 0.37812 117 119 116
0.23095 -4.19357 0.43488 114 112 103
0.23469 -4.18615 0.41301 134 130 118
0.21350 -4.20712 0.42722 118 121 111
0.22130 -4.20599 0.44145 108 112 106
0.21755 -4.21341 0.46332 115 113 116
0.21069 -4.21648 0.44855 116 124 120
0.20383 -4.21954 0.43378 114 118 116
0.20375 -4.23463 0.45357 118 121 120
0.18625 -4.24821 0.44588 102 107 109
1.94744 -2.05454 -0.74738 32 27 41
1.95091 -2.04766 -0.76766 23 20 31
1.95776 -2.07476 -0.75340 46 41 44
1.93513 -2.32714 -0.73148 53 48 50
1.94542 -2.31696 -0.73838 59 50 56
1.93876 -2.31994 -0.75271 57 53 57
1.92847 -2.33011 -0.74582 58 55 57
1.91819 -2.34029 -0.73892 57 58 59
1.92183 -2.33551 -0.72271 52 46 53
1.91149 -2.34564 -0.71578 54 44 66
1.89456 -2.35878 -0.72322 57 49 66
1.93066 -2.37367 -0.72725 58 56 75
1.93777 -2.39459 -0.73120 66 70 74
1.96747 -2.42958 -0.74921 80 83 82
1.98571 -2.47494 -0.75956 80 75 88
1.97668 -2.50374 -0.75293 87 78 82
1.97278 -2.51861 -0.74999 102 107 106
1.77927 -2.61780 -0.62305 139 139 151
1.77797 -2.63473 -0.62172 145 148 148
1.76059 -2.64823 -0.62935 110 108 111
1.73911 -2.64289 -0.59657 116 109 103
0.30524 -4.13677 0.36635 121 124 111
0.29836 -4.13985 0.35153 128 130 117
0.28772 -4.15036 0.35866 131 130 115
0.29513 -4.14831 0.37317 125 122 112
0.27761 -4.16191 0.36547 119 121 115
0.21834 -4.18483 0.42346 125 123 110
0.21150 -4.18788 0.40873 125 130 115
0.20093 -4.19834 0.41581 125 126 113
0.19440 -4.23250 0.44020 108 111 116
0.18753 -4.23557 0.42542 102 107 107
0.17692 -4.24606 0.43253 97 105 102
1.94229 -2.05801 -0.76183 28 21 35
1.94576 -2.05113 -0.78212 20 18 30
1.93593 -2.06085 -0.77553 22 19 31
1.95289 -2.07842 -0.76813 43 35 35
1.90277 -2.34736 -0.72881 60 56 61
1.91259 -2.38630 -0.73412 50 52 65
1.94367 -2.42213 -0.75320 67 73 68
1.96908 -2.45482 -0.76871 72 78 82
1.95228 -2.46138 -0.75771 59 55 68
1.95645 -2.48112 -0.75989 76 69 58
1.95927 -2.50014 -0.76120 96 98 101
1.95192 -2.51277 -0.75614 105 105 107
1.92830 -2.51494 -0.74086 114 117 110
1.91768 -2.52543 -0.73375 116 120 123
1.79577 -2.54887 -0.65461 132 126 130
1.80621 -2.53855 -0.66161 122 125 131
1.80253 -2.54585 -0.64007 131 131 135
1.79208 -2.55618 -0.63307 135 135 140
1.78518 -2.55910 -0.64753 138 134 138
1.78150 -2.56641 -0.62599 139 136 144
1.77474 -2.56943 -0.64053 140 139 144
1.78531 -2.59433 -0.64669 134 135 140
1.78883 -2.61452 -0.64843 128 136 138
1.78029 -2.62636 -0.64262 126 132 130
1.76625 -2.63433 -0.63337 116 117 122
1.73935 -2.65099 -0.61560 120 117 115
1.72440 -2.65819 -0.60578 103 109 119
1.72669 -2.67792 -0.60674 131 129 133
1.70932 -2.69141 -0.61437 152 159 150
0.22535 -4.15221 0.39888 116 120 121
0.23588 -4.14180 0.39182 119 122 118
0.23217 -4.14917 0.41355 128 131 122
0.21854 -4.15526 0.38421 124 119 106
0.19273 -4.21375 0.42150 113 116 109
0.18589 -4.21681 0.40676 106 103 106
1.96159 -2.08921 -0.79149 29 22 30
1.96509 -2.08226 -0.81197 21 19 30
1.95516 -2.09208 -0.80532 24 21 29
1.96415 -2.10563 -0.79277 38 34 40
1.97088 -2.12438 -0.79670 43 44 52
1.96735 -2.13138 -0.77606 45 46 46
1.96088 -2.13427 -0.79000 45 45 48
1.89491 -2.33327 -0.74273 61 60 64
1.90515 -2.32314 -0.74959 61 58 59
1.89710 -2.35093 -0.74374 68 66 67
1.90149 -2.37005 -0.74614 67 66 65
1.92465 -2.41758 -0.76004 57 52 51
1.93980 -2.44387 -0.76924 59 63 78
1.93548 -2.45817 -0.76612 50 51 69
1.95086 -2.48499 -0.77546 85 90 71
1.93339 -2.49855 -0.78313 98 98 101
1.93936 -2.49491 -0.76778 99 98 102
1.92776 -2.50476 -0.76005 100 101 102
1.90392 -2.50667 -0.74458 111 112 113
1.88423 -2.51117 -0.73173 114 118 131
1.88051 -2.51854 -0.70999 126 124 128
1.87369 -2.52159 -0.72467 125 123 131
1.80723 -2.52945 -0.68147 123 124 135
1.82442 -2.51612 -0.67392 119 125 130
1.81767 -2.51913 -0.68846 123 124 133
1.81399 -2.52644 -0.66693 129 128 133
1.78611 -2.53254 -0.66772 114 120 129
1.77328 -2.54118 -0.65922 125 124 123
1.76603 -2.55362 -0.65425 134 136 127
1.75804 -2.56558 -0.64880 129 128 131
1.74089 -2.57889 -0.65632 103 78 104
1.76403 -2.58729 -0.65217 118 112 130
1.76809 -2.60781 -0.65433 107 113 122
1.77252 -2.62875 -0.65672 100 103 97
1.76142 -2.63879 -0.64930 100 86 98
1.74334 -2.64383 -0.63749 111 106 131
1.72634 -2.64956 -0.62635 131 135 129
1.71359 -2.65832 -0.61789 109 110 124
1.70786 -2.67219 -0.61387 137 137 130
0.99390 -3.35745 -0.13599 162 164 158
1.01115 -3.34405 -0.12842 147 145 146
0.99759 -3.35012 -0.15760 157 159 165
1.00068 -3.35441 -0.12140 151 150 158
0.98712 -3.36048 -0.15059 158 169 171
0.99021 -3.36478 -0.11438 147 147 156
0.98401 -3.36849 -0.12934 152 152 158
0.98031 -3.37582 -0.10772 144 147 144
0.97353 -3.37886 -0.12232 145 148 152
0.20341 -4.15622 0.39403 118 118 104
0.19661 -4.15926 0.37939 116 117 109
0.18611 -4.16965 0.38643 111 117 114
-0.01616 -4.37687 0.54122 102 100 109
-0.00565 -4.36648 0.53418 96 97 100
-0.02296 -4.37991 0.52657 113 110 103
-0.01987 -4.38423 0.56290 121 112 106
-0.02667 -4.38727 0.54826 115 114 111
-0.03347 -4.39031 0.53362 114 113 107
1.98166 -2.15185 -0.82137 36 40 50
1.97811 -2.15890 -0.80058 36 40 36
1.99985 -2.19277 -0.83240 37 36 40
1.99626 -2.19989 -0.81139 42 41 54
1.98967 -2.20284 -0.82558 44 42 49
1.91157 -2.33392 -0.77219 68 64 68
1.92850 -2.32078 -0.76475 61 56 59
1.91520 -2.32673 -0.79339 67 65 73
1.90492 -2.33689 -0.78650 71 69 74
1.89464 -2.34706 -0.77962 73 70 75
1.89511 -2.34035 -0.76135 69 67 71
1.87821 -2.35347 -0.76877 78 76 78
1.89611 -2.35734 -0.76167 74 72 77
1.87916 -2.37050 -0.76911 82 77 81
1.89897 -2.37557 -0.76317 79 74 78
1.90912 -2.39842 -0.76932 72 67 63
1.91418 -2.41829 -0.77222 61 49 57
1.92059 -2.43915 -0.77598 51 43 58
1.91393 -2.45192 -0.77139 54 51 59
1.93491 -2.48229 -0.78444 86 93 91
1.91063 -2.50121 -0.76827 98 100 97
1.89571 -2.50884 -0.75841 109 115 114
1.87774 -2.51443 -0.74662 115 119 135
1.84804 -2.51223 -0.72734 118 118 124
1.84435 -2.51956 -0.70572 126 125 135
1.83021 -2.51772 -0.71564 121 122 121
1.81299 -2.53109 -0.72320 103 98 104
1.77365 -2.53167 -0.67857 109 109 123
1.76092 -2.54034 -0.67011 107 114 119
1.75202 -2.55162 -0.66410 115 121 113
1.75280 -2.56963 -0.66425 105 89 109
1.76840 -2.61585 -0.67349 100 97 98
1.75106 -2.62931 -0.68110 138 144 131
1.72407 -2.63792 -0.64422 135 134 141
1.70680 -2.65133 -0.65181 134 141 143
1.70974 -2.64551 -0.63475 132 135 138
1.69249 -2.65890 -0.64233 123 121 139
1.69913 -2.65577 -0.62764 117 125 139
1.67012 -2.67053 -0.60848 149 148 156
1.66644 -2.67784 -0.58692 138 146 145
1.65967 -2.68086 -0.60148 153 156 160
0.96906 -3.36186 -0.13881 155 163 161
0.97275 -3.35455 -0.16036 151 157 157
0.96230 -3.36488 -0.15337 158 165 154
0.95186 -3.37521 -0.14637 158 160 154
0.20057 -4.13550 0.37634 127 129 117
0.21104 -4.12514 0.36933 126 130 128
0.20427 -4.12817 0.35474 123 122 128
0.18333 -4.14888 0.36877 112 119 119
1.97988 -2.14194 -0.83873 26 25 40
1.98343 -2.13490 -0.85949 19 21 30
1.97337 -2.14485 -0.85275 20 19 31
1.96331 -2.15481 -0.84600 17 15 28
2.00054 -2.19971 -0.85127 33 29 32
1.88679 -2.39177 -0.77374 82 72 75
1.89043 -2.38453 -0.79508 86 82 87
1.89763 -2.41520 -0.78044 67 61 63
1.88050 -2.42850 -0.78797 49 47 60
1.90774 -2.43837 -0.78667 49 47 48
1.89856 -2.44953 -0.78048 53 50 47
1.90891 -2.47314 -0.78686 71 78 87
1.89395 -2.48071 -0.77696 94 96 97
1.88439 -2.49172 -0.77052 99 99 97
1.86707 -2.50516 -0.77813 87 81 77
1.86057 -2.49345 -0.75492 98 99 101
1.84331 -2.50684 -0.76250 74 69 76
1.84228 -2.49869 -0.74289 93 97 105
1.82454 -2.50421 -0.73120 96 99 109
1.76376 -2.53252 -0.69100 101 91 109
1.74533 -2.53726 -0.67888 91 95 119
1.74536 -2.55467 -0.67861 102 109 117
1.72826 -2.56795 -0.68612 127 128 127
1.74638 -2.57287 -0.67897 108 108 117
1.72922 -2.58618 -0.68651 139 142 130
1.74252 -2.58776 -0.67620 128 130 123
1.73528 -2.60034 -0.67126 137 144 134
1.71808 -2.61370 -0.67882 133 126 126
1.67326 -2.66281 -0.62969 146 141 147
1.66650 -2.66584 -0.64425 144 146 143
1.65605 -2.67617 -0.63725 138 141 146
1.65453 -2.66700 -0.61738 144 144 149
2.00693 -2.22562 -0.87372 30 30 32
1.99592 -2.23536 -0.86636 37 37 45
1.99230 -2.24254 -0.84518 47 44 46
1.98566 -2.24551 -0.85948 42 41 45
1.88754 -2.39938 -0.79298 85 81 86
1.89119 -2.39213 -0.81436 84 83 91
1.88792 -2.41635 -0.79301 65 62 70
1.86984 -2.45557 -0.78061 47 55 74
1.86951 -2.47239 -0.78017 70 79 83
1.85747 -2.48172 -0.77214 86 86 80
1.80970 -2.50186 -0.74049 81 78 97
1.78466 -2.50239 -0.72403 91 91 110
1.76758 -2.51564 -0.73153 120 125 128
1.77093 -2.51038 -0.71491 102 108 116
1.75388 -2.52362 -0.72240 116 119 125
1.75628 -2.51771 -0.70519 116 118 121
1.73924 -2.53093 -0.71267 123 122 129
1.73531 -2.52069 -0.69138 122 124 135
1.71833 -2.53387 -0.69884 127 127 120
1.73036 -2.53457 -0.68794 134 138 135
1.71335 -2.54777 -0.69541 128 124 125
1.72579 -2.54877 -0.68475 141 142 130
1.70875 -2.56200 -0.69223 117 119 122
1.73022 -2.60457 -0.68692 138 141 135
1.72346 -2.60759 -0.70148 132 132 140
1.70394 -2.62138 -0.66943 136 128 142
1.68675 -2.63472 -0.67698 143 151 147
1.68482 -2.62542 -0.65682 141 139 156
1.66767 -2.63872 -0.66434 130 128 144
0.31926 -3.94074 0.25764 130 130 130
0.33630 -3.92752 0.26512 114 113 119
0.32291 -3.93351 0.23630 126 133 129
0.32595 -3.93775 0.27205 120 119 121
0.31256 -3.94374 0.24323 129 130 125
0.31561 -3.94798 0.27899 114 118 119
0.30951 -3.95207 0.26420 114 114 113
0.30586 -3.95932 0.28555 111 122 122
0.29916 -3.96231 0.27113 109 109 114
1.99210 -2.23991 -0.88250 28 30 36
1.98111 -2.24966 -0.87515 37 38 41
1.97749 -2.25685 -0.85396 46 45 48
1.97527 -2.26234 -0.87116 42 43 49
1.97164 -2.26953 -0.84995 51 46 54
1.96499 -2.27251 -0.86428 48 47 51
1.96736 -2.28999 -0.86566 52 50 43
1.97404 -2.28701 -0.85129 53 46 49
1.96372 -2.29721 -0.84438 49 47 47
1.97409 -2.31012 -0.86990 51 52 45
1.97044 -2.31737 -0.84852 50 51 59
