ply
format ascii 1.0
element face 0
property list uchar int vertex_indices
element vertex 1293
property float x
property float y
property float z
property uchar diffuse_red
property uchar diffuse_green
property uchar diffuse_blue
end_header
-3.76972 -4.73397 1.97392 85 80 67
-4.13925 -4.70365 1.97843 110 89 81
-4.12431 -4.69529 1.99297 109 97 84
-4.12528 -4.69626 1.97712 105 95 85
-4.13828 -4.70267 1.99427 110 96 82
-4.15162 -4.72895 1.98347 111 97 88
-4.16700 -4.72056 1.98148 126 133 122
-4.17849 -4.75792 1.98904 146 162 151
-4.19087 -4.78662 1.99478 163 180 181
-4.21854 -4.80949 1.99907 162 175 183
-4.23367 -4.81796 1.98434 149 145 136
-4.23272 -4.81651 2.00030 158 163 163
-4.24785 -4.82497 1.98556 140 136 123
-4.45520 -5.90146 2.22150 154 151 188
-4.47241 -5.89279 2.21943 160 176 210
-4.49047 -5.90289 2.20185 207 228 245
0.49462 -4.53351 1.99469 46 59 77
0.51373 -4.52408 1.96947 179 196 192
0.46754 -4.53856 1.99533 89 95 105
0.44845 -4.54798 2.02051 178 173 169
0.44703 -4.54941 1.99724 160 160 165
0.44561 -4.55084 1.97397 135 137 141
-0.00941 -4.25005 1.92960 101 67 97
0.01085 -4.23871 1.94933 106 85 109
0.00954 -4.24002 1.92783 151 121 110
0.00823 -4.24134 1.90633 205 188 173
-0.01072 -4.25136 1.90810 202 181 164
-0.04633 -4.27099 1.93334 64 57 56
-0.16184 -4.21811 1.92089 181 181 175
-0.21753 -4.19288 1.91494 203 195 190
-0.23728 -4.20394 1.89571 207 199 189
-0.37332 -4.12530 1.89891 210 197 175
-0.42055 -4.10647 1.89438 172 149 126
-0.42844 -4.12574 1.89820 130 101 85
-0.46804 -4.11393 1.89522 78 56 48
-0.47336 -4.13580 1.89960 39 22 33
-0.49251 -4.14652 1.88095 30 19 17
-1.27664 -3.56838 1.77229 144 148 166
-1.27695 -3.61636 1.78207 205 199 189
-1.27800 -3.61741 1.76483 164 168 182
-1.29319 -3.62545 1.76625 194 191 190
-2.06900 -3.56355 1.75985 212 200 184
-2.05421 -3.55527 1.77426 210 196 187
-2.05516 -3.55623 1.75856 210 201 190
-2.06804 -3.56258 1.77555 209 197 184
-2.08167 -3.57250 1.76149 214 202 189
-2.09647 -3.58078 1.74708 234 244 240
-2.09492 -3.58066 1.76297 219 213 207
-2.10885 -3.58786 1.76423 232 232 230
-2.12798 -3.61491 1.76947 232 240 246
-2.14284 -3.62323 1.75501 177 182 222
-2.13846 -3.62724 1.77184 216 221 240
-2.16730 -3.64046 1.77411 165 169 222
-2.18138 -3.64756 1.77536 160 164 219
-2.19516 -3.65509 1.77669 169 164 221
-2.21146 -3.65881 1.77722 189 185 234
-2.22629 -3.66473 1.77821 216 218 244
-2.24113 -3.67304 1.76375 249 251 252
-2.24328 -3.66728 1.77848 236 239 247
-2.25810 -3.67558 1.76404 248 251 253
-2.25496 -3.67801 1.78050 246 249 251
-2.26980 -3.68632 1.76605 249 253 253
-2.69199 -3.65586 1.76967 239 244 248
-2.67793 -3.64799 1.78336 241 246 248
-2.67884 -3.64890 1.76844 245 251 250
-2.70606 -3.66373 1.75597 213 222 239
-2.70249 -3.66793 1.77198 224 231 243
-2.72083 -3.69756 1.77775 219 227 241
-2.73181 -3.70901 1.77993 235 243 248
-2.74597 -3.71694 1.76614 254 254 254
-2.74033 -3.72544 1.78316 249 253 253
-2.75453 -3.73339 1.76933 254 254 254
-3.27240 -3.86587 1.80410 252 254 252
-3.25864 -3.85817 1.81750 250 249 252
-3.25953 -3.85906 1.80290 252 251 252
-3.27151 -3.86498 1.81871 253 253 253
-3.28441 -3.87525 1.80584 247 248 246
-3.29594 -3.88612 1.80789 221 213 232
-3.30788 -3.89584 1.80970 192 183 228
-3.32131 -3.90103 1.81056 201 206 241
-3.33699 -3.89922 1.80997 222 230 254
-3.38364 -3.89366 1.80816 240 252 254
-3.39554 -3.89954 1.82386 254 254 254
-3.39718 -3.89797 1.80884 248 254 254
-3.41085 -3.90174 1.80941 247 254 252
-3.42377 -3.90798 1.81050 224 239 234
-3.42996 -3.93709 1.81634 148 162 172
-3.44838 -3.92463 1.81354 70 70 94
-3.45583 -3.94996 1.81860 35 35 53
-3.46956 -3.95764 1.80523 39 53 51
-3.46676 -3.96350 1.82120 40 48 56
-3.48051 -3.97120 1.80781 41 51 50
-3.68216 -4.68693 1.96559 60 53 52
-3.66653 -4.67819 1.98081 65 58 50
-3.66754 -4.67920 1.96423 64 54 58
-3.69823 -4.68689 1.96535 53 43 58
-3.71372 -4.68972 1.96571 58 58 74
-3.72930 -4.69844 1.95053 91 88 75
-3.73117 -4.68155 1.96379 84 87 85
-3.75727 -4.71382 1.96999 90 86 75
-3.75828 -4.71484 1.95345 82 79 61
-4.12840 -4.67457 1.95662 110 90 68
-4.11354 -4.66625 1.97109 105 98 92
-4.11450 -4.66722 1.95532 107 88 70
-4.14088 -4.69733 1.96108 125 116 95
-4.15374 -4.71699 1.96491 134 145 115
-4.16869 -4.72536 1.95035 142 164 170
-4.16431 -4.76429 1.97440 147 167 157
-4.19184 -4.78759 1.97875 165 181 182
-4.20695 -4.79604 1.96404 146 145 145
-4.20507 -4.80683 1.98248 158 168 172
-4.22022 -4.81531 1.96774 146 143 134
-4.21867 -4.82205 1.98539 151 151 151
-4.43900 -5.91393 2.20484 115 102 152
-4.47357 -5.89455 2.20039 163 190 219
-4.49163 -5.90465 2.18281 208 222 245
0.48824 -4.53057 1.97045 75 83 77
0.50733 -4.52114 1.94526 219 229 228
0.48682 -4.53199 1.94717 115 123 129
0.49694 -4.56731 1.97793 51 46 55
0.47488 -4.57966 1.95645 98 102 119
-0.03479 -4.25666 1.90886 184 163 115
-0.01717 -4.24797 1.88561 200 189 179
-0.03610 -4.25798 1.88738 203 188 168
-0.08878 -4.23413 1.90365 153 137 60
-0.10547 -4.24602 1.90582 145 135 105
-0.15426 -4.22774 1.90154 181 175 165
-0.17422 -4.23891 1.88211 202 192 186
-0.21147 -4.20112 1.89547 202 192 187
-0.23125 -4.21219 1.87621 206 193 190
-0.32008 -4.15199 1.88424 194 190 191
-0.36982 -4.13114 1.87942 196 180 179
-0.40312 -4.12587 1.87794 187 166 138
-0.42438 -4.13218 1.87894 146 120 92
-0.45851 -4.12577 1.87722 111 85 59
-0.47287 -4.13876 1.87964 55 35 30
-1.22570 -3.60040 1.76208 20 17 55
-1.21153 -3.59340 1.74338 24 20 25
-1.22675 -3.60146 1.74481 20 18 27
-1.25397 -3.59460 1.76056 55 65 99
-1.29061 -3.57966 1.75710 114 125 152
-1.36239 -3.57455 1.75516 211 201 191
-1.37733 -3.58246 1.75655 223 216 205
-1.37837 -3.58349 1.73960 202 195 186
-2.04687 -3.54357 1.74025 214 204 192
-2.03210 -3.53531 1.75463 212 204 193
-2.03306 -3.53627 1.73896 214 207 196
-2.04591 -3.54261 1.75592 212 204 191
-2.07603 -3.55602 1.74237 224 215 212
-2.09299 -3.55887 1.74273 235 234 225
-2.11213 -3.58550 1.74783 229 236 243
-2.11309 -3.58646 1.73213 193 192 226
-2.12434 -3.59515 1.74961 212 210 232
-2.13514 -3.60688 1.75182 189 188 223
-2.15306 -3.63598 1.75743 183 193 227
-2.16965 -3.63937 1.75790 206 211 236
-2.18899 -3.63857 1.75750 226 228 240
-2.20381 -3.64687 1.74306 252 252 252
-2.20157 -3.64784 1.75920 237 238 245
-2.21641 -3.65614 1.74475 249 251 252
-2.21521 -3.65553 1.76057 245 247 250
-2.23005 -3.66384 1.74612 249 252 252
-2.22444 -3.67001 1.76335 249 251 252
-2.23930 -3.67833 1.74888 249 251 252
-2.68517 -3.63955 1.75139 234 241 247
-2.67115 -3.63170 1.76504 245 247 249
-2.67206 -3.63262 1.75016 244 252 251
-2.69550 -3.65181 1.75372 218 225 241
-2.71276 -3.68322 1.75980 224 230 244
-2.72688 -3.69112 1.74606 252 253 253
-2.72355 -3.69493 1.76201 240 244 249
-2.73768 -3.70284 1.74825 254 254 254
-2.73244 -3.71050 1.76502 250 253 253
-2.74660 -3.71842 1.75123 254 254 254
-3.26268 -3.85341 1.78695 249 253 251
-3.24894 -3.84572 1.80033 252 251 252
-3.24983 -3.84661 1.78575 254 254 254
-3.27389 -3.86503 1.78914 235 236 236
-3.28366 -3.88102 1.79222 209 197 205
-3.29310 -3.89820 1.79555 166 146 165
-3.30215 -3.91684 1.79917 129 109 146
-3.31453 -3.92553 1.80076 126 118 164
-3.32887 -3.92817 1.80111 137 138 185
-3.34208 -3.93423 1.80215 142 152 194
-3.36143 -3.92072 1.79920 144 158 213
-3.38312 -3.89909 1.79458 168 181 233
-3.40121 -3.88856 1.79224 195 204 249
-3.41319 -3.89782 1.79395 193 191 232
-3.41768 -3.93229 1.80080 144 155 172
-3.43712 -3.91661 1.79741 63 67 80
-3.44724 -3.93250 1.80047 31 36 37
-3.46092 -3.94016 1.78715 41 50 48
-3.45884 -3.94344 1.80252 38 47 46
-3.47254 -3.95111 1.78918 39 49 49
-3.67306 -4.65709 1.94295 71 59 70
-3.65752 -4.64839 1.95809 66 56 57
-3.65852 -4.64940 1.94159 68 59 61
-3.65953 -4.65041 1.92510 73 65 71
-3.68861 -4.66579 1.92781 87 84 86
-3.68928 -4.65598 1.94252 75 66 71
-3.70480 -4.66466 1.92741 86 83 69
-3.70067 -4.68028 1.94725 72 74 63
-3.71624 -4.68900 1.93209 87 81 64
-3.71818 -4.67200 1.94537 88 85 69
-3.74460 -4.70206 1.95106 87 83 67
-3.74561 -4.70307 1.93454 81 76 56
-3.76017 -4.71077 1.93590 78 74 46
-3.82046 -5.03395 2.01667 85 79 61
-3.80400 -5.02473 2.03271 75 77 51
-3.80506 -5.02580 2.01524 86 87 63
-3.81940 -5.03288 2.03415 78 79 48
-3.83480 -5.04102 2.03559 78 73 44
-3.83497 -5.04816 2.01934 76 66 50
-3.84933 -5.05524 2.03828 70 63 32
-3.85097 -5.05232 2.01997 66 58 38
-3.86531 -5.05940 2.03889 63 56 35
-3.86637 -5.06047 2.02141 59 54 33
-3.86744 -5.06154 2.00393 57 50 21
-4.11649 -4.65767 1.93743 113 106 108
-4.10167 -4.64937 1.95187 102 93 80
-4.10263 -4.65034 1.93614 100 89 77
-4.13999 -4.71856 1.94935 168 183 174
-4.15326 -4.73427 1.95233 157 175 166
-4.17985 -4.76706 1.95857 145 165 176
-4.19302 -4.78600 1.96220 148 157 162
-4.20812 -4.79445 1.94750 144 144 132
1.62964 -5.16568 2.08472 144 158 175
1.65538 -5.15127 2.10979 136 149 171
1.65372 -5.15294 2.08247 140 153 172
1.63131 -5.16400 2.11204 140 151 174
1.60723 -5.17674 2.11429 145 155 176
1.63165 -5.19997 2.09151 150 163 175
1.60914 -5.21107 2.12120 148 158 180
1.61038 -5.21518 2.09427 154 167 178
1.58786 -5.22629 2.12398 149 160 183
1.58710 -5.22873 2.09669 158 170 184
1.56458 -5.23985 2.12641 155 166 182
1.56291 -5.24153 2.09895 163 173 187
-0.06536 -4.25839 1.88714 201 183 152
-0.04778 -4.24972 1.86395 196 185 175
-0.06667 -4.25971 1.86572 199 185 179
-0.08555 -4.26969 1.86748 201 186 183
-0.10292 -4.25093 1.88526 195 180 162
-0.12302 -4.26218 1.86568 202 191 186
-0.15619 -4.22844 1.88024 199 188 179
-0.17614 -4.23961 1.86081 202 191 185
-0.32579 -4.14898 1.86270 187 177 186
-0.30888 -4.14063 1.84038 203 189 186
-0.38424 -4.11967 1.85628 174 144 168
-0.39279 -4.13838 1.85988 192 177 156
-0.42376 -4.13526 1.85892 157 136 110
-0.43228 -4.15410 1.86254 123 107 79
-0.47279 -4.14132 1.85958 63 54 41
-0.48142 -4.16009 1.86319 30 23 25
-0.49814 -4.16834 1.88525 27 22 25
-0.49939 -4.16959 1.86487 23 21 27
-0.50063 -4.17084 1.84448 23 19 21
-1.27283 -3.57674 1.73942 11 19 35
-1.25879 -3.56981 1.72090 26 19 27
-1.27387 -3.57779 1.72231 21 20 24
-1.32205 -3.54820 1.73326 31 38 73
-1.31988 -3.57450 1.73847 73 86 126
-1.34633 -3.57003 1.73730 128 140 168
-1.38303 -3.55418 1.73377 178 179 186
-1.44485 -3.55849 1.73394 227 223 216
-1.42906 -3.54965 1.74932 234 233 227
-1.43009 -3.55068 1.73256 213 206 196
-1.45860 -3.56527 1.75207 251 250 248
-1.45470 -3.57182 1.73646 241 238 235
-1.46847 -3.57861 1.75463 251 249 245
-1.48328 -3.56406 1.73462 248 246 244
-1.49698 -3.57082 1.75270 250 247 243
-1.49800 -3.57185 1.73599 250 248 244
-2.02811 -3.51920 1.71980 219 207 204
-2.01339 -3.51096 1.73413 219 210 199
-2.01434 -3.51192 1.71851 222 212 205
-2.02716 -3.51825 1.73542 215 208 201
-2.04011 -3.52890 1.72158 220 207 203
-2.05230 -3.53837 1.72331 227 218 213
-2.06746 -3.54375 1.72421 234 236 228
-2.09425 -3.55941 1.72700 226 231 239
-2.09520 -3.56037 1.71137 192 204 225
-2.10508 -3.57088 1.72915 207 206 224
-2.13050 -3.58861 1.73237 192 194 232
-2.14156 -3.59992 1.73448 205 207 234
-2.15286 -3.61092 1.73652 222 225 237
-2.16766 -3.61920 1.72211 253 254 253
-2.16660 -3.61840 1.73785 235 239 245
-2.18140 -3.62668 1.72344 253 254 253
-2.17844 -3.62869 1.73975 245 247 250
-2.19325 -3.63698 1.72532 251 253 253
-2.19425 -3.63308 1.74044 251 252 252
-2.20905 -3.64137 1.72603 250 252 252
-2.67088 -3.60606 1.72989 244 250 250
-2.65694 -3.59826 1.74346 243 245 247
-2.65784 -3.59916 1.72867 247 251 251
-2.66998 -3.60515 1.74468 245 249 250
-2.68482 -3.61386 1.71631 215 221 239
-2.67887 -3.62243 1.73303 230 236 245
-2.68902 -3.63489 1.73538 215 223 241
-2.70959 -3.65958 1.74002 231 239 246
-2.72363 -3.66744 1.72635 253 254 254
-2.71672 -3.67821 1.74362 246 249 251
-2.73081 -3.68609 1.72990 254 254 254
-3.24264 -3.82719 1.76725 250 254 252
-3.22895 -3.81953 1.78058 254 254 254
-3.22984 -3.82042 1.76605 254 254 254
-3.24176 -3.82630 1.78178 254 254 254
-3.25375 -3.83882 1.76942 240 242 240
-3.26223 -3.85820 1.77315 218 211 218
-3.26953 -3.88131 1.77763 183 171 180
-3.28024 -3.89471 1.78016 151 136 136
-3.29021 -3.91050 1.78316 132 115 110
-3.30430 -3.91394 1.78369 117 104 92
-3.31588 -3.92503 1.78575 106 96 95
-3.33014 -3.92789 1.78616 89 79 103
-3.34779 -3.91997 1.78440 68 67 112
-3.35855 -3.93367 1.78699 53 60 127
-3.38013 -3.91253 1.78258 59 64 143
-3.39918 -3.89899 1.77970 82 87 163
-3.41195 -3.90574 1.78089 83 77 148
-3.42734 -3.90370 1.78032 52 57 94
-3.44096 -3.91133 1.76705 40 45 43
-3.43804 -3.91739 1.78290 33 36 36
-3.45169 -3.92503 1.76961 40 46 46
-3.44920 -3.92969 1.78521 37 44 34
-3.46287 -3.93734 1.77189 40 46 51
-3.67579 -4.64923 1.92468 83 76 78
-3.66229 -4.64256 1.90686 83 83 83
-3.67680 -4.65024 1.90822 89 86 73
-3.80331 -5.04526 2.00142 87 87 64
-3.78678 -5.03601 2.01752 84 80 69
-3.78785 -5.03708 1.99998 93 90 73
-3.81934 -5.04959 2.00210 79 71 58
-3.83474 -5.05806 2.00360 70 59 38
-3.85126 -5.06731 1.98752 59 51 21
-4.07550 -4.63998 1.91848 97 87 77
-4.06066 -4.63168 1.93293 94 89 73
-4.06162 -4.63264 1.91718 91 87 71
-4.06258 -4.63361 1.90144 89 88 69
-4.07454 -4.63902 1.93422 97 90 74
-4.08841 -4.64636 1.93552 99 88 67
-4.09166 -4.62538 1.91542 105 101 89
-4.10336 -4.65351 1.92084 123 133 131
-4.11820 -4.66181 1.90640 157 175 184
-4.11489 -4.68488 1.92690 147 164 163
-4.12887 -4.69185 1.92813 163 184 188
-4.14129 -4.71592 1.93274 166 187 195
-4.15445 -4.73275 1.93592 162 179 181
-4.16725 -4.75452 1.94007 153 165 168
-4.18229 -4.76294 1.92542 141 145 137
-4.18147 -4.76016 1.94103 148 153 154
-4.19650 -4.76857 1.92639 145 144 131
1.59846 -5.01565 2.02770 134 144 168
1.62369 -5.00153 2.05227 126 142 167
1.62205 -5.00317 2.02549 130 147 168
1.62042 -5.00481 1.99872 138 153 169
1.60009 -5.01401 2.05447 133 142 162
1.57649 -5.02648 2.05667 141 156 169
1.59589 -5.04507 2.03338 142 162 172
1.57385 -5.05595 2.06246 143 155 173
1.61645 -5.09347 2.04296 150 168 178
1.61668 -5.12574 2.04922 149 162 178
1.61992 -5.16074 2.05604 152 164 187
1.62051 -5.19383 2.06246 156 167 196
1.60585 -5.21448 2.06634 161 175 197
1.57141 -5.21868 2.06683 168 181 197
1.56161 -5.24353 2.07156 174 179 199
1.53909 -5.25465 2.10128 165 165 189
1.54472 -5.26252 2.07509 173 170 194
1.52217 -5.27365 2.10484 170 172 192
1.52049 -5.27533 2.07735 182 175 197
1.51881 -5.27702 2.04987 183 175 200
-0.33140 -4.14606 1.84123 205 182 175
-0.31450 -4.13773 1.81894 205 189 183
-0.33265 -4.14733 1.82063 205 191 179
-0.37726 -4.12887 1.83747 188 155 147
-0.38894 -4.14459 1.84042 201 188 162
-0.41801 -4.14336 1.83991 169 152 135
-0.43386 -4.15502 1.84203 136 115 87
-0.44894 -4.16748 1.84430 86 77 45
-0.47720 -4.16680 1.84391 41 29 22
-1.31128 -3.56186 1.71888 15 17 29
-1.29734 -3.55498 1.70048 25 21 26
-1.31232 -3.56290 1.70188 23 23 30
-1.32730 -3.57083 1.70328 20 21 35
-1.35575 -3.53801 1.71384 10 19 49
-1.39592 -3.54226 1.71429 103 111 146
-1.40178 -3.55991 1.71766 153 158 170
-1.45172 -3.55300 1.71586 209 201 191
-1.46200 -3.56581 1.71825 221 211 206
-1.48983 -3.55883 1.71664 233 227 227
-1.51629 -3.55320 1.71531 243 241 239
-1.52992 -3.55992 1.73329 249 246 242
-1.53093 -3.56094 1.71667 249 248 245
-2.03067 -3.51798 1.70374 227 221 219
-2.04538 -3.52621 1.68941 239 238 242
-2.06072 -3.52905 1.70561 241 244 239
-2.07339 -3.53781 1.70719 230 229 234
-2.07970 -3.55548 1.71056 204 206 219
-2.10697 -3.57051 1.71322 202 202 228
-2.12549 -3.57104 1.71316 222 221 236
-2.13896 -3.57875 1.71453 234 235 246
-2.15368 -3.58699 1.70019 254 254 254
-2.15150 -3.58781 1.71617 243 244 250
-2.16623 -3.59606 1.70183 253 254 254
-2.16177 -3.60024 1.71849 250 251 251
-2.17652 -3.60849 1.70412 253 254 253
-2.66690 -3.58502 1.71088 239 243 249
-2.65302 -3.57725 1.72440 246 250 250
-2.65391 -3.57815 1.70967 246 253 252
-2.67675 -3.59771 1.71325 224 229 242
-2.69505 -3.62609 1.71859 223 229 243
-2.70901 -3.63390 1.70499 252 253 253
-2.70516 -3.63864 1.72093 239 244 249
-2.71914 -3.64647 1.70731 254 254 254
-2.71499 -3.65182 1.72340 249 252 252
-2.72900 -3.65966 1.70975 254 254 254
-3.22371 -3.79848 1.74716 252 254 253
-3.21008 -3.79085 1.76044 254 254 254
-3.21096 -3.79174 1.74597 254 254 254
-3.22283 -3.79759 1.76163 254 254 254
-3.23187 -3.81809 1.75089 244 248 247
-3.24313 -3.82920 1.75294 225 222 225
-3.25344 -3.84315 1.75555 190 178 188
-3.26294 -3.85960 1.75866 159 143 157
-3.27133 -3.87955 1.76245 141 126 129
-3.27989 -3.89932 1.76621 131 125 104
-3.29103 -3.91161 1.76849 126 119 96
-3.30417 -3.91796 1.76960 112 107 79
-3.31552 -3.92981 1.77179 90 88 64
-3.32722 -3.94072 1.77380 65 62 69
-3.34112 -3.94850 1.76026 43 45 57
-3.33970 -3.94922 1.77533 48 49 69
-3.35361 -3.95700 1.76179 43 47 51
-3.35756 -3.94060 1.77350 33 41 66
-3.37141 -3.94835 1.76001 43 47 52
-3.37631 -3.92866 1.77101 27 33 66
-3.39010 -3.93637 1.75758 42 46 54
-3.39716 -3.90938 1.76708 27 30 66
-3.41085 -3.91704 1.75374 41 44 54
-3.41306 -3.90587 1.76625 27 29 66
-3.42672 -3.91351 1.75295 42 45 46
-3.42772 -3.90627 1.76619 31 36 57
-3.44135 -3.91390 1.75292 41 47 40
-3.63106 -4.56046 1.89122 63 63 53
-3.61575 -4.55189 1.90614 62 55 40
-3.61674 -4.55289 1.88989 62 57 49
-3.61773 -4.55389 1.87364 71 69 64
-3.63007 -4.55947 1.90748 57 57 38
-3.64440 -4.56704 1.90881 59 59 53
-3.64294 -4.58000 1.89490 67 64 63
-3.65829 -4.58859 1.87995 88 83 73
-3.65225 -4.61267 1.90116 77 70 69
-3.66769 -4.62132 1.88612 88 82 76
-3.79006 -5.03090 1.98102 92 86 59
-3.77462 -5.02274 1.97958 96 92 56
-3.77569 -5.02381 1.96206 91 87 50
-3.80307 -5.05486 1.98555 84 77 54
-3.81901 -5.06004 1.98640 73 63 46
-3.83555 -5.06930 1.97029 56 50 30
-3.83274 -5.08012 1.99017 63 54 22
-3.84933 -5.08940 1.97402 54 49 35
-4.07804 -4.62618 1.89985 114 119 118
-4.09003 -4.65120 1.90460 144 154 165
-4.10488 -4.65951 1.89014 161 174 193
-4.10338 -4.66382 1.90692 157 171 185
-4.12962 -4.69515 1.91276 161 176 183
-4.14250 -4.71427 1.91635 161 167 162
-4.15745 -4.72264 1.90179 145 141 136
-4.15586 -4.72881 1.91905 155 154 146
-4.17083 -4.73720 1.90446 143 144 135
-4.16814 -4.75653 1.92431 144 146 141
-4.18318 -4.76494 1.90966 145 145 137
1.57292 -4.99814 1.99709 141 150 169
1.57646 -5.03238 2.00365 146 157 174
1.59980 -5.08296 2.01347 156 175 188
1.60237 -5.11707 2.01999 159 171 194
1.60188 -5.14894 2.02606 160 174 196
1.60627 -5.18510 2.03299 165 180 197
1.57201 -5.18938 2.03355 171 187 202
1.54089 -5.19618 2.03462 192 205 212
1.52227 -5.21345 2.03777 205 218 234
1.52094 -5.24545 2.04386 191 195 219
-0.37003 -4.13833 1.81864 206 190 174
-0.35321 -4.13002 1.79644 203 189 179
-0.37128 -4.13958 1.79813 204 190 181
-0.38936 -4.14914 1.79982 205 191 177
-0.38868 -4.14732 1.82021 209 194 173
-0.40758 -4.15606 1.82174 194 173 143
-0.43306 -4.15829 1.82197 148 124 82
-0.43931 -4.17955 1.82598 116 95 59
-0.46578 -4.18072 1.82601 59 38 32
-0.48194 -4.19216 1.82807 25 20 21
-0.49875 -4.20045 1.85024 22 22 24
-0.50000 -4.20171 1.82975 23 20 23
-0.50125 -4.20297 1.80927 24 20 28
-1.37870 -3.53921 1.69687 15 19 48
-1.36491 -3.53241 1.67868 25 23 30
-1.37972 -3.54024 1.68006 25 23 34
-1.40620 -3.53317 1.69551 26 29 67
-1.44358 -3.54003 1.69654 118 131 160
-1.46165 -3.54408 1.69717 172 175 187
-1.47017 -3.55880 1.69992 200 192 195
-1.48151 -3.57041 1.70205 214 201 200
-1.51575 -3.55599 1.69904 226 217 213
-1.57277 -3.53944 1.69546 247 244 244
-1.58628 -3.54610 1.71329 250 246 243
-1.58728 -3.54711 1.69682 250 247 246
-1.99381 -3.49251 1.68337 230 225 221
-1.97912 -3.48429 1.69768 231 225 217
-1.98007 -3.48525 1.68209 232 227 221
-1.99286 -3.49156 1.69896 227 222 216
-2.00816 -3.49897 1.68449 233 228 224
-2.02301 -3.50472 1.68548 234 234 233
-2.03769 -3.51294 1.67118 221 212 231
-2.07721 -3.53477 1.69081 223 226 241
-2.08357 -3.55236 1.69411 224 218 228
-2.10196 -3.55314 1.69412 229 232 236
-2.11666 -3.56136 1.67981 254 254 253
-2.11649 -3.55930 1.69519 238 239 246
-2.13119 -3.56752 1.68088 254 254 254
-2.13024 -3.56656 1.69647 249 249 250
-2.14493 -3.57479 1.68216 254 254 254
-2.14199 -3.57670 1.69832 253 253 253
-2.15670 -3.58494 1.68399 254 254 254
-2.65052 -3.55641 1.69065 245 253 251
-2.63670 -3.54867 1.70411 242 247 248
-2.63760 -3.54957 1.68944 247 250 251
-2.64963 -3.55551 1.70532 245 250 250
-2.66434 -3.56414 1.67719 210 215 238
-2.66099 -3.56773 1.69273 230 235 246
-2.67045 -3.58101 1.69519 215 219 241
-2.67882 -3.59644 1.69807 213 222 240
-2.68952 -3.60762 1.70013 228 236 245
-2.70344 -3.61541 1.68658 253 253 253
-2.69899 -3.62123 1.70265 244 247 250
-2.71293 -3.62903 1.68908 254 254 254
-3.15397 -3.70433 1.71510 250 251 252
-3.16569 -3.71011 1.73055 253 254 254
-3.16743 -3.71186 1.70200 238 238 239
-3.20521 -3.76927 1.72710 252 253 253
-3.19164 -3.76168 1.74032 252 253 253
-3.19252 -3.76256 1.72592 249 249 250
-3.20434 -3.76839 1.74150 254 254 254
-3.21558 -3.78237 1.72952 247 252 247
-3.22553 -3.79677 1.73219 231 228 230
-3.22920 -3.82897 1.73831 201 190 204
-3.24321 -3.83237 1.73885 168 156 172
-3.25115 -3.85316 1.74275 146 132 142
-3.26189 -3.86613 1.74515 136 126 127
-3.27325 -3.87743 1.74722 133 129 121
-3.28149 -3.89812 1.75110 122 122 109
-3.29111 -3.91499 1.75425 101 99 91
-3.30276 -3.92590 1.75624 71 76 68
-3.31665 -3.93367 1.74271 36 45 56
-3.31146 -3.94600 1.76001 49 57 56
-3.32541 -3.95381 1.74643 41 44 55
-3.32354 -3.95589 1.76180 40 45 57
-3.33750 -3.96370 1.74822 43 44 55
-3.61756 -4.48059 1.85966 64 57 39
-3.60247 -4.47215 1.87435 58 56 42
-3.60345 -4.47313 1.85834 60 54 47
-3.61658 -4.47961 1.87567 59 56 41
-3.63675 -4.53891 1.87064 78 84 67
-3.63774 -4.53990 1.85447 86 93 74
-3.65199 -4.54744 1.85580 84 87 68
-3.64798 -4.56121 1.87481 88 86 69
-3.66327 -4.56976 1.85992 84 82 70
-3.80011 -5.08230 1.97303 79 72 47
-3.81676 -5.09161 1.95683 65 54 33
-3.81618 -5.08717 1.97384 69 59 42
-3.83281 -5.09648 1.95764 57 46 24
-4.06644 -4.60821 1.88065 119 128 125
-4.05169 -4.59996 1.89501 77 69 53
-4.05265 -4.60092 1.87936 83 87 74
-4.07806 -4.63588 1.88583 148 163 172
-4.09155 -4.64674 1.88780 159 170 191
-4.11772 -4.67755 1.89348 158 173 181
-4.13026 -4.69954 1.89758 153 161 155
-4.14519 -4.70789 1.88305 146 143 133
-4.14321 -4.71808 1.90102 148 145 141
-4.15817 -4.72645 1.88645 143 145 130
-4.31496 -5.68512 2.08414 45 34 58
1.53378 -4.84723 1.94162 135 145 166
1.55838 -4.83346 1.96558 128 140 159
1.55679 -4.83506 1.93947 134 143 161
1.53538 -4.84563 1.96773 131 144 164
1.52494 -4.87054 1.94594 139 151 173
1.55392 -4.92394 1.95611 141 156 177
1.52906 -4.93786 1.93189 151 172 182
1.55791 -4.95795 1.96251 146 165 177
1.57175 -5.00013 1.97049 148 163 179
1.57338 -5.03285 1.97663 145 161 187
1.59327 -5.08065 1.98570 166 180 189
1.58996 -5.10994 1.99117 171 178 194
1.56171 -5.11894 1.99270 173 188 211
1.53623 -5.13320 1.96788 202 222 231
1.55485 -5.14559 1.99765 190 205 222
1.54543 -5.17029 2.00223 202 219 231
1.53131 -5.19121 2.00607 208 223 238
1.52462 -5.21851 2.01114 204 226 247
1.50669 -5.23644 2.01440 186 201 230
1.48026 -5.24718 2.01626 167 175 202
1.45785 -5.25824 2.04583 188 187 212
-0.39859 -4.16737 1.80318 203 189 157
-0.38173 -4.15905 1.78094 205 191 180
-0.40880 -4.18475 1.80638 154 137 98
-0.43369 -4.18763 1.80678 126 109 74
-0.44183 -4.20720 1.81040 69 50 53
-0.47403 -4.20265 1.80936 31 22 35
-0.49338 -4.21348 1.79052 28 20 29
-1.53695 -3.55840 1.68256 221 207 204
-1.55258 -3.56715 1.66734 211 201 197
-1.97400 -3.47014 1.66353 235 227 225
-1.95935 -3.46194 1.67780 235 229 218
-1.96030 -3.46289 1.66225 238 229 217
-1.97306 -3.46919 1.67908 233 228 223
-1.99570 -3.49222 1.66754 243 239 237
-2.01038 -3.50044 1.65324 253 253 252
-2.01349 -3.49406 1.66778 246 246 241
-2.05216 -3.51919 1.67227 237 232 243
-2.06684 -3.52741 1.65798 253 254 253
-2.07029 -3.52038 1.67239 243 246 248
-2.08494 -3.52858 1.65812 254 254 254
-2.08383 -3.52786 1.67371 243 246 251
-2.09848 -3.53606 1.65945 254 254 254
-2.09515 -3.53844 1.67563 249 246 248
-2.10981 -3.54665 1.66135 254 254 254
-2.10918 -3.54525 1.67683 253 252 251
-2.12384 -3.55345 1.66255 254 254 254
-2.65388 -3.55282 1.67513 226 232 243
-2.67531 -3.57459 1.67909 218 226 241
-2.68397 -3.58941 1.68182 236 243 247
-2.69783 -3.59717 1.66832 254 254 254
-2.69334 -3.60303 1.68432 248 251 252
-2.70723 -3.61080 1.67079 254 254 254
-3.13395 -3.68113 1.69643 247 253 252
-3.12054 -3.67362 1.70949 254 254 254
-3.12141 -3.67449 1.69526 254 254 254
-3.14360 -3.69515 1.69900 231 237 246
-3.15532 -3.70398 1.70059 231 234 241
-3.19581 -3.75699 1.71029 246 250 248
-3.18226 -3.74940 1.72348 244 243 245
-3.18314 -3.75028 1.70911 248 247 244
-3.20666 -3.76862 1.71241 237 235 237
-3.21477 -3.78790 1.71598 211 201 209
-3.22717 -3.79554 1.71734 178 162 173
-3.23204 -3.82437 1.72271 154 137 146
-3.24105 -3.84192 1.72595 142 131 133
-3.25178 -3.85481 1.72830 138 133 130
-3.26289 -3.86672 1.73047 133 127 127
-3.27201 -3.88460 1.73377 113 110 113
-3.27801 -3.91206 1.73888 81 86 94
-3.29264 -3.91398 1.73915 58 59 69
-3.30651 -3.92174 1.72564 42 43 40
-3.30173 -3.93269 1.74261 42 47 51
-3.31564 -3.94048 1.72906 44 47 49
-3.59759 -4.43387 1.83483 58 55 50
-3.58262 -4.42549 1.84941 56 54 42
-3.58359 -4.42646 1.83352 58 53 35
-3.59662 -4.43289 1.85072 56 54 44
-3.61018 -4.44778 1.83736 67 60 67
-3.62518 -4.45617 1.82276 87 93 83
-3.63063 -4.49857 1.84676 84 90 67
-3.64575 -4.50703 1.83204 85 84 65
-3.71575 -4.80023 1.90280 84 78 41
-3.69984 -4.79133 1.91830 81 72 57
-3.70087 -4.79236 1.90141 81 71 49
-3.71472 -4.79920 1.91969 78 72 53
-3.72960 -4.80707 1.92108 75 74 53
-3.73166 -4.80914 1.88731 98 94 55
-3.72161 -4.85923 1.91382 89 89 45
-3.73561 -4.86614 1.93230 83 81 57
-3.73769 -4.86823 1.89816 94 94 56
-4.01444 -4.56182 1.85642 64 39 28
-3.99975 -4.55360 1.87073 62 57 37
-4.00070 -4.55456 1.85514 57 41 32
-4.01349 -4.56087 1.87201 62 54 28
-4.02723 -4.56813 1.87330 64 49 23
-4.02737 -4.57591 1.85899 79 68 73
-4.04018 -4.58223 1.87589 62 59 38
-4.04006 -4.59237 1.86200 110 119 116
-4.05253 -4.61130 1.86548 141 153 146
-4.06732 -4.61958 1.85108 159 180 194
-4.06634 -4.61882 1.86680 153 166 174
-4.07940 -4.63331 1.86945 158 175 188
-4.09270 -4.64588 1.87172 161 176 186
-4.10573 -4.66148 1.87457 158 164 169
-4.12058 -4.66979 1.86011 143 142 130
-4.11841 -4.68135 1.87822 152 151 145
-4.13330 -4.68968 1.86372 143 144 122
-4.13127 -4.70000 1.88165 148 145 134
-4.14620 -4.70836 1.86711 145 145 123
-4.31811 -5.64107 2.05692 77 77 79
-4.33563 -5.65088 2.03986 85 88 100
1.56477 -4.81411 1.90925 140 142 160
1.58931 -4.80037 1.93316 138 135 148
1.58772 -4.80196 1.90711 148 139 137
1.58614 -4.80356 1.88106 163 139 135
1.56635 -4.81251 1.93530 130 140 158
1.54312 -4.82727 1.91159 139 148 167
1.55533 -4.86692 1.91894 142 155 170
1.53236 -4.87923 1.92111 146 159 178
1.55350 -4.92649 1.92990 147 165 185
1.56630 -4.99870 1.94324 154 169 184
1.53802 -5.00726 1.94470 152 172 205
1.54133 -5.04144 1.95101 182 197 201
1.52543 -5.06018 1.95440 193 201 220
1.52575 -5.09236 1.96032 200 208 226
1.54377 -5.17196 1.97504 198 226 236
1.52965 -5.19288 1.97884 191 215 237
1.52382 -5.22091 1.98398 177 192 241
1.50087 -5.23459 1.98640 148 160 202
1.48507 -5.25440 1.98999 140 154 181
1.45930 -5.26882 1.96489 138 151 172
1.49367 -5.29529 1.99755 133 138 174
1.46776 -5.30980 1.97231 132 141 162
0.49406 -4.69735 1.88351 183 170 164
0.51651 -4.68479 1.90537 159 162 162
0.51360 -4.68771 1.85773 107 111 118
0.49552 -4.69589 1.90733 188 180 162
0.47452 -4.70700 1.90929 195 183 168
0.46645 -4.70237 1.88432 191 179 173
0.44693 -4.71200 1.91007 197 183 170
0.44548 -4.71346 1.88628 196 184 179
-0.39623 -4.17217 1.78330 210 195 172
-0.37936 -4.16385 1.76104 205 191 181
-0.39699 -4.19892 1.78822 170 156 122
-0.43070 -4.19312 1.78702 138 117 81
-0.43250 -4.21906 1.79179 91 79 59
-0.45820 -4.22114 1.79207 45 30 31
-0.47763 -4.23201 1.77315 25 22 29
-1.43931 -3.54908 1.66446 14 16 28
-1.42559 -3.54231 1.64635 22 23 14
-1.44033 -3.55010 1.64773 18 22 17
-1.45508 -3.55790 1.64911 15 19 28
-1.49302 -3.53742 1.66210 55 64 106
-1.54661 -3.52511 1.65962 168 169 183
-1.56212 -3.53380 1.64451 132 147 171
-1.53536 -3.56240 1.66653 198 192 193
-1.65650 -3.51934 1.65812 244 242 241
-1.66983 -3.52592 1.67572 251 247 242
-1.67083 -3.52692 1.65946 250 248 243
-1.95486 -3.47214 1.64825 245 238 232
-1.94017 -3.46392 1.66256 239 234 225
-1.94113 -3.46488 1.64697 242 237 229
-1.97069 -3.47667 1.64902 246 241 237
-1.98537 -3.48488 1.63473 254 254 253
-1.98611 -3.48170 1.64989 248 247 244
-2.00078 -3.48991 1.63560 254 254 254
-1.99615 -3.49384 1.65208 253 251 251
-2.01084 -3.50206 1.63778 254 254 254
-2.03058 -3.49898 1.65289 245 247 249
-2.03153 -3.49994 1.63735 254 253 253
-2.04478 -3.50555 1.65404 238 229 241
-2.05942 -3.51375 1.63978 254 254 253
-2.05755 -3.51407 1.65556 247 245 249
-2.07220 -3.52227 1.64129 254 254 254
-2.64463 -3.51207 1.65286 242 244 250
-2.65171 -3.52914 1.65598 225 229 242
-2.67018 -3.55596 1.66084 226 229 244
-2.68396 -3.56367 1.64742 253 253 253
-2.67935 -3.56966 1.66332 242 246 249
-2.69316 -3.57739 1.64988 254 254 254
-2.68777 -3.58490 1.66610 251 253 252
-2.70161 -3.59264 1.65261 254 254 254
-3.11461 -3.65671 1.67762 253 254 254
-3.10124 -3.64923 1.69064 254 254 254
-3.10210 -3.65010 1.67645 254 254 254
-3.11374 -3.65584 1.69181 254 254 254
-3.13627 -3.67836 1.68152 214 219 230
-3.14926 -3.68381 1.68247 191 189 205
-3.15911 -3.69733 1.68492 207 206 217
-3.16881 -3.71140 1.68747 234 235 238
-3.18052 -3.71718 1.70292 243 243 239
-3.18980 -3.73577 1.69188 241 242 234
-3.19816 -3.75389 1.69518 219 213 214
-3.20674 -3.77167 1.69842 183 173 178
-3.21064 -3.80255 1.70408 158 144 152
-3.22074 -3.81675 1.70666 144 131 133
-3.23266 -3.82600 1.70831 140 133 121
-3.24230 -3.84178 1.71118 138 136 117
-3.25478 -3.84964 1.71258 124 121 113
-3.26390 -3.86728 1.71579 95 90 101
-3.26875 -3.89774 1.72138 64 63 76
-3.28261 -3.90550 1.70788 39 41 43
-3.28199 -3.90376 1.72243 46 49 59
-3.29585 -3.91152 1.70894 41 46 45
-3.29353 -3.91491 1.72444 40 43 49
-3.30740 -3.92268 1.71093 42 48 39
-3.57367 -4.40642 1.81380 56 53 46
-3.55874 -4.39807 1.82834 54 51 38
-3.55970 -4.39904 1.81250 53 49 42
-3.57270 -4.40545 1.82965 55 53 38
-3.58758 -4.41401 1.81514 65 57 52
-3.60039 -4.42660 1.81741 74 69 63
-3.61534 -4.43496 1.80285 90 89 70
-3.61396 -4.43588 1.81907 82 86 73
-3.62891 -4.44425 1.80450 86 86 73
-3.70459 -4.77870 1.88181 89 85 54
-3.68873 -4.76982 1.89726 78 73 43
-3.69078 -4.77188 1.86359 91 89 77
-3.70562 -4.77973 1.86498 93 90 66
-3.72045 -4.78757 1.86636 94 89 56
-3.71468 -4.81298 1.88808 97 91 49
-3.73063 -4.82191 1.87255 93 89 53
-3.98962 -4.53501 1.83582 45 40 33
-3.97498 -4.52682 1.85009 61 51 36
-3.97592 -4.52777 1.83454 54 50 39
-4.00171 -4.55508 1.83947 54 58 49
-4.01605 -4.55741 1.83984 106 119 99
-4.02775 -4.58165 1.84426 155 171 161
-4.04081 -4.59512 1.84668 163 175 179
-4.05415 -4.60640 1.84871 161 175 184
-4.08058 -4.63216 1.85334 157 174 182
-4.09392 -4.64434 1.85553 153 156 147
-4.10873 -4.65263 1.84111 142 141 132
-4.10717 -4.65773 1.85795 145 144 136
-4.12200 -4.66604 1.84350 144 146 130
-4.21088 -5.01886 1.92401 150 150 139
-4.19510 -5.01003 1.93937 148 147 126
-4.19612 -5.01105 1.92263 146 148 133
-4.19714 -5.01208 1.90589 148 149 137
-4.28562 -5.64188 2.03840 74 70 77
-4.27032 -5.63434 2.01822 87 86 82
-4.30319 -5.65172 2.02129 85 86 98
-4.31859 -5.65687 2.04103 87 86 100
-4.41256 -5.88416 2.08249 92 101 91
-4.46260 -5.95579 2.09548 180 205 224
-4.48085 -5.96600 2.07771 202 221 234
1.56152 -4.84441 1.88839 145 154 172
1.55569 -4.87007 1.89301 147 162 179
1.53095 -4.88099 1.89494 154 167 183
1.54758 -4.95554 1.90845 162 180 188
1.55071 -4.98913 1.91453 171 195 208
1.51486 -4.99150 1.91488 187 206 230
1.50827 -5.01753 1.91957 197 218 227
1.51336 -5.05328 1.92604 193 210 234
1.51766 -5.08870 1.93245 188 202 222
1.52432 -5.12636 1.93928 185 204 229
1.51731 -5.15294 1.94407 164 178 217
1.49180 -5.16722 1.91922 133 143 168
1.46956 -5.14550 1.94262 139 152 186
1.44415 -5.15972 1.91787 133 139 164
1.47751 -5.18486 1.94975 129 137 179
1.45197 -5.19916 1.92487 128 138 154
1.49454 -5.23230 1.95836 127 132 164
0.49539 -4.70135 1.86016 172 163 161
0.51494 -4.69170 1.83436 78 68 69
0.47141 -4.70972 1.86162 188 177 161
0.44087 -4.71198 1.86196 191 184 160
0.42136 -4.72161 1.88769 198 185 170
0.41991 -4.72306 1.86391 194 184 166
0.41847 -4.72452 1.84014 191 180 164
-0.39123 -4.17957 1.76386 208 195 182
-0.37434 -4.17124 1.74157 203 186 179
-0.39249 -4.18084 1.74326 204 189 184
-0.40405 -4.19445 1.76652 193 175 145
-0.42070 -4.20559 1.76849 147 125 86
-0.43758 -4.21650 1.77043 111 96 71
-0.45029 -4.23165 1.77314 53 39 36
-1.48253 -3.55138 1.64787 12 19 45
-1.46887 -3.54464 1.62984 22 21 26
-1.48355 -3.55240 1.63121 23 22 32
-1.49902 -3.55710 1.64887 33 38 76
-1.54219 -3.53232 1.64429 75 86 126
-1.57083 -3.54819 1.64709 180 183 189
-1.60524 -3.53271 1.64422 205 196 195
-1.66450 -3.51204 1.64035 227 218 216
-1.70661 -3.51093 1.64006 247 245 241
-1.71985 -3.51746 1.65753 250 247 241
-1.72083 -3.51845 1.64138 250 248 243
-1.93896 -3.46986 1.63211 243 239 238
-1.92425 -3.46163 1.64644 242 237 229
-1.92521 -3.46258 1.63083 242 237 230
-1.92616 -3.46354 1.61522 245 240 232
-1.95367 -3.47809 1.61779 250 250 250
-1.95455 -3.47474 1.63296 250 249 247
-1.96924 -3.48297 1.61865 254 254 254
-1.96861 -3.48160 1.63417 254 253 251
-1.98330 -3.48982 1.61986 254 254 254
-2.04875 -3.50239 1.63775 254 252 252
-2.03602 -3.49610 1.62095 254 254 254
-2.04970 -3.50334 1.62223 254 254 254
-2.06338 -3.51057 1.62351 254 254 254
-2.63256 -3.47716 1.63189 247 253 253
-2.61896 -3.46955 1.64514 249 252 253
-2.61984 -3.47044 1.63070 252 253 254
-2.64616 -3.48478 1.61865 215 224 240
-2.64202 -3.48968 1.63413 233 239 246
-2.64909 -3.50655 1.63717 219 223 238
-2.65816 -3.52001 1.63958 221 229 241
-2.66680 -3.53436 1.64216 235 242 247
-2.68052 -3.54204 1.62879 254 254 254
-2.67637 -3.54714 1.64444 247 249 251
-2.69011 -3.55483 1.63106 254 254 254
-3.10582 -3.64400 1.66100 250 254 254
-3.09248 -3.63653 1.67399 254 254 254
-3.09334 -3.63740 1.65983 254 254 254
-3.11708 -3.65360 1.66271 235 234 249
-3.13044 -3.66107 1.64970 175 168 194
-3.12790 -3.66439 1.66464 204 203 229
-3.14171 -3.66769 1.66520 179 174 201
-3.15079 -3.68300 1.66795 186 179 192
-3.15940 -3.69970 1.67095 217 221 219
-3.18222 -3.71903 1.67439 221 220 220
-3.18530 -3.75095 1.68016 193 186 187
-3.19484 -3.76606 1.68287 165 153 156
-3.20336 -3.78414 1.68612 147 134 131
-3.21127 -3.80415 1.68972 140 133 120
-3.22166 -3.81754 1.69211 140 135 124
-3.23469 -3.82367 1.69319 131 126 116
-3.24544 -3.83627 1.69545 105 103 94
-3.25236 -3.86005 1.69973 74 73 72
-3.26613 -3.86776 1.68632 36 39 45
-3.26374 -3.87123 1.70173 48 48 62
-3.27752 -3.87895 1.68830 36 42 41
-3.27229 -3.89086 1.70526 33 40 47
-3.28612 -3.89860 1.69178 38 45 39
-3.57482 -4.40659 1.79782 69 63 66
-3.58974 -4.41495 1.78328 89 92 68
-3.58827 -4.41624 1.79953 80 78 75
-3.60153 -4.42680 1.80141 92 92 82
-3.61647 -4.43516 1.78685 84 81 63
-3.66484 -4.73690 1.85733 78 79 58
-3.64905 -4.72806 1.87271 80 76 61
-3.65007 -4.72908 1.85595 81 74 48
-3.66382 -4.73587 1.87409 76 76 59
-3.67860 -4.74368 1.87547 80 72 56
-3.68064 -4.74574 1.84194 97 93 59
-3.67809 -4.75277 1.86017 86 82 64
-3.69391 -4.76163 1.84476 95 90 68
-3.96953 -4.47456 1.80922 49 39 22
-3.95504 -4.46645 1.82334 54 48 27
-3.95597 -4.46739 1.80796 46 41 17
-3.95691 -4.46834 1.79258 38 43 33
-3.96859 -4.47362 1.82460 54 50 36
-3.98012 -4.50413 1.81455 61 54 29
-3.99431 -4.50696 1.81503 73 82 69
-4.00504 -4.53712 1.82046 116 133 136
-4.01966 -4.54531 1.80621 154 180 201
-4.01677 -4.56029 1.82462 156 175 181
-4.02952 -4.57574 1.82738 171 184 194
-4.04222 -4.59213 1.83032 167 179 190
-4.05534 -4.60531 1.83267 163 174 178
-4.06891 -4.61471 1.83434 156 161 152
-4.08367 -4.62297 1.81996 142 140 126
-4.08214 -4.62744 1.83661 149 147 138
-4.09692 -4.63571 1.82222 142 141 123
-4.09538 -4.64041 1.83893 145 140 129
-4.11018 -4.64870 1.82451 143 143 128
-4.21142 -5.02653 1.90847 152 153 140
-4.19767 -5.01975 1.89033 149 149 135
-4.33503 -5.69435 2.02892 79 87 92
-4.35082 -5.72181 2.03385 71 83 88
-4.42918 -5.95906 2.07657 149 138 123
-4.44632 -5.96749 2.07805 159 159 160
-4.46370 -5.96145 2.07692 187 207 216
-4.48197 -5.97167 2.05913 217 232 237
1.55251 -4.87043 1.86658 153 171 182
1.56464 -4.91041 1.87368 165 183 195
1.53981 -4.92431 1.84949 190 212 235
1.56982 -4.94523 1.87986 180 192 213
1.54859 -4.95925 1.88234 190 200 215
1.53007 -4.97547 1.88521 194 214 229
1.51325 -4.99312 1.88833 190 214 239
1.50665 -5.01916 1.89295 184 208 232
1.49276 -5.03939 1.89654 170 194 220
1.51181 -5.08687 1.90497 147 165 202
1.48652 -5.10103 1.88034 127 140 166
1.48510 -5.09685 1.90673 133 147 185
1.45982 -5.11101 1.88211 131 142 164
1.49542 -5.13771 1.91399 129 138 179
1.46999 -5.15194 1.88923 133 143 162
1.49977 -5.27319 1.93803 130 138 153
1.52227 -5.26208 1.90834 125 140 153
1.47392 -5.28765 1.91286 137 150 158
0.51511 -4.72216 1.83977 153 154 147
0.53474 -4.71247 1.81387 31 38 58
0.47757 -4.71818 1.83904 184 170 155
0.45509 -4.73077 1.81715 186 172 157
0.43380 -4.70824 1.83726 188 178 156
-0.40185 -4.19914 1.74650 207 192 170
-0.38491 -4.19078 1.72417 201 187 182
-0.40311 -4.20040 1.72586 208 192 172
-0.40147 -4.22725 1.75149 156 140 119
-0.42203 -4.23463 1.75279 129 112 85
-0.43977 -4.24481 1.75459 73 57 44
-0.44912 -4.26354 1.75791 30 23 32
-0.46615 -4.27194 1.78039 19 25 27
-0.46742 -4.27322 1.75962 20 22 23
-0.46869 -4.27449 1.73885 21 20 27
-1.50366 -3.55402 1.63148 17 16 36
-1.49001 -3.54728 1.61348 24 20 28
-1.50467 -3.55503 1.61485 22 21 26
-1.51933 -3.56279 1.61622 16 17 28
-1.53993 -3.53706 1.62846 9 16 53
-1.57055 -3.52627 1.62653 38 53 96
-1.60256 -3.51359 1.62426 103 114 142
-1.64723 -3.48586 1.61932 159 163 173
-1.63566 -3.52374 1.62605 194 189 190
-1.65102 -3.53234 1.61108 176 178 181
-1.71019 -3.48433 1.61902 220 209 204
-1.72236 -3.49417 1.62076 231 225 223
-1.74137 -3.49578 1.62103 242 240 237
-1.75452 -3.50227 1.63838 250 247 243
-1.76673 -3.48957 1.61992 249 249 246
-1.77983 -3.49603 1.63720 249 246 241
-1.78080 -3.49701 1.62123 251 248 244
-1.93989 -3.47084 1.61651 244 240 241
-1.95459 -3.47907 1.60219 252 251 250
-2.62573 -3.46259 1.61472 245 248 251
-2.61217 -3.45500 1.62793 252 253 253
-2.61305 -3.45588 1.61354 252 254 254
-2.63485 -3.47558 1.61702 225 233 244
-2.65546 -3.49764 1.62093 226 229 243
-2.66908 -3.50526 1.60766 252 253 253
-2.66352 -3.51282 1.62362 240 245 248
-2.67718 -3.52047 1.61032 254 254 254
-2.67200 -3.52740 1.62620 250 253 252
-2.68569 -3.53506 1.61287 254 254 254
-3.09901 -3.62665 1.64361 247 254 252
-3.08571 -3.61921 1.65656 254 254 254
-3.08657 -3.62007 1.64245 254 254 254
-3.10827 -3.64098 1.64615 224 227 241
-3.11946 -3.65072 1.64787 192 187 216
-3.14271 -3.66822 1.65097 192 184 200
-3.14358 -3.66908 1.63679 218 214 214
-3.15025 -3.68746 1.65438 215 216 217
-3.16204 -3.69601 1.65589 222 222 221
-3.17532 -3.70071 1.65672 200 195 198
-3.17466 -3.74211 1.66407 169 158 166
-3.18399 -3.75766 1.66682 148 137 137
-3.19406 -3.77140 1.66925 141 133 121
-3.20354 -3.78693 1.67201 141 134 113
-3.21305 -3.80255 1.67477 134 130 104
-3.22401 -3.81436 1.67686 115 112 90
-3.23725 -3.81984 1.67783 88 83 77
-3.25092 -3.82749 1.66452 34 41 43
-3.24596 -3.83821 1.68109 56 54 61
-3.25967 -3.84589 1.66773 38 42 43
-3.25518 -3.85539 1.68413 40 41 46
-3.26893 -3.86309 1.67074 41 43 44
-3.53794 -4.36854 1.77507 60 49 49
-3.52307 -4.36022 1.78955 56 49 41
-3.52404 -4.36119 1.77377 57 47 43
-3.53698 -4.36758 1.79085 52 50 47
-3.54885 -4.38862 1.77863 67 51 59
-3.56376 -4.39696 1.76410 94 90 63
-3.56166 -4.40088 1.78080 82 66 69
-3.57659 -4.40924 1.76626 90 87 57
-3.57295 -4.41993 1.78417 90 87 62
-3.58792 -4.42831 1.76959 85 85 57
-3.64416 -4.76537 1.84544 86 79 63
-3.62825 -4.75646 1.86094 79 76 51
-3.62928 -4.75750 1.84405 82 74 60
-3.64519 -4.76641 1.82855 92 92 73
-3.66008 -4.77428 1.82994 93 92 63
-3.66003 -4.76816 1.84593 90 88 61
-3.67593 -4.77706 1.83045 92 90 54
-3.97190 -4.46492 1.79197 71 65 85
-3.98353 -4.48638 1.79577 122 121 126
-3.99580 -4.50368 1.79883 144 152 152
-4.01033 -4.51181 1.78467 156 176 182
-4.00647 -4.53418 1.80424 147 166 179
-4.03093 -4.57288 1.81110 159 180 196
-4.04385 -4.58722 1.81364 155 170 168
-4.05857 -4.59546 1.79930 144 141 125
-4.05692 -4.60067 1.81602 149 152 142
-4.07166 -4.60892 1.80166 141 143 122
-4.07013 -4.61323 1.81824 143 142 129
-4.08488 -4.62149 1.80387 141 143 126
-4.24122 -5.05510 1.89658 48 34 43
-4.25500 -5.06190 1.91477 55 67 62
-4.25705 -5.06396 1.88116 65 74 74
-4.32044 -5.66889 2.00547 74 84 97
-4.30398 -5.66018 2.00394 80 87 108
-4.32158 -5.67003 1.98680 65 75 77
-4.33605 -5.69837 2.01070 66 77 83
-4.35191 -5.72444 2.01532 61 76 87
-4.43011 -5.97109 2.05905 155 150 135
-4.46481 -5.96705 2.05832 213 228 234
-4.48309 -5.97728 2.04052 223 236 244
1.58557 -4.92980 1.85039 187 204 223
1.54069 -4.95586 1.85498 194 212 228
1.52776 -4.97654 1.85860 181 203 224
1.51580 -4.99812 1.86238 161 176 216
1.54890 -5.05650 1.87250 138 157 204
1.52364 -5.07064 1.84790 128 138 162
1.52946 -5.07243 1.87530 128 141 174
1.50419 -5.08657 1.85068 128 140 164
1.52575 -5.10136 1.88035 126 140 172
1.50039 -5.11555 1.85565 125 141 166
1.49662 -5.27360 1.91038 123 136 148
1.49494 -5.27528 1.88296 117 123 147
0.53570 -4.74379 1.81932 126 131 141
0.55542 -4.73406 1.79330 30 47 56
0.47528 -4.71888 1.81506 177 164 158
0.45281 -4.73145 1.79317 184 172 153
0.37030 -4.68241 1.80884 189 178 160
0.35098 -4.69195 1.83433 193 182 172
-0.40285 -4.22841 1.73074 179 160 123
-0.38584 -4.22002 1.70830 207 192 175
-0.41616 -4.24305 1.73331 140 118 84
-0.43577 -4.25140 1.73479 103 79 67
-0.43443 -4.28103 1.73995 44 28 32
-1.57032 -3.52869 1.61035 12 14 39
-1.55684 -3.52204 1.59256 21 20 31
-1.57132 -3.52970 1.59391 20 17 30
-1.58580 -3.53736 1.59527 17 14 32
-1.59981 -3.51895 1.60869 26 28 60
-1.61586 -3.52464 1.60970 64 73 108
-1.64994 -3.50911 1.60704 124 136 160
-1.71491 -3.48085 1.60220 201 195 190
-1.75797 -3.47786 1.60173 225 216 212
-1.77050 -3.48714 1.60336 238 234 231
-1.78937 -3.48867 1.60365 247 245 242
-1.80243 -3.49511 1.62089 249 245 242
-1.80340 -3.49609 1.60496 250 247 244
-2.61432 -3.42760 1.59406 249 253 253
-2.60085 -3.42006 1.60718 252 253 253
-2.60172 -3.42093 1.59288 253 254 254
-2.61345 -3.42672 1.60836 253 253 253
-2.62779 -3.43514 1.58094 222 228 244
-2.62153 -3.44360 1.59686 241 242 249
-2.63126 -3.45535 1.59892 226 226 241
-2.64008 -3.46880 1.60127 217 226 240
-2.65088 -3.47885 1.60303 232 239 246
-2.66445 -3.48645 1.58982 254 254 254
-2.65978 -3.49235 1.60540 246 247 251
-2.67338 -3.49996 1.59215 254 254 254
-3.08553 -3.58936 1.62283 253 254 254
-3.07232 -3.58197 1.63569 254 254 254
-3.07318 -3.58283 1.62168 254 254 254
-3.08467 -3.58850 1.63685 254 254 254
-3.09459 -3.60378 1.62536 245 250 250
-3.10383 -3.61791 1.62783 214 217 233
-3.11344 -3.63131 1.63018 185 181 207
-3.12673 -3.63875 1.61723 211 212 212
-3.12355 -3.64363 1.63233 185 179 197
-3.13323 -3.65711 1.63469 201 204 201
-3.15324 -3.68291 1.63921 207 196 206
-3.16434 -3.69318 1.64102 178 165 181
-3.16648 -3.72692 1.64689 156 141 152
-3.17498 -3.74446 1.64996 144 131 131
-3.18356 -3.76203 1.65303 141 135 122
-3.19664 -3.76770 1.65404 136 133 114
-3.20607 -3.78332 1.65677 123 115 92
-3.21210 -3.80850 1.66116 94 89 72
-3.22499 -3.81498 1.66231 63 66 55
-3.23866 -3.82264 1.64899 35 46 42
-3.23666 -3.82490 1.66405 45 50 41
-3.25034 -3.83256 1.65072 39 47 43
-3.50112 -4.33172 1.75266 42 40 42
-3.48631 -4.32343 1.76709 26 34 36
-3.48727 -4.32439 1.75137 23 31 28
-3.50017 -4.33075 1.76838 39 42 36
-3.51402 -4.33808 1.76967 51 46 41
-3.51316 -4.34640 1.75523 55 49 53
-3.52519 -4.36135 1.75785 66 52 60
-3.54006 -4.36967 1.74337 95 88 78
-3.53773 -4.37441 1.76014 77 62 69
-3.55261 -4.38274 1.74565 93 86 67
-3.54794 -4.39753 1.76418 85 80 72
-3.96096 -4.44677 1.77328 93 106 115
-3.94654 -4.43871 1.78732 41 43 36
-3.94748 -4.43964 1.77202 52 51 61
-3.97246 -4.46860 1.77710 135 145 154
-3.98439 -4.48792 1.78048 152 154 169
-3.99659 -4.50573 1.78360 155 163 177
-4.02061 -4.54624 1.79068 154 174 180
-4.03380 -4.55764 1.79268 151 157 155
-4.04844 -4.56583 1.77843 143 142 125
-4.04611 -4.57683 1.79604 147 144 134
-4.06079 -4.58505 1.78175 142 143 124
-4.22530 -5.07966 1.88385 102 81 84
-4.24124 -5.08858 1.86833 84 83 86
-4.29075 -5.61052 1.97640 78 83 99
-4.27329 -5.60075 1.99340 86 89 95
-4.27442 -5.60189 1.97487 81 84 103
-4.27555 -5.60302 1.95634 71 82 94
-4.28962 -5.60939 1.99493 84 88 101
-4.33674 -5.71077 1.99392 72 82 71
-4.35264 -5.73672 1.99846 99 105 93
-4.36683 -5.81537 2.01217 128 130 97
-4.38480 -5.82542 1.99467 148 142 126
-4.43090 -5.99001 2.04267 158 158 151
1.60471 -4.91707 1.82142 181 196 226
1.62640 -4.90637 1.79280 162 145 150
1.57223 -4.92216 1.82238 181 209 233
1.56752 -4.94921 1.82702 175 193 222
1.53022 -4.95040 1.82734 157 165 206
1.54787 -4.99564 1.83501 127 129 186
1.55603 -5.03362 1.84148 123 126 177
1.54731 -5.05818 1.84570 126 134 172
1.52205 -5.07232 1.82110 126 142 156
1.50226 -5.31524 1.88976 137 141 155
1.52488 -5.30408 1.85993 117 124 142
1.49805 -5.34553 1.89495 132 139 151
0.52676 -4.73842 1.79414 96 100 108
0.54645 -4.72870 1.76816 45 53 60
0.46273 -4.71012 1.78949 166 163 154
0.44031 -4.72267 1.76765 182 168 146
0.36494 -4.68019 1.78467 175 166 148
0.31229 -4.66118 1.78158 175 156 144
-0.40940 -4.25239 1.71390 150 122 99
-0.41447 -4.27548 1.71787 116 96 80
-0.43214 -4.28594 1.71971 53 41 44
-0.44171 -4.30470 1.72294 25 25 31
-0.45886 -4.31317 1.74558 21 22 35
-0.46014 -4.31445 1.72466 22 25 35
-0.46141 -4.31573 1.70375 21 25 24
-1.62360 -3.51777 1.59203 11 17 43
-1.61022 -3.51117 1.57439 21 21 31
-1.62459 -3.51877 1.57573 21 20 25
-1.65475 -3.50561 1.59005 36 47 78
-1.68457 -3.49475 1.58828 91 102 127
-1.71600 -3.48169 1.58615 148 155 170
-1.76670 -3.46943 1.58420 208 198 196
-1.79528 -3.48357 1.58671 231 223 222
-1.81026 -3.49195 1.57212 224 211 206
-1.81732 -3.48103 1.58634 242 237 233
-1.83033 -3.48745 1.60349 249 245 243
-2.61921 -3.42157 1.57859 229 237 246
-2.63577 -3.44989 1.58348 226 227 242
-2.64927 -3.45745 1.57033 253 254 253
-2.64446 -3.46351 1.58584 239 245 247
-2.65799 -3.47108 1.57266 254 254 254
-2.65562 -3.47286 1.58747 251 252 252
-2.66917 -3.48044 1.57428 254 254 254
-3.07821 -3.57388 1.60600 249 254 254
-3.06504 -3.56651 1.61883 254 254 254
-3.06589 -3.56736 1.60485 254 254 254
-3.08918 -3.58358 1.60769 237 237 250
-3.09841 -3.59753 1.61010 210 209 230
-3.11162 -3.60492 1.59724 197 196 209
-3.10723 -3.61261 1.61271 187 180 209
-3.11579 -3.62853 1.61545 193 189 205
-3.13537 -3.65481 1.62000 210 209 207
-3.14595 -3.66613 1.62197 188 180 186
-3.15460 -3.68251 1.62480 161 145 159
-3.16077 -3.70550 1.62874 143 130 137
-3.16918 -3.72301 1.63176 142 132 126
-3.17761 -3.74071 1.63481 142 135 122
-3.18604 -3.75862 1.63790 129 125 114
-3.19478 -3.77599 1.64089 101 100 97
-3.20587 -3.78714 1.64283 70 67 66
-3.21949 -3.79476 1.62957 30 43 42
-3.21689 -3.79860 1.64482 45 48 45
-3.23053 -3.80623 1.63154 31 48 41
-3.22811 -3.80964 1.64674 30 45 43
-3.24176 -3.81727 1.63345 37 47 45
-3.47765 -4.30529 1.73219 25 32 38
-3.46288 -4.29702 1.74657 28 32 39
-3.46384 -4.29798 1.73090 23 30 28
-3.47670 -4.30433 1.74786 26 31 42
-3.48991 -4.31871 1.73452 30 40 50
-3.50237 -4.33152 1.73674 55 55 58
-3.51718 -4.33981 1.72232 89 94 84
-3.51532 -4.34252 1.73866 67 69 77
-3.52737 -4.35731 1.74122 80 83 72
-3.93989 -4.39914 1.74961 73 71 86
-3.92559 -4.39113 1.76355 42 38 26
-3.92651 -4.39206 1.74837 37 30 24
-3.93896 -4.39821 1.76480 46 30 36
-3.95086 -4.42323 1.75376 113 122 128
-3.96067 -4.45661 1.75950 140 149 154
-3.97511 -4.46470 1.74543 159 175 184
-3.97361 -4.46799 1.76148 153 160 177
-3.98576 -4.48560 1.76453 157 169 183
-3.99838 -4.50012 1.76705 161 175 182
-4.01047 -4.51916 1.77034 155 163 159
-4.02503 -4.52731 1.75616 142 142 120
-4.02330 -4.53290 1.77272 147 148 142
-4.03788 -4.54106 1.75852 143 142 122
-4.03605 -4.54757 1.77527 144 141 129
-4.05065 -4.55574 1.76104 143 142 125
-4.21148 -5.07203 1.86541 146 142 116
-4.19761 -5.06519 1.84711 150 149 132
-4.22742 -5.08095 1.84990 106 100 107
-4.29168 -5.61581 1.95857 64 74 86
-4.27647 -5.60830 1.93850 63 76 77
-4.30662 -5.65484 1.96529 65 71 83
-4.32196 -5.68866 1.97111 80 90 85
-4.33743 -5.72315 1.97705 114 117 92
-4.35516 -5.73307 1.95979 152 146 118
-4.35204 -5.78479 1.98763 142 135 109
-4.36704 -5.84427 1.99784 149 142 121
-4.38510 -5.85438 1.98026 138 136 127
1.60377 -4.91923 1.79506 163 177 205
1.62547 -4.90852 1.76643 160 136 129
1.60216 -4.92085 1.76861 141 135 152
