ply
format ascii 1.0
element face 0
property list uchar int vertex_indices
element vertex 1321
property float x
property float y
property float z
property uchar diffuse_red
property uchar diffuse_green
property uchar diffuse_blue
end_header
0.90892 -4.56457 0.99433 97 93 107
0.86147 -4.66312 0.99427 79 77 64
0.84931 -4.68064 0.99450 62 55 42
0.79917 -4.69058 0.99741 114 102 70
0.77795 -4.70077 0.97584 174 176 170
0.78370 -4.70497 0.99795 176 179 142
0.76246 -4.71516 0.97635 163 157 148
0.43337 -4.86328 1.01548 164 169 164
0.45301 -4.85449 0.99187 161 163 142
0.43258 -4.86398 0.99288 157 160 152
0.42203 -4.88290 1.01559 157 154 145
-0.25886 -4.79231 1.06223 136 123 128
-0.24036 -4.78403 1.03999 137 141 127
-0.25960 -4.79297 1.04094 134 139 133
-0.27885 -4.80190 1.04190 135 141 129
-0.28002 -4.83305 1.06231 135 130 102
-0.28674 -4.85880 1.06193 111 101 73
-0.29912 -4.87723 1.06214 92 80 57
-0.31406 -4.89234 1.06263 79 69 25
-0.32641 -4.91105 1.06283 59 45 11
-0.32438 -4.94961 1.06148 43 26 22
-0.34123 -4.99899 1.06101 40 34 38
-0.36372 -5.00432 1.06228 61 62 72
-0.37414 -5.02664 1.06225 103 110 99
-0.39470 -5.03651 1.04134 118 126 126
-0.38673 -5.04607 1.06245 123 137 114
-0.40734 -5.05595 1.04149 111 124 121
-0.39483 -5.07209 1.06215 122 133 117
-0.41551 -5.08201 1.04112 117 124 113
-1.92786 -3.96999 1.19550 113 116 111
-1.91288 -3.96281 1.21074 112 119 109
-1.91344 -3.96330 1.19479 116 116 109
-1.93925 -3.98278 1.19583 98 105 93
-1.95225 -3.99243 1.19636 57 65 48
-1.96726 -3.99963 1.18110 26 27 42
-1.96531 -4.00198 1.19690 40 32 47
-1.98034 -4.00919 1.18162 28 24 33
-1.97868 -4.01096 1.19748 36 26 40
-1.99259 -4.01718 1.21420 43 45 34
-1.99372 -4.01817 1.18219 30 27 28
-2.53705 -3.16427 1.26011 47 49 93
-2.52636 -3.15948 1.24725 23 23 34
-2.53748 -3.16465 1.24780 21 20 36
-2.54861 -3.16981 1.24835 26 32 60
-2.54856 -3.16855 1.26071 111 118 153
-2.56011 -3.17409 1.24896 70 77 108
-2.56486 -3.16152 1.26198 180 190 197
-2.58153 -3.15337 1.26331 220 220 204
-2.62462 -3.14421 1.26637 232 223 213
-2.62505 -3.14459 1.25427 230 221 204
-2.63757 -3.14433 1.26720 240 234 226
-2.65573 -3.13127 1.26878 247 249 247
-2.66617 -3.13593 1.28133 254 254 254
-2.67054 -3.12632 1.26989 252 253 254
-2.68094 -3.13097 1.28240 254 254 254
-2.68136 -3.13135 1.27042 254 254 254
-2.80426 -3.10448 1.27917 253 254 252
-2.79327 -3.09921 1.29034 254 254 254
-2.79368 -3.09958 1.27865 254 254 254
-2.81788 -3.17224 1.27791 168 152 148
-2.84475 -3.20365 1.27865 153 156 138
-2.85201 -3.21960 1.27861 128 118 106
-2.85974 -3.23438 1.27864 84 76 74
-2.87105 -3.23980 1.26714 57 67 59
-2.86951 -3.24294 1.27900 58 64 67
-2.88083 -3.24837 1.26749 59 67 68
-3.14822 -4.29601 1.26368 39 31 34
-3.13507 -4.29012 1.24786 25 30 29
-3.16076 -4.30927 1.26407 58 58 45
-3.17501 -4.31610 1.24958 69 67 58
-3.28619 -4.14812 1.27722 60 53 48
-3.30105 -4.14125 1.27839 76 87 91
-3.31472 -4.14241 1.27924 95 111 117
-3.41181 -4.01358 1.28954 157 162 145
-3.39983 -4.00822 1.27514 138 151 147
-3.42975 -3.97074 1.29205 148 141 101
-3.44255 -3.97688 1.27904 137 124 85
-3.54876 -3.92329 1.30120 119 109 96
-3.53722 -3.91813 1.28733 134 120 103
-3.54922 -3.92370 1.28793 120 111 106
-3.56112 -3.92435 1.30196 101 98 103
-3.57398 -3.91843 1.30298 116 120 116
-3.58640 -3.92439 1.29035 140 140 113
-3.58601 -3.92288 1.30361 137 140 120
-3.59843 -3.92883 1.29099 146 140 117
-3.63861 -4.07585 1.30216 145 143 118
-3.62579 -4.06969 1.31520 148 145 115
-3.62627 -4.07012 1.30155 149 146 122
-3.63813 -4.07542 1.31581 150 145 118
-3.65046 -4.08115 1.31642 147 143 126
-3.64856 -4.12586 1.30122 136 140 124
-3.66054 -4.13122 1.31564 145 143 129
-3.65912 -4.16922 1.30053 136 142 128
-3.67099 -4.19031 1.30063 144 145 126
-3.68309 -4.20820 1.30085 131 129 107
-3.70738 -4.24795 1.30115 122 122 105
-3.72063 -4.25432 1.28767 138 133 119
-3.73158 -4.30120 1.30103 130 127 120
1.00183 -3.60438 0.99937 57 67 107
0.98373 -3.61306 0.98096 54 64 99
0.95954 -3.65693 1.00032 59 56 101
0.97638 -3.64940 0.98007 61 65 104
0.95886 -3.65754 0.98094 62 68 110
0.94588 -3.66793 1.00084 39 42 101
0.95773 -3.69799 0.99901 75 89 142
0.94998 -3.71360 0.99897 149 167 203
0.94434 -3.73090 0.99874 181 193 221
0.92593 -3.73974 0.98001 188 195 211
0.94171 -3.79443 0.99669 181 190 202
0.95893 -3.78672 0.97599 188 194 207
0.94101 -3.79504 0.97688 187 193 206
0.92706 -3.80527 0.99728 162 172 179
0.93441 -3.83324 0.99582 114 114 113
0.94537 -3.86428 0.99401 76 70 77
0.92724 -3.87270 0.99491 71 67 83
0.95525 -3.98742 0.98906 77 79 87
0.93602 -3.99665 0.96950 70 66 84
0.94346 -4.00146 0.98935 78 76 94
0.92419 -4.01071 0.96976 68 65 85
0.95508 -4.03469 0.98743 73 69 95
0.93569 -4.04399 0.96771 76 73 79
0.97791 -4.10170 0.98358 78 68 74
0.97717 -4.10235 0.96268 82 73 74
0.95828 -4.11112 0.96362 80 69 82
0.98343 -4.13076 0.98220 71 60 68
0.97428 -4.14781 0.98221 71 56 62
0.98136 -4.20368 0.97980 58 56 52
0.96140 -4.21325 0.95950 71 75 86
0.98097 -4.22862 0.97895 63 62 79
0.96093 -4.23823 0.95858 75 78 77
0.97495 -4.24894 0.97864 73 73 84
0.95486 -4.25858 0.95821 77 75 74
0.96018 -4.33980 0.97644 84 71 68
0.95087 -4.35799 0.97642 94 95 97
0.94353 -4.37803 0.97620 81 81 88
0.94415 -4.40534 0.97521 76 73 77
0.93932 -4.42796 0.97473 84 76 80
0.92945 -4.44618 0.97475 93 88 72
0.90881 -4.45609 0.95376 96 110 77
0.92464 -4.46914 0.97426 92 84 85
0.91656 -4.48927 0.97409 89 87 107
0.89580 -4.49923 0.95298 81 78 87
0.90976 -4.51071 0.97379 88 90 94
0.88895 -4.52070 0.95263 77 70 70
0.92358 -4.55147 0.97146 86 75 68
0.90261 -4.56153 0.95014 83 68 73
0.91286 -4.56969 0.97153 87 77 74
0.91198 -4.59728 0.97062 89 91 87
0.90418 -4.61854 0.97039 79 83 82
0.88304 -4.62869 0.94889 67 64 61
0.88684 -4.63085 0.97111 80 79 76
0.86788 -4.64166 0.97198 80 77 73
0.85881 -4.66203 0.97186 80 68 68
0.84472 -4.67766 0.97225 82 70 53
0.81008 -4.67327 0.97468 95 102 100
0.79385 -4.68682 0.97528 159 150 148
0.46349 -4.77122 0.99409 130 137 146
0.44251 -4.78129 0.97275 145 144 146
0.39940 -4.85925 0.99523 155 162 146
0.39861 -4.85995 0.97270 161 170 152
0.39318 -4.88460 0.99476 162 177 154
0.37274 -4.89409 0.99577 162 162 149
0.37194 -4.89479 0.97316 157 160 157
-0.08704 -4.84413 1.02779 145 141 125
-0.06739 -4.83501 1.02682 145 144 133
-0.08627 -4.84345 1.04952 143 127 116
-0.10591 -4.85257 1.05050 137 136 127
-0.10668 -4.85324 1.02877 136 138 134
-0.10744 -4.85392 1.00704 142 143 117
-0.27004 -4.84789 1.03971 134 137 126
-0.25140 -4.83955 1.01729 136 131 134
-0.27079 -4.84855 1.01826 135 138 131
-0.28304 -4.86539 1.03996 130 132 111
-0.28957 -4.89170 1.03947 126 122 84
-0.29104 -4.92510 1.03840 122 115 74
-0.31091 -4.93383 1.03941 101 92 66
-0.32265 -4.95371 1.03948 77 67 55
-0.33081 -4.97867 1.03915 78 69 52
-0.35059 -4.98772 1.04014 93 89 61
-0.35598 -5.01692 1.03947 114 117 101
-0.37654 -5.02679 1.01857 127 127 120
-0.37491 -5.02732 1.04036 127 130 126
-0.39547 -5.03719 1.01944 122 125 130
-0.81338 -5.22441 1.06235 125 115 123
-0.79283 -5.21455 1.08324 114 111 110
-0.79360 -5.21523 1.06137 118 114 101
-0.83238 -5.23291 1.08520 123 122 124
-0.83315 -5.23359 1.06333 125 126 126
-0.83392 -5.23427 1.04146 126 125 130
-1.92551 -3.94102 1.18039 117 114 105
-1.91062 -3.93388 1.19553 119 118 109
-1.91117 -3.93437 1.17968 121 124 121
-1.93477 -3.95781 1.18042 99 105 94
-1.94367 -3.97551 1.18038 55 60 46
-1.95864 -3.98270 1.16516 28 23 36
-1.95707 -3.98425 1.18096 33 28 43
-1.97206 -3.99144 1.16573 27 32 26
-2.58201 -3.15365 1.25111 136 144 165
-2.57140 -3.14890 1.23836 30 25 43
-2.58244 -3.15402 1.23891 38 41 75
-2.59347 -3.15915 1.23946 79 92 127
-2.59509 -3.15383 1.25197 191 202 204
-2.61042 -3.14846 1.25317 222 222 210
-2.63939 -3.14125 1.25533 229 216 203
-2.65073 -3.14669 1.24380 230 215 210
-2.65257 -3.14062 1.25622 231 223 216
-2.66910 -3.13140 1.25763 242 236 224
-2.69838 -3.12181 1.25989 253 254 254
-2.70873 -3.12644 1.27234 254 254 254
-2.70915 -3.12681 1.26042 254 254 254
-2.79644 -3.09339 1.26734 249 254 247
-2.78548 -3.08813 1.27848 254 254 254
-2.78589 -3.08849 1.26682 254 254 254
-2.81107 -3.08672 1.26854 234 221 211
-2.80956 -3.16176 1.26582 165 148 154
-2.83678 -3.19170 1.26656 149 153 128
-2.85000 -3.22745 1.26619 69 67 72
-2.86131 -3.23287 1.25469 53 62 68
-2.86045 -3.23385 1.26665 52 61 61
-2.87175 -3.23928 1.25515 57 64 66
-3.14450 -4.32141 1.24739 37 36 26
-3.13126 -4.31549 1.23147 19 29 32
-3.15812 -4.32868 1.24803 62 60 43
-3.17244 -4.33555 1.23348 67 62 43
-3.27485 -4.13431 1.26250 66 62 51
-3.26183 -4.12826 1.26186 65 63 65
-3.26234 -4.12871 1.24745 58 63 56
-3.27536 -4.13475 1.24810 63 67 54
-3.28773 -4.14136 1.26311 53 54 40
-3.30191 -4.13916 1.26412 69 82 86
-3.31487 -4.14546 1.26475 92 105 115
-3.32904 -4.14270 1.26578 102 117 124
-3.34202 -4.14872 1.26642 111 125 134
-3.41062 -4.02852 1.27514 145 152 147
-3.39859 -4.02314 1.26068 142 151 147
-3.41110 -4.02895 1.26130 141 144 132
-3.42362 -4.03476 1.26192 133 120 93
-3.42809 -3.99025 1.27762 138 122 106
-3.44094 -3.99642 1.26455 132 117 82
-3.46624 -3.99737 1.27989 147 137 99
-3.45342 -3.99121 1.29293 134 126 95
-3.45390 -3.99164 1.27928 144 140 91
-3.47810 -4.00267 1.29415 134 117 93
-3.47906 -4.00352 1.26685 151 141 115
-3.47842 -4.00477 1.28043 143 124 99
-3.49028 -4.01008 1.29470 133 119 90
-3.49076 -4.01051 1.28104 136 119 95
-3.55920 -3.95472 1.28750 109 108 106
-3.54759 -3.94952 1.27354 121 112 92
-3.57276 -3.94093 1.28887 122 128 109
-3.63715 -4.11021 1.28720 121 113 107
-3.64900 -4.12713 1.28739 92 84 98
-3.66022 -4.15781 1.28706 104 101 113
-3.67222 -4.17514 1.28725 134 133 118
-3.68530 -4.18142 1.27395 138 136 116
-3.68391 -4.20125 1.28710 132 125 97
-3.69706 -4.20756 1.27374 131 130 108
-3.74356 -4.35689 1.28560 135 136 116
-3.74406 -4.35734 1.27118 151 146 118
-3.75710 -4.36339 1.27182 151 146 121
1.04842 -3.57717 0.97797 48 44 91
1.06651 -3.56850 0.99636 62 62 117
1.06583 -3.56909 0.97711 59 54 97
1.06515 -3.56969 0.95786 112 115 134
1.03792 -3.59016 0.97819 49 43 93
1.00202 -3.60560 0.98002 54 56 99
0.95152 -3.67323 0.98083 51 58 100
0.95084 -3.67383 0.96141 50 54 97
0.94343 -3.68844 0.98079 48 49 105
0.94859 -3.71369 0.97948 108 117 161
0.95930 -3.74332 0.97763 171 183 208
0.93364 -3.81150 0.97675 183 192 200
0.95089 -3.80379 0.95600 192 196 208
0.90404 -3.81078 0.97877 154 160 163
0.89442 -3.82558 0.97885 100 100 104
0.92790 -3.87439 0.97473 69 71 78
0.91047 -3.88219 0.99569 72 62 76
0.92552 -3.89529 0.97409 66 64 77
0.90661 -3.90436 0.95487 61 58 67
0.92334 -3.93961 0.97254 65 61 68
0.92263 -3.94024 0.95227 60 62 64
0.90430 -3.94875 0.95318 65 65 64
0.94695 -3.98194 0.96933 70 68 78
0.92774 -3.99116 0.94980 69 67 69
0.97442 -4.14919 0.96108 80 74 81
0.99271 -4.14101 0.93908 77 76 80
0.98756 -4.18511 0.95882 70 66 69
0.98863 -4.21113 0.95775 68 67 74
0.96865 -4.22072 0.93742 62 59 66
0.98265 -4.30845 0.95443 79 76 72
0.97515 -4.32802 0.95419 76 78 77
0.96928 -4.34914 0.95377 90 95 80
0.96029 -4.36766 0.95367 111 105 92
0.93621 -4.37288 0.95509 83 63 73
0.94393 -4.40651 0.95329 72 62 62
0.92339 -4.41636 0.93241 84 75 89
0.93222 -4.42294 0.95345 85 89 81
0.91165 -4.43281 0.93253 100 96 77
0.92796 -4.44622 0.95284 106 105 80
0.92774 -4.50093 0.95077 78 80 89
0.90693 -4.51092 0.92961 79 86 87
0.88390 -4.60077 0.94990 61 66 59
0.85898 -4.63458 0.95029 82 69 43
0.85272 -4.65761 0.94983 99 89 72
0.82698 -4.66189 0.95140 134 133 103
0.79940 -4.66431 0.95317 156 154 119
0.77827 -4.67445 0.93168 175 182 176
0.77949 -4.67417 0.95413 172 166 173
0.75948 -4.68395 0.95511 171 162 170
0.73913 -4.69339 0.95612 163 161 159
-0.06880 -4.83488 1.00516 152 148 136
-0.04839 -4.82509 1.02591 135 126 146
-0.04993 -4.82644 0.98247 152 148 139
-0.06957 -4.83556 0.98344 154 161 144
-0.08953 -4.84262 1.00627 147 147 131
-0.27800 -4.87378 1.01778 131 135 126
-0.25930 -4.86541 0.99528 132 133 144
-0.27876 -4.87445 0.99625 127 137 138
-0.28413 -4.90069 1.01716 127 129 113
-0.29374 -4.92316 1.01695 124 128 114
-0.31409 -4.93293 0.99625 131 132 123
-0.30400 -4.94495 1.01681 119 120 117
-0.32441 -4.95474 0.99606 129 129 121
-0.32102 -4.95766 1.01747 112 112 110
-0.34145 -4.96746 0.99670 129 130 124
-0.33403 -4.97597 1.01765 113 117 110
-0.35449 -4.98579 0.99684 135 134 131
-0.34777 -4.99338 1.01791 126 133 116
-0.36827 -5.00322 0.99706 138 136 120
-0.35675 -5.01760 1.01758 134 135 115
-0.37731 -5.02747 0.99668 125 129 117
-1.93067 -3.93239 1.16520 94 95 85
-1.94553 -3.93952 1.15009 30 24 33
-1.94227 -3.94443 1.16552 53 55 40
-1.95715 -3.95157 1.15039 28 20 26
-1.94924 -3.96591 1.16517 31 21 23
-1.96417 -3.97308 1.14998 24 25 32
-2.60750 -3.15698 1.24049 155 165 181
-2.59692 -3.15225 1.22777 60 67 71
-2.60793 -3.15736 1.22832 77 86 112
-2.61893 -3.16247 1.22886 114 114 138
-2.62698 -3.14128 1.24240 207 211 210
-2.64113 -3.13835 1.24347 226 218 210
-2.66856 -3.13421 1.24548 230 218 206
-2.67984 -3.13962 1.23401 231 218 202
-2.68384 -3.12790 1.24675 237 229 217
-2.70203 -3.11381 1.24851 246 244 237
-2.71758 -3.10621 1.24985 250 251 253
-2.72786 -3.11080 1.26221 254 254 254
-2.72828 -3.11117 1.25038 253 254 254
-2.77667 -3.08143 1.25478 254 254 254
-2.76572 -3.07618 1.26592 254 254 254
-2.76613 -3.07654 1.25426 254 254 254
-2.77626 -3.08107 1.26644 254 254 254
-2.78985 -3.07902 1.25576 245 253 243
-2.79807 -3.09032 1.25589 218 208 199
-2.80902 -3.09558 1.24475 154 150 136
-2.79833 -3.12433 1.25460 176 165 159
-2.80938 -3.12963 1.24336 157 155 138
-2.80476 -3.14132 1.25439 160 150 144
-2.82716 -3.18485 1.25423 141 140 133
-2.83663 -3.19379 1.25453 90 95 83
-2.84785 -3.19917 1.24312 49 60 60
-3.14404 -4.32769 1.23187 33 33 32
-3.13079 -4.32176 1.21593 26 25 39
-3.15729 -4.33735 1.23239 56 59 39
-3.17163 -4.34423 1.21781 65 64 41
-3.28898 -4.13660 1.24895 68 71 57
-3.27648 -4.13100 1.23391 67 67 53
-3.30220 -4.14113 1.24966 76 88 87
-3.31524 -4.14693 1.25032 84 98 116
-3.32816 -4.15361 1.25094 92 103 132
-3.34389 -4.13857 1.25257 102 119 137
-3.35632 -4.14413 1.26753 120 132 136
-3.49028 -4.02101 1.26694 146 137 104
-3.49076 -4.02143 1.25325 152 133 97
-3.50217 -4.02633 1.28124 133 122 94
-3.50314 -4.02718 1.25386 153 139 97
-3.58413 -3.96238 1.27551 144 145 117
-3.59620 -3.96798 1.27611 150 145 122
-3.59667 -3.96840 1.26276 147 148 119
-3.61882 -4.00315 1.27629 145 145 122
-3.60620 -3.99710 1.28911 146 142 122
-3.60668 -3.99752 1.27568 146 144 128
-3.62692 -4.07612 1.27404 124 113 98
-3.63707 -4.12058 1.27302 77 69 76
-3.65008 -4.11651 1.27406 61 74 83
-3.66156 -4.14122 1.27388 95 105 103
-3.67246 -4.18103 1.27310 132 131 120
-3.68555 -4.18732 1.25978 129 136 110
1.00765 -3.61075 0.96011 62 67 80
0.99529 -3.62254 0.96048 57 53 81
0.98603 -3.63662 0.96053 50 49 93
0.96853 -3.64475 0.96140 47 50 100
0.95664 -3.69941 0.95994 38 48 87
0.97360 -3.69183 0.93955 44 48 99
0.95595 -3.70002 0.94042 47 47 92
0.95273 -3.71792 0.95944 56 69 119
0.94289 -3.73206 0.95953 132 149 187
0.95436 -3.76248 0.95748 185 195 214
0.93653 -3.77075 0.95836 195 199 210
0.93347 -3.81254 0.95683 191 194 207
0.95073 -3.80482 0.93608 196 199 211
0.93277 -3.81315 0.93697 193 194 210
0.92517 -3.82839 0.95675 181 185 194
0.96028 -3.87830 0.95225 124 130 140
0.91760 -3.86746 0.95564 70 69 84
0.93054 -3.90045 0.95338 63 56 69
0.91161 -3.90954 0.93413 66 62 71
0.97171 -4.14820 0.94023 72 74 76
0.99000 -4.14003 0.91824 66 65 71
0.95195 -4.15769 0.92013 61 60 52
0.99309 -4.19105 0.93697 67 71 66
0.97316 -4.20061 0.91671 63 56 60
1.00288 -4.22450 0.93491 65 61 69
1.00335 -4.27592 0.93274 62 64 60
1.01024 -4.30767 0.93094 83 91 78
1.00381 -4.32816 0.93053 92 109 89
0.99104 -4.34323 0.93078 88 86 70
0.97063 -4.35303 0.91003 92 99 92
0.98113 -4.36091 0.93073 92 84 60
0.95921 -4.36806 0.93195 103 95 85
0.95009 -4.38658 0.93180 98 86 97
0.94727 -4.41087 0.93099 92 97 103
0.92672 -4.42073 0.91009 84 77 99
0.93571 -4.48203 0.92882 94 94 67
0.92763 -4.50224 0.92854 72 74 74
0.89249 -4.58180 0.92765 77 74 76
0.91192 -4.57310 0.90428 79 62 59
0.87585 -4.59458 0.92827 70 45 75
0.87016 -4.61786 0.92769 78 73 86
0.85333 -4.63061 0.92832 122 111 117
0.83222 -4.64074 0.90686 168 158 159
0.83436 -4.64135 0.92918 162 157 148
0.81325 -4.65148 0.90771 166 155 152
0.81285 -4.64962 0.93032 166 162 145
0.79047 -4.65704 0.93156 162 167 134
0.74457 -4.67066 0.93416 175 149 161
0.72308 -4.67887 0.93530 152 158 150
0.70705 -4.69254 0.93583 133 135 143
0.68754 -4.70127 0.95929 160 155 162
0.68675 -4.70197 0.93684 161 162 158
0.36256 -4.75803 0.95687 167 160 152
0.36334 -4.75734 0.97900 141 152 142
0.36178 -4.75871 0.93473 168 163 152
0.34255 -4.76732 0.95786 167 171 158
0.34177 -4.76800 0.93572 168 171 150
-0.10213 -4.82843 0.98598 147 156 140
-0.08332 -4.82002 0.96336 155 152 139
-0.10289 -4.82911 0.96433 148 152 139
-0.12173 -4.83749 0.98696 145 150 126
-0.14054 -4.84590 1.00958 141 136 134
-0.14130 -4.84657 0.98793 143 145 124
-0.28168 -4.90567 0.99515 130 139 129
-0.26288 -4.89726 0.97255 133 132 138
-0.28244 -4.90634 0.97352 136 141 132
-0.30199 -4.91542 0.97449 140 139 127
-0.29428 -4.92414 0.99525 132 136 123
-0.31463 -4.93391 0.97455 136 130 126
-0.72980 -5.03730 1.02058 120 119 121
-0.71048 -5.02833 1.01962 127 131 125
-0.72905 -5.03663 1.04195 125 134 125
-0.73055 -5.03796 0.99920 117 114 108
-0.74837 -5.04560 1.04291 123 124 132
-0.74912 -5.04627 1.02154 119 118 127
-1.89883 -3.89274 1.14882 120 117 109
-1.88405 -3.88565 1.16384 122 123 124
-1.88460 -3.88613 1.14811 123 123 117
-1.88516 -3.88662 1.13238 125 123 118
-1.89827 -3.89225 1.16455 117 116 115
-1.93783 -3.91980 1.15038 46 50 45
-1.95264 -3.92691 1.13533 29 23 33
-2.64305 -3.13501 1.23167 172 181 193
-2.63259 -3.13033 1.21908 51 59 90
-2.64348 -3.13539 1.21962 66 76 107
-2.65437 -3.14044 1.22017 131 140 159
-2.65444 -3.13883 1.23229 215 216 212
-2.66920 -3.13403 1.23351 229 218 205
-2.69828 -3.12498 1.23589 231 222 210
-2.69870 -3.12535 1.22397 229 220 201
-2.70948 -3.13035 1.22451 232 216 196
-2.71704 -3.10908 1.23785 237 231 218
-2.76801 -3.07293 1.24287 254 254 253
-2.77833 -3.07839 1.24335 241 245 232
-2.78254 -3.10077 1.24271 203 191 172
-2.79354 -3.10605 1.23153 151 148 128
-2.78626 -3.12493 1.24196 166 155 137
-2.79733 -3.13024 1.23071 154 157 140
-2.82099 -3.16791 1.24257 131 118 124
-2.82704 -3.18684 1.24220 82 79 84
-2.83824 -3.19222 1.23080 51 59 59
-2.83561 -3.19851 1.24231 52 61 58
-2.84684 -3.20390 1.23089 54 61 62
-3.14451 -4.32857 1.21659 37 27 42
-3.13126 -4.32264 1.20065 26 23 40
-3.15743 -4.34021 1.21700 55 55 44
-3.17178 -4.34709 1.20241 69 64 51
-3.28977 -4.13508 1.23466 68 69 67
-3.27728 -4.12949 1.21963 62 62 60
-3.29028 -4.13552 1.22027 63 62 67
-3.30256 -4.14269 1.23522 69 78 85
-3.31567 -4.14794 1.23591 74 83 98
-3.32808 -4.15849 1.23632 80 84 107
-3.34238 -4.15461 1.23747 90 104 126
-3.35901 -4.13170 1.23957 106 125 131
-3.37557 -4.10766 1.24172 123 136 146
-3.38837 -4.11360 1.24235 143 152 153
-3.55704 -3.99471 1.25893 116 116 95
-3.54532 -3.98946 1.24482 131 117 95
-3.57069 -3.98142 1.26042 130 136 114
-3.58331 -3.98748 1.24759 146 148 115
-3.60805 -3.98438 1.26288 139 144 117
-3.61796 -4.02471 1.26188 132 133 106
-3.62663 -4.08952 1.25978 102 90 93
-3.63778 -4.11710 1.25940 88 80 83
-3.65073 -4.12331 1.24624 99 104 74
-3.65073 -4.11370 1.26044 97 104 86
-3.66238 -4.13517 1.26035 109 116 105
-3.67534 -4.14139 1.24716 133 138 116
-3.71907 -4.32894 1.25620 146 140 122
-3.71958 -4.32939 1.24183 148 144 133
-3.73206 -4.33497 1.25684 152 144 122
-3.73257 -4.33542 1.24248 149 145 127
1.06012 -3.60814 0.93721 154 158 164
1.04476 -3.61781 0.93786 149 148 154
1.04017 -3.63526 0.93740 138 136 136
1.04975 -3.66310 0.93547 127 119 132
1.01140 -3.65622 0.93848 90 92 112
0.96311 -3.72684 0.93871 31 47 102
0.98015 -3.71921 0.91821 48 48 90
0.96241 -3.72744 0.91910 40 49 93
0.95509 -3.74241 0.93858 75 96 153
0.96305 -3.77022 0.93677 156 171 210
0.96821 -3.79612 0.93524 194 203 222
0.94955 -3.80507 0.91627 194 201 209
0.93069 -3.83384 0.93619 191 194 212
0.94801 -3.82610 0.91537 193 197 205
0.92999 -3.83446 0.91626 192 195 207
0.91195 -3.84164 0.93716 167 173 180
0.81378 -3.78685 0.94655 110 105 95
0.93731 -3.90701 0.93243 68 55 53
0.98053 -4.15686 0.91815 64 63 59
0.96073 -4.16637 0.89802 62 58 58
1.01624 -4.26260 0.91088 65 59 79
1.03491 -4.25425 0.88843 68 59 65
1.01548 -4.26327 0.88939 72 63 77
1.02144 -4.29275 0.90916 67 74 86
1.01474 -4.31289 0.90873 82 91 88
1.00320 -4.32896 0.90882 91 98 91
0.99186 -4.34530 0.90888 88 93 93
0.95976 -4.36990 0.91004 102 95 84
0.93931 -4.37971 0.88925 68 64 84
0.95018 -4.38803 0.90990 99 91 90
0.95099 -4.41557 0.90861 89 88 96
0.94411 -4.46363 0.90693 100 105 105
0.95725 -4.50309 0.90423 110 116 109
0.93196 -4.50762 0.90581 100 102 100
0.91532 -4.52008 0.90642 86 94 92
0.89603 -4.52871 0.92962 72 77 79
0.90959 -4.54274 0.90581 73 76 64
0.89910 -4.58947 0.90445 87 83 77
0.90386 -4.62259 0.90262 123 124 117
0.88271 -4.63274 0.88111 163 161 160
0.87705 -4.62588 0.90437 162 156 146
0.85592 -4.63602 0.88288 161 158 158
0.84482 -4.62391 0.90673 174 165 156
0.82375 -4.63402 0.88530 163 161 155
0.78109 -4.64932 0.91008 168 166 157
0.80057 -4.64061 0.88665 164 158 147
0.78030 -4.65002 0.88766 163 161 154
0.76016 -4.65809 0.91116 166 170 185
0.73910 -4.66819 0.88975 141 150 139
0.73813 -4.66575 0.91237 165 155 151
0.71232 -4.66961 0.91402 144 139 143
0.68489 -4.67177 0.91585 140 133 139
0.69767 -4.71451 0.91303 164 169 169
0.67812 -4.72326 0.93655 161 167 148
0.67732 -4.72396 0.91404 165 168 151
0.67653 -4.72466 0.89153 161 166 164
0.41717 -4.69509 0.93368 181 167 153
0.43629 -4.68653 0.91069 164 166 162
0.41639 -4.69577 0.91168 171 174 168
0.38700 -4.69323 0.93590 160 158 148
0.35035 -4.71501 0.93750 169 166 166
0.32972 -4.72491 0.91651 162 167 150
-0.12183 -4.83901 0.96522 149 150 137
-0.10301 -4.83059 0.94260 161 157 152
-0.12259 -4.83968 0.94357 159 164 147
-0.14395 -4.84485 0.96652 147 145 133
-0.16275 -4.85325 0.98913 140 143 122
-0.16351 -4.85393 0.96749 138 143 135
-0.75558 -5.03787 1.00097 122 118 119
-0.75634 -5.03853 0.97964 137 138 126
-0.77412 -5.04616 1.02327 125 122 118
-0.77562 -5.04748 0.98060 132 135 123
-1.89950 -3.89299 1.13310 125 126 115
-1.91039 -3.90608 1.13328 97 104 88
-1.93098 -3.90024 1.13500 49 54 49
-1.94573 -3.90732 1.12000 20 13 24
-2.66955 -3.13459 1.22150 190 200 197
-2.65913 -3.12993 1.20896 39 44 74
-2.68582 -3.12572 1.22305 220 221 207
-2.76462 -3.08359 1.23050 243 233 234
-2.76503 -3.08395 1.21881 212 199 193
-2.77968 -3.07616 1.23189 192 176 182
-2.79061 -3.08140 1.22078 152 147 127
-2.77700 -3.11764 1.22984 160 145 131
-2.81748 -3.17982 1.22990 69 66 85
-2.82868 -3.18520 1.21851 49 56 64
-2.82715 -3.18811 1.23021 50 54 64
-2.83836 -3.19349 1.21881 52 60 64
-3.14390 -4.33578 1.20095 38 26 49
-3.13063 -4.32984 1.18498 22 27 26
-3.15710 -4.34587 1.20143 56 54 56
-3.17147 -4.35276 1.18682 67 63 47
-3.30307 -4.14308 1.22084 62 63 72
-3.29057 -4.13749 1.20580 61 57 57
-3.31577 -4.15140 1.22136 66 71 76
-3.32811 -4.16255 1.22173 73 78 88
-3.34166 -4.16456 1.22259 71 80 107
-3.38809 -4.12067 1.22784 134 142 144
-3.40041 -4.12618 1.24266 137 140 127
-3.40416 -4.09842 1.22997 127 124 111
-3.41640 -4.10390 1.24469 127 118 86
-3.41689 -4.10433 1.23060 118 106 86
-3.55763 -3.99376 1.24550 122 121 100
-3.55810 -3.99418 1.23200 121 113 91
-3.57093 -3.98491 1.24683 134 142 108
-3.58356 -3.99097 1.23399 144 142 110
-3.59627 -3.98136 1.24878 146 143 117
-3.60738 -4.00204 1.24863 129 126 109
-3.62001 -4.00810 1.23579 101 106 82
-3.61729 -4.04338 1.24748 114 115 98
-3.63003 -4.04949 1.23452 115 121 90
-3.62815 -4.07247 1.24693 110 108 92
-3.63962 -4.09364 1.24679 109 106 83
-3.66300 -4.13292 1.24667 107 116 94
-3.67596 -4.13914 1.23350 138 140 105
1.05327 -3.60435 0.91849 171 173 183
1.01794 -3.62034 0.92027 159 164 170
1.02372 -3.64533 0.91864 149 150 163
1.02544 -3.66756 0.91745 130 131 144
1.01974 -3.68451 0.91704 108 113 106
0.97892 -3.67565 0.92041 73 70 89
0.97438 -3.69353 0.91987 51 48 87
0.96189 -3.74868 0.91811 40 52 112
0.95170 -3.76273 0.91816 104 116 168
0.96213 -3.79262 0.91597 175 188 209
0.90428 -3.83680 0.91800 188 191 198
0.92156 -3.82907 0.89722 195 198 204
0.88797 -3.84647 0.91871 142 154 146
0.88214 -3.86446 0.91826 78 94 82
0.91848 -3.91621 0.91314 64 70 63
0.90095 -3.92405 0.93423 67 66 65
0.90024 -3.92468 0.91405 70 70 66
0.96074 -4.06830 0.90275 70 66 76
0.98023 -4.05894 0.92258 71 66 72
0.97877 -4.06023 0.88107 79 86 92
0.96147 -4.06765 0.92351 74 69 74
0.96001 -4.06894 0.88200 87 94 98
0.94270 -4.07636 0.92444 75 67 77
0.97823 -4.10700 0.89962 82 75 75
0.97606 -4.12970 0.89868 82 74 73
0.98396 -4.16101 0.89660 72 61 64
1.01840 -4.29146 0.88782 62 63 68
1.03716 -4.28307 0.86526 72 68 69
1.01764 -4.29213 0.86623 59 58 67
1.02107 -4.31969 0.88626 59 57 61
1.00782 -4.33431 0.88651 85 82 79
0.99522 -4.34958 0.88668 93 110 90
0.97479 -4.35938 0.86591 80 66 85
0.98601 -4.36790 0.88646 80 87 86
0.96174 -4.37301 0.88796 67 61 88
0.94129 -4.38283 0.86716 88 91 92
0.92805 -4.42330 0.88796 75 71 91
0.93855 -4.45998 0.88543 89 86 105
0.96036 -4.50733 0.88157 113 110 121
0.93883 -4.51533 0.88274 106 107 104
0.91375 -4.52004 0.88432 82 74 89
0.91609 -4.55021 0.88269 68 56 64
0.88195 -4.54647 0.88533 96 81 70
0.90165 -4.59330 0.88165 141 138 125
0.88059 -4.60341 0.86024 166 158 154
0.88347 -4.60470 0.88241 163 165 149
0.86240 -4.61481 0.86099 163 161 154
0.69836 -4.65715 0.89322 149 145 136
0.69153 -4.67994 0.89261 167 169 166
0.67051 -4.69003 0.87123 162 147 144
0.68701 -4.70523 0.89172 168 166 164
0.39606 -4.70454 0.91272 163 167 171
0.41518 -4.69599 0.88972 172 174 167
0.37539 -4.71446 0.89170 156 135 145
0.36656 -4.70334 0.91490 155 140 150
0.34899 -4.71505 0.91560 163 169 159
-0.14928 -4.83969 0.94549 151 155 142
-0.13050 -4.83129 0.92291 156 161 151
-0.15004 -4.84036 0.92388 150 155 143
-0.16958 -4.84943 0.92485 151 150 143
-0.16696 -4.85115 0.94621 136 141 143
-0.18575 -4.85955 0.96881 139 146 139
-0.18651 -4.86023 0.94718 137 134 146
-1.88555 -3.88742 1.11662 119 118 115
-1.87077 -3.88033 1.13165 122 120 116
-1.87133 -3.88082 1.11591 121 121 116
-1.90253 -3.88870 1.11778 100 108 94
-1.92011 -3.88873 1.11905 51 62 48
-1.93484 -3.89580 1.10407 14 11 18
-1.94608 -3.87214 1.12172 21 20 27
-1.96072 -3.87917 1.10683 15 14 17
-2.66672 -3.14324 1.20886 76 95 123
-2.65626 -3.13856 1.19629 17 22 28
-2.69027 -3.11577 1.21189 152 170 181
-2.70076 -3.12147 1.21237 206 212 200
-2.71680 -3.11264 1.21395 230 221 204
-2.74626 -3.10107 1.21663 234 222 208
-2.74667 -3.10144 1.20486 235 225 194
-2.76722 -3.11182 1.21763 160 142 138
-2.78823 -3.12247 1.21862 151 153 133
-2.79929 -3.12778 1.20738 98 96 70
-2.79819 -3.12935 1.21901 143 145 122
-2.80926 -3.13466 1.20776 67 59 58
-2.81849 -3.17845 1.21810 50 53 69
-2.80814 -3.17382 1.20565 55 53 65
-2.81891 -3.17882 1.20619 52 56 65
-2.82968 -3.18382 1.20672 51 57 60
-3.14220 -4.34941 1.18487 35 33 44
-3.12888 -4.34345 1.16886 26 26 31
-3.15632 -4.35427 1.18566 56 57 49
-3.17071 -4.36117 1.17102 65 63 46
-3.30325 -4.14586 1.20631 60 60 58
-3.29075 -4.14026 1.19127 68 61 44
-3.30376 -4.14631 1.19191 61 61 41
-3.31678 -4.15235 1.19256 66 66 48
-3.31598 -4.15407 1.20683 64 64 63
-3.32872 -4.16222 1.20736 69 68 79
-3.34200 -4.16632 1.20812 72 73 96
-3.37200 -4.14598 1.21126 98 109 124
-3.38601 -4.14282 1.21242 119 124 124
-3.39940 -4.14924 1.19880 107 87 61
-3.40162 -4.12523 1.21440 112 90 81
-3.41493 -4.13162 1.20086 105 89 42
-3.41595 -4.11766 1.21580 109 93 65
-3.42822 -4.12315 1.23056 124 113 87
-3.43080 -4.10440 1.21751 112 109 83
-3.44302 -4.10987 1.23220 130 120 91
-3.44351 -4.11031 1.21814 118 116 93
-3.57080 -3.99334 1.23296 131 129 102
-3.58345 -3.99941 1.22009 143 140 111
-3.59673 -3.98196 1.23538 141 136 113
-3.60608 -4.02936 1.23376 112 106 94
-3.61879 -4.03546 1.22083 106 107 87
-3.64106 -4.07713 1.23398 109 107 86
-3.64154 -4.07755 1.22033 98 99 75
-3.65284 -4.09313 1.23405 103 106 79
-3.66361 -4.13090 1.23300 121 130 91
-3.67656 -4.13712 1.21983 150 144 106
1.05684 -3.60798 0.89867 161 167 180
1.03696 -3.61441 0.89981 144 154 177
1.03283 -3.63217 0.89919 133 148 165
1.03573 -3.65514 0.89779 127 126 148
1.02475 -3.66817 0.89793 130 133 150
1.01074 -3.67902 0.89840 126 147 153
1.02069 -3.70760 0.89619 123 137 145
1.01813 -3.72713 0.89537 96 109 122
0.98798 -3.72618 0.89764 64 65 81
0.97806 -3.74033 0.89764 52 47 73
0.97162 -3.75718 0.89724 42 39 89
0.96031 -3.77042 0.89739 61 60 118
0.92906 -3.76848 0.89979 130 142 177
0.95642 -3.81151 0.89556 182 194 212
0.93844 -3.81985 0.89645 195 198 209
0.91168 -3.84377 0.89718 194 196 200
0.92900 -3.83602 0.87636 196 196 204
0.91098 -3.84439 0.87726 194 196 203
0.88904 -3.84848 0.89861 182 184 176
0.84066 -3.83275 0.90298 121 123 123
0.93841 -3.93330 0.89059 60 58 76
0.94281 -3.96005 0.88889 54 54 68
0.92512 -3.96796 0.91017 67 66 68
0.94635 -3.98632 0.88727 64 67 76
0.92857 -3.99427 0.90865 66 66 72
0.95849 -4.01980 0.88465 72 78 84
0.98344 -4.11257 0.87802 92 96 99
0.96378 -4.12201 0.85802 88 82 87
0.97451 -4.12968 0.87779 86 81 80
0.99075 -4.16797 0.87462 77 69 61
1.01389 -4.21244 0.87062 69 54 49
1.01455 -4.23829 0.86923 71 59 57
0.99444 -4.24794 0.84879 81 69 56
1.01902 -4.31925 0.86472 65 60 64
1.03787 -4.31083 0.84207 61 57 54
0.99866 -4.32903 0.84401 75 66 76
1.00722 -4.33513 0.86477 76 71 76
0.99717 -4.35263 0.86461 78 73 86
0.97673 -4.36244 0.84382 85 84 81
0.95948 -4.37236 0.86636 84 68 96
0.95871 -4.37304 0.84459 93 89 86
0.93601 -4.40489 0.86641 90 76 80
0.92075 -4.41810 0.86685 78 70 72
0.89941 -4.42584 0.86802 68 64 72
0.92545 -4.47685 0.86347 77 76 82
0.92847 -4.50722 0.86168 91 86 93
0.91066 -4.51860 0.86241 102 90 86
0.91803 -4.55344 0.86006 127 116 127
0.90946 -4.57367 0.85965 137 144 124
0.90103 -4.59416 0.85921 143 161 149
0.87997 -4.60427 0.83780 160 169 162
0.73295 -4.63421 0.86952 155 156 152
0.73217 -4.63490 0.84722 143 134 138
0.69796 -4.65824 0.87085 174 166 150
0.69717 -4.65893 0.84853 172 166 148
0.67699 -4.66830 0.84954 174 163 141
0.67692 -4.66674 0.87196 165 163 154
0.64177 -4.69076 0.87331 159 152 162
0.64098 -4.69146 0.85097 168 173 164
0.62236 -4.69945 0.89665 165 166 166
0.62157 -4.70014 0.87431 165 158 167
0.38882 -4.69824 0.89155 167 168 171
0.40791 -4.68970 0.86859 166 170 171
0.36818 -4.70814 0.87056 161 151 142
0.34597 -4.71326 0.89393 161 174 161
0.34519 -4.71395 0.87197 160 157 155
0.32534 -4.72316 0.87295 157 156 150
0.32458 -4.72079 0.89511 157 160 155
0.30551 -4.72932 0.91805 165 156 144
0.30474 -4.73000 0.89610 161 158 153
-0.17987 -4.87048 0.92452 155 148 139
-0.16104 -4.86206 0.90188 157 155 148
-0.18063 -4.87115 0.90285 158 156 142
-0.19869 -4.87890 0.94716 140 134 140
-0.20121 -4.87729 0.92574 149 140 142
-0.22002 -4.88570 0.94837 141 143 134
-0.22079 -4.88637 0.92671 140 138 137
-1.87277 -3.87963 1.10033 122 120 116
-1.85800 -3.87254 1.11535 115 116 119
-1.85855 -3.87302 1.09963 126 125 123
-1.85910 -3.87351 1.08390 126 125 118
-1.88894 -3.88249 1.10138 95 92 96
-1.91270 -3.87062 1.10374 50 55 61
-1.92739 -3.87767 1.08881 11 12 19
-1.93647 -3.85843 1.10612 20 21 25
-1.95108 -3.86544 1.09126 15 16 13
-1.99197 -3.88607 1.10878 31 24 32
-1.97845 -3.88003 1.09251 31 25 29
-1.99142 -3.88559 1.12434 31 23 22
-1.99252 -3.88656 1.09321 31 37 39
-2.00604 -3.89261 1.10947 35 35 39
-2.02624 -3.88652 1.11128 27 32 35
-2.02569 -3.88604 1.12679 30 37 40
-2.03972 -3.89255 1.12748 29 34 36
-2.04081 -3.89351 1.09646 23 19 20
-2.04308 -3.88718 1.11248 27 27 32
-2.05653 -3.89320 1.12866 26 29 23
-2.05708 -3.89368 1.11318 27 27 22
-2.66748 -3.14274 1.19690 18 32 49
-2.65703 -3.13806 1.18433 23 28 21
-2.66791 -3.14311 1.18487 18 26 23
-2.67878 -3.14816 1.18541 18 24 37
-2.68539 -3.12975 1.19889 53 67 96
-2.69662 -3.13514 1.18747 31 34 64
-2.70952 -3.10021 1.20219 114 119 145
-2.71508 -3.11860 1.20165 178 187 199
-2.73740 -3.09287 1.20463 217 218 207
-2.76014 -3.09871 1.20600 215 196 174
-2.76780 -3.11173 1.20589 162 146 119
-2.77729 -3.11986 1.20617 154 153 126
-2.78836 -3.12518 1.19491 95 93 79
-2.78999 -3.11905 1.20714 139 133 108
-2.80104 -3.12435 1.19591 67 66 59
-3.14182 -4.35528 1.16920 37 37 46
-3.15583 -4.36093 1.16994 56 54 52
-3.17024 -4.36784 1.15528 66 59 56
-3.32918 -4.16301 1.19292 70 71 59
-3.31666 -4.15741 1.17786 74 68 38
-3.32969 -4.16346 1.17851 67 67 31
-3.34261 -4.16601 1.19376 72 74 72
-3.35581 -4.17056 1.19449 75 79 88
-3.37192 -4.15124 1.19668 93 101 112
-3.38579 -4.14938 1.19779 111 114 114
-3.39920 -4.15582 1.18415 100 89 63
-3.42742 -4.14062 1.20131 95 90 46
-3.41509 -4.13511 1.18649 107 96 54
-3.42792 -4.14106 1.18713 108 95 51
-3.44074 -4.14702 1.18776 105 93 65
-3.44349 -4.11565 1.20379 98 93 68
-3.45573 -4.12112 1.21849 129 120 97
-3.45622 -4.12155 1.20442 118 109 89
-3.47494 -4.06663 1.20863 128 119 91
-3.47445 -4.06620 1.22250 136 121 96
-3.48699 -4.07202 1.22312 137 122 91
-3.48747 -4.07245 1.20925 132 124 92
-3.55817 -3.99978 1.21821 129 125 96
-3.54595 -3.99411 1.21761 134 127 91
-3.54643 -3.99453 1.20409 132 122 107
-3.55865 -4.00020 1.20470 128 122 104
-3.57142 -3.99174 1.21960 135 133 105
-3.59672 -3.98934 1.22159 123 120 104
-3.60932 -3.99539 1.20877 86 91 85
-3.60605 -4.03744 1.21979 99 99 92
-3.61879 -4.04356 1.20684 106 110 90
-3.62966 -4.06424 1.22015 110 116 79
-3.65367 -4.08707 1.22073 111 106 92
-3.66391 -4.13495 1.21902 143 140 108
-3.67687 -4.14117 1.20583 149 142 116
-4.29856 -5.84619 1.17736 157 167 173
-4.31624 -5.86574 1.17765 157 170 156
-4.33238 -5.87295 1.19706 146 166 169
-4.33303 -5.87353 1.17848 150 161 171
-4.33369 -5.87411 1.15991 162 169 174
1.03840 -3.59593 0.88134 113 114 141
1.02988 -3.63113 0.88005 46 68 107
1.01165 -3.63988 0.86152 51 62 82
1.02788 -3.65055 0.87913 51 63 99
1.00960 -3.65932 0.86054 54 57 83
1.03430 -3.67624 0.87723 54 60 104
1.01505 -3.68330 0.87829 75 69 119
1.02473 -3.71171 0.87600 100 103 140
1.01503 -3.72596 0.87595 121 131 148
1.00448 -3.73964 0.87599 106 120 122
0.97769 -3.74118 0.87792 72 73 82
0.98032 -3.76489 0.87642 50 43 82
0.96963 -3.77866 0.87646 35 39 101
0.94976 -3.80754 0.87637 149 166 193
0.95541 -3.83416 0.87448 190 198 208
0.91564 -3.87063 0.87546 193 195 197
0.93303 -3.86284 0.85454 194 195 204
0.91493 -3.87125 0.85544 193 196 208
0.90724 -3.88673 0.87521 165 166 162
0.91249 -3.91381 0.87332 95 89 84
0.96506 -3.97912 0.86578 49 41 52
0.95455 -3.99416 0.86574 50 51 75
0.94759 -4.01217 0.86528 58 56 81
0.92829 -4.02143 0.84565 55 52 68
0.94223 -4.03159 0.86461 64 61 87
0.95754 -4.06816 0.86145 74 70 89
0.97013 -4.10281 0.85860 82 78 90
0.98907 -4.16784 0.85360 87 84 79
0.99453 -4.19742 0.85156 83 75 73
0.99938 -4.22673 0.84958 84 63 64
1.02142 -4.32266 0.84265 66 62 66
1.00104 -4.33244 0.82193 74 72 85
0.99649 -4.35338 0.84284 75 70 80
0.94624 -4.38860 0.84468 85 82 87
0.92576 -4.39843 0.82385 73 69 77
0.94057 -4.41034 0.84391 82 78 76
0.92393 -4.42234 0.84450 73 69 57
0.89549 -4.42366 0.84656 61 52 46
0.91227 -4.46620 0.84296 81 76 76
0.93640 -4.51592 0.83841 106 109 121
0.91651 -4.52542 0.83939 139 138 131
0.89564 -4.53543 0.81817 147 146 145
0.90982 -4.54721 0.83869 144 142 144
0.88890 -4.55726 0.81741 147 153 146
0.90118 -4.56734 0.83823 142 153 146
0.88020 -4.57740 0.81691 147 151 151
0.89059 -4.58576 0.83802 140 156 154
0.86958 -4.59585 0.81665 156 149 161
0.79794 -4.61197 0.84354 178 158 157
0.81890 -4.60191 0.86486 159 151 155
0.81812 -4.60260 0.84254 161 151 154
0.79872 -4.61128 0.86586 169 161 155
0.77776 -4.62134 0.84454 176 175 168
0.73957 -4.61305 0.84787 146 151 148
0.70016 -4.63250 0.84976 150 153 145
0.67928 -4.64253 0.82852 166 162 154
0.66227 -4.68318 0.84982 171 160 144
0.68169 -4.67450 0.82647 171 173 154
0.66148 -4.68388 0.82748 175 176 146
0.42338 -4.67578 0.86819 157 157 160
0.44322 -4.66657 0.86720 163 156 147
0.44245 -4.66725 0.84525 160 161 144
0.40276 -4.68568 0.84722 162 169 177
-0.19693 -4.88454 0.90334 160 154 146
-0.17808 -4.87611 0.88068 156 155 143
-0.22188 -4.88661 0.90510 148 139 137
-0.24070 -4.89502 0.92773 138 136 136
-0.24146 -4.89570 0.90608 138 132 132
-0.24222 -4.89637 0.88442 145 136 119
-1.87480 -3.87731 1.08487 118 114 108
-1.86115 -3.87120 1.06845 123 122 111
-1.89818 -3.86635 1.08723 78 70 71
-1.91754 -3.86283 1.08888 24 19 30
-1.93219 -3.86986 1.07398 13 13 14
-1.96606 -3.87015 1.09213 20 18 19
-2.00872 -3.88874 1.09431 28 30 36
-2.02332 -3.89574 1.07946 17 17 9
-2.02574 -3.88915 1.09557 22 21 21
-2.04032 -3.89615 1.08074 18 15 9
-2.06490 -3.87890 1.09907 25 20 18
-2.06544 -3.87938 1.08365 20 14 11
-2.07830 -3.88490 1.11519 28 27 25
-2.08320 -3.87614 1.10060 30 22 32
-2.09657 -3.88212 1.11668 28 27 33
-2.09711 -3.88260 1.10129 29 29 38
-2.73488 -3.10102 1.19222 135 145 168
-2.74537 -3.10640 1.19271 197 204 202
-2.75927 -3.10255 1.19397 217 210 186
-2.76742 -3.11427 1.19394 165 153 114
-2.77849 -3.11957 1.18269 93 90 95
-3.34332 -4.16486 1.17946 66 70 47
-3.33081 -4.15926 1.16441 73 69 50
-3.34383 -4.16530 1.16506 72 68 53
-3.35684 -4.17135 1.16571 75 73 58
-3.35638 -4.17052 1.18013 73 78 67
-3.37101 -4.16327 1.18163 85 87 80
-3.38605 -4.15186 1.18338 97 92 79
-3.39947 -4.15830 1.16974 94 89 66
-3.45974 -4.09222 1.19220 102 97 85
-3.44760 -4.08678 1.17760 105 97 67
-3.46024 -4.09265 1.17823 107 99 74
-3.47287 -4.09851 1.17886 111 93 72
-3.47539 -4.06741 1.19475 108 102 87
-3.57085 -4.00597 1.20530 132 132 108
-3.55911 -4.00072 1.19118 131 120 111
-3.57133 -4.00639 1.19179 135 134 119
-3.58345 -4.00638 1.20622 139 138 113
-3.59312 -4.04868 1.20463 107 103 93
-3.62942 -4.07673 1.20581 100 93 79
-3.64225 -4.08288 1.19277 119 121 101
-3.64171 -4.08351 1.20636 93 93 87
-3.65306 -4.10809 1.20586 121 127 113
-3.66595 -4.11428 1.19275 146 143 125
-4.28257 -5.84053 1.15791 154 163 167
-4.29999 -5.84889 1.14020 165 180 181
1.05430 -3.60835 0.86008 51 61 106
1.03612 -3.61707 0.84159 59 60 92
1.04581 -3.62293 0.85988 52 59 95
1.02759 -3.63168 0.84136 57 61 85
1.01802 -3.68660 0.85830 54 53 88
1.03502 -3.67899 0.83786 56 64 82
1.01733 -3.68720 0.83874 55 61 80
0.99965 -3.69542 0.83961 55 58 78
1.00207 -3.69609 0.85897 52 57 98
0.99958 -3.71561 0.85802 77 82 117
1.00809 -3.74347 0.85575 111 122 141
0.99622 -3.75625 0.85591 102 118 125
0.97615 -3.76288 0.85706 60 69 82
0.97643 -3.78498 0.85575 40 39 82
0.95781 -3.79392 0.83681 35 38 82
0.95945 -3.79402 0.85653 33 42 108
0.92913 -3.79281 0.85893 93 108 157
0.95801 -3.83733 0.85411 172 178 198
0.95131 -3.85458 0.85362 196 195 205
0.93250 -3.86360 0.83450 195 198 203
0.91552 -3.89448 0.85404 188 191 196
0.93299 -3.88667 0.83303 193 196 206
0.90524 -3.90922 0.85397 134 143 132
0.96186 -3.97776 0.84562 66 72 61
0.96037 -4.00009 0.84444 51 44 48
0.95571 -4.02000 0.84363 55 50 66
0.96226 -4.07329 0.84002 61 54 68
0.96153 -4.07394 0.81925 63 61 62
0.94275 -4.08265 0.82018 61 61 68
0.97627 -4.10915 0.83685 71 64 75
0.98144 -4.13799 0.83477 83 78 81
0.99903 -4.17747 0.83112 87 84 88
1.00322 -4.20604 0.82913 91 89 91
0.99428 -4.22370 0.82879 86 78 75
0.97425 -4.23331 0.80842 87 83 88
1.00821 -4.26100 0.82554 82 76 69
0.98804 -4.27068 0.80504 89 87 97
1.01538 -4.29285 0.82314 77 65 69
1.01428 -4.31782 0.82176 71 65 78
0.98997 -4.34902 0.82181 69 63 71
0.98667 -4.37254 0.82069 72 74 72
0.97540 -4.38918 0.82058 69 69 79
0.95487 -4.39902 0.79972 48 51 42
0.95288 -4.39588 0.82192 64 65 78
0.93215 -4.43114 0.82145 84 75 71
0.91376 -4.44163 0.82225 86 84 75
0.92195 -4.47644 0.81959 111 107 107
0.93073 -4.51211 0.81684 137 132 126
0.90988 -4.52211 0.79564 163 157 139
0.90825 -4.51919 0.81815 149 148 145
0.88741 -4.52918 0.79697 163 152 136
0.77703 -4.59319 0.82390 168 157 161
0.75311 -4.59879 0.82541 162 167 161
0.69753 -4.60220 0.82948 153 145 121
0.67674 -4.61217 0.80834 178 169 153
0.68247 -4.61640 0.82980 163 159 149
0.66166 -4.62638 0.80864 172 164 154
0.40423 -4.65686 0.84879 155 155 147
0.34866 -4.65785 0.85300 152 147 162
0.32898 -4.66699 0.85398 164 149 142
-0.11454 -4.78751 0.88098 167 167 154
-0.09436 -4.77782 0.90150 160 155 143
-0.11379 -4.78684 0.90246 158 154 142
-0.11530 -4.78818 0.85949 166 164 158
-0.13321 -4.79586 0.90343 156 151 145
-0.13473 -4.79720 0.86045 160 159 140
-0.20203 -4.87955 0.88232 159 151 142
-0.20279 -4.88023 0.86066 147 142 136
-0.22237 -4.88932 0.86163 146 140 132
-0.22030 -4.89037 0.88309 154 145 132
-1.87739 -3.87394 1.06954 116 113 101
-1.86375 -3.86784 1.05313 121 122 111
-1.89840 -3.86747 1.07153 81 74 63
-1.91258 -3.87396 1.07224 26 17 15
-1.92727 -3.88101 1.05729 14 11 12
-1.94657 -3.87587 1.07473 20 22 16
-1.96518 -3.87348 1.07630 37 37 29
-1.97741 -3.88368 1.07664 45 48 49
-1.99204 -3.89070 1.06177 27 26 26
-1.99788 -3.87731 1.07859 27 36 30
-2.01246 -3.88431 1.06376 19 18 19
-2.01020 -3.88732 1.07895 19 18 28
-2.02479 -3.89433 1.06411 19 19 6
-2.09097 -3.86130 1.08666 24 16 26
-2.07766 -3.85534 1.07065 18 13 5
-2.09151 -3.86178 1.07134 17 14 12
-2.10827 -3.86037 1.08805 24 24 31
-2.12156 -3.86631 1.10403 25 28 33
-2.12210 -3.86679 1.08873 22 27 30
-2.74815 -3.10043 1.18148 89 94 138
-2.73793 -3.09586 1.16919 17 21 34
-2.74856 -3.10080 1.16972 21 23 61
-2.75920 -3.10573 1.17024 53 59 104
-2.75610 -3.11264 1.18138 156 158 170
-2.76718 -3.11795 1.17012 82 73 82
-2.76899 -3.11148 1.18243 132 118 111
-2.78004 -3.11678 1.17119 79 82 90
-3.13865 -4.38129 1.13672 40 36 41
-3.37137 -4.16494 1.16719 80 80 59
-3.35890 -4.15936 1.15220 79 73 57
-3.37188 -4.16539 1.15284 76 75 55
-3.38485 -4.17141 1.15349 83 79 50
-3.38638 -4.15379 1.16900 88 86 61
-3.48852 -4.07259 1.18157 112 98 78
-3.47647 -4.06721 1.16709 115 103 73
-3.50266 -4.06085 1.18334 120 115 85
-3.51562 -4.06707 1.17016 135 123 90
-3.58220 -4.03077 1.19120 136 133 118
-3.57040 -4.02549 1.17701 138 132 112
-3.59299 -4.05797 1.19044 111 103 98
-3.60582 -4.06412 1.17740 82 61 59
-3.60506 -4.06791 1.19079 88 85 92
-3.62975 -4.07977 1.19199 102 101 73
-3.65270 -4.12446 1.19114 141 142 130
-3.65319 -4.12489 1.17736 146 141 122
-3.66564 -4.13068 1.17798 146 142 121
0.99515 -3.73493 0.83753 82 80 116
1.00337 -3.76276 0.83517 119 124 137
0.97501 -3.76315 0.83736 94 107 118
0.98235 -3.79063 0.83510 55 60 83
0.95952 -3.81737 0.83523 60 57 109
0.92940 -3.81634 0.83765 132 132 166
0.95756 -3.86062 0.83272 186 192 203
0.92728 -3.90501 0.83235 194 196 205
0.94479 -3.89717 0.81129 194 193 206
0.92657 -3.90563 0.81220 193 193 205
0.90251 -3.90823 0.83409 178 181 178
0.96911 -3.98480 0.82415 116 117 109
0.96189 -4.00254 0.82362 56 49 52
0.95167 -4.01794 0.82347 55 44 56
0.93235 -4.02721 0.80383 65 62 74
0.95452 -4.04412 0.82164 61 58 63
0.93512 -4.05343 0.80190 61 61 71
0.96389 -4.12463 0.81594 59 55 69
0.98209 -4.11649 0.79405 55 58 65
0.99693 -4.17699 0.81012 70 68 77
1.02306 -4.22406 0.80517 94 95 84
1.00556 -4.23457 0.80589 90 84 78
1.00677 -4.31266 0.80098 72 71 82
0.98106 -4.34257 0.80115 59 55 65
0.96068 -4.35235 0.78042 53 46 67
0.98240 -4.37014 0.79934 60 58 64
0.97200 -4.38752 0.79908 56 51 53
0.93618 -4.40915 0.80055 64 68 69
0.92725 -4.42809 0.80008 98 94 84
0.93610 -4.49077 0.79553 131 127 117
0.91531 -4.50074 0.77439 157 144 142
0.92137 -4.50491 0.79581 148 144 134
0.90056 -4.51489 0.77465 161 148 150
0.79920 -4.58731 0.80029 174 164 164
0.81852 -4.57867 0.77705 166 159 170
0.79842 -4.58800 0.77805 172 174 168
0.76084 -4.57897 0.80381 183 174 159
0.72983 -4.57757 0.80632 149 136 166
0.70096 -4.57811 0.80855 151 131 141
0.68024 -4.58805 0.78748 175 163 158
0.68883 -4.59508 0.80845 171 166 139
0.37944 -4.63190 0.83040 176 173 162
0.36554 -4.64720 0.83054 170 166 168
0.34042 -4.65044 0.83231 139 127 145
-0.09490 -4.78037 0.85837 161 155 153
-0.07471 -4.77068 0.87890 160 146 141
-0.07547 -4.77135 0.85741 149 151 128
-0.07622 -4.77202 0.83591 153 155 133
-0.09566 -4.78104 0.83688 156 154 145
-1.87924 -3.87195 1.05409 117 116 102
-1.86561 -3.86585 1.03770 118 120 113
-1.89260 -3.88013 1.05463 90 86 64
-1.91451 -3.87179 1.05686 34 28 12
-1.94783 -3.87497 1.05928 28 30 31
-1.96247 -3.88200 1.04438 58 65 72
-1.95943 -3.88647 1.05948 57 62 54
-1.97817 -3.88375 1.06111 51 51 60
-2.11725 -3.84276 1.07453 17 18 16
-2.10403 -3.83685 1.05862 17 15 7
-2.11779 -3.84324 1.05930 15 16 9
-2.13155 -3.84962 1.05999 13 17 11
-2.12904 -3.85341 1.07479 16 22 19
-2.14228 -3.85933 1.09072 27 27 39
-2.14336 -3.86028 1.06024 15 17 22
-3.12383 -4.38338 1.11998 23 21 30
-3.10985 -4.37689 1.11928 21 22 20
-3.11040 -4.37737 1.10382 24 22 15
-3.13784 -4.38975 1.12068 40 36 43
-3.15313 -4.38837 1.12196 59 52 45
-3.16763 -4.39532 1.10722 64 61 47
-3.48825 -4.08100 1.16716 117 100 82
-3.50130 -4.08726 1.15389 131 120 87
-3.50214 -4.07231 1.16878 124 111 84
-3.51514 -4.07854 1.15556 135 123 94
-3.58054 -4.06089 1.17562 134 129 106
-3.56865 -4.05557 1.16133 137 133 106
-3.59220 -4.07698 1.17554 107 86 78
-3.61730 -4.08365 1.17710 92 92 82
-3.62940 -4.09425 1.17739 126 128 102
-3.64228 -4.10043 1.16429 145 141 118
-3.64092 -4.11569 1.17697 144 138 113
-3.65385 -4.12190 1.16382 145 142 119
0.99507 -3.71449 0.81916 55 44 85
1.01054 -3.76930 0.81436 116 118 136
0.99269 -3.77768 0.81524 117 122 140
0.99039 -3.79790 0.81411 75 75 95
0.98448 -3.81549 0.81343 43 42 82
0.96574 -3.82448 0.79439 48 37 91
0.97307 -3.82897 0.81347 34 37 97
0.94183 -3.82713 0.81608 75 82 137
0.98504 -3.88322 0.80899 153 164 191
0.95978 -3.88618 0.81081 190 196 207
0.94086 -3.89525 0.79157 191 195 206
0.92776 -3.92960 0.81054 192 191 194
0.94534 -3.92173 0.78940 191 191 202
0.92705 -3.93022 0.79031 191 190 195
0.93236 -3.95648 0.80843 161 161 158
0.96297 -4.00463 0.80285 100 98 98
0.95433 -4.02133 0.80246 68 63 71
0.95963 -4.12235 0.79546 59 57 54
0.97782 -4.11421 0.77359 69 59 65
0.95889 -4.12300 0.77453 56 52 61
0.99186 -4.17402 0.78953 86 81 70
1.02114 -4.22374 0.78396 103 106 92
1.01212 -4.24145 0.78353 93 94 90
1.01284 -4.26758 0.78177 83 73 82
1.01542 -4.29553 0.77975 79 71 78
1.00372 -4.31135 0.77965 67 60 69
0.98340 -4.32110 0.75899 52 41 52
0.98257 -4.31904 0.78084 54 49 62
0.96722 -4.38465 0.77780 66 52 67
0.94855 -4.39475 0.77863 80 67 72
0.95981 -4.43172 0.77533 100 98 105
0.94238 -4.44313 0.77598 117 114 111
0.94944 -4.47683 0.77322 140 128 125
0.92308 -4.48026 0.77511 156 148 137
0.72666 -4.54732 0.78643 179 174 155
0.69338 -4.57213 0.78747 165 153 150
0.33108 -4.64184 0.81186 146 138 134
0.31071 -4.65162 0.79114 173 163 157
0.30585 -4.64482 0.81368 155 153 142
0.28550 -4.65458 0.79299 143 157 154
-1.88104 -3.87007 1.03866 121 122 109
-1.86742 -3.86398 1.02228 120 123 120
-1.89761 -3.87206 1.03985 102 99 76
-1.91305 -3.87615 1.04082 49 42 26
-1.93446 -3.86855 1.04302 19 12 24
-1.94731 -3.87754 1.04346 38 38 55
-1.98167 -3.87831 1.04616 47 38 56
-1.99627 -3.88532 1.03130 38 35 42
-1.99477 -3.88678 1.04665 33 27 33
-2.00959 -3.89176 1.04751 29 29 20
-2.02420 -3.89877 1.03266 30 29 13
-3.12025 -4.40774 1.10263 23 21 20
-3.10674 -4.40169 1.08638 21 24 23
-3.13416 -4.41515 1.10326 38 38 45
-3.14877 -4.42216 1.08840 60 53 54
-3.14896 -4.41724 1.10430 60 53 57
-3.16356 -4.42424 1.08946 62 60 45
-3.49032 -4.06475 1.15448 125 115 84
-3.50331 -4.07099 1.14127 131 120 90
-3.57975 -4.07899 1.16069 142 133 100
-3.56781 -4.07365 1.14633 137 134 110
-3.58024 -4.07941 1.14695 143 139 108
-3.59112 -4.10020 1.16022 129 100 85
-3.60406 -4.09878 1.16134 120 96 83
-3.61653 -4.10414 1.16199 130 127 101
-3.62946 -4.11035 1.14884 145 143 121
-3.62856 -4.11700 1.16212 141 141 114
-3.64152 -4.12322 1.14894 147 142 123
1.03065 -3.69922 0.79767 54 54 84
1.04908 -3.69037 0.81641 57 61 90
1.04839 -3.69098 0.79679 50 57 77
1.03134 -3.69861 0.81729 56 62 89
1.01048 -3.72708 0.79741 81 82 109
1.02818 -3.76190 0.79358 108 112 117
0.99944 -3.78394 0.79442 115 118 135
1.00183 -3.80776 0.79259 88 82 114
0.99619 -3.82563 0.79183 58 45 94
0.97741 -3.83464 0.77273 56 40 86
0.96795 -3.84855 0.79256 43 46 109
0.94988 -3.85698 0.79346 99 111 161
0.98140 -3.90432 0.78765 170 180 201
0.93619 -3.96077 0.78747 184 183 183
0.95387 -3.95286 0.76621 191 189 195
0.95281 -3.99764 0.78360 135 139 144
0.94196 -4.01250 0.78347 74 75 89
0.94654 -4.04006 0.78121 57 47 64
0.92716 -4.04936 0.76150 60 47 60
0.97786 -4.16357 0.77022 63 65 71
0.99619 -4.15537 0.74817 58 54 56
1.01056 -4.21611 0.76396 86 89 86
0.99812 -4.23086 0.76397 88 92 90
1.00098 -4.25876 0.76182 79 73 76
1.00582 -4.28860 0.75939 70 69 65
0.98557 -4.29831 0.73880 56 48 58
1.00304 -4.31210 0.75801 59 53 60
0.97120 -4.33662 0.75892 54 43 52
0.97503 -4.36635 0.75658 65 55 70
0.97013 -4.38859 0.75546 76 72 73
0.95354 -4.40056 0.75599 93 90 73
