ply
format ascii 1.0
element face 0
property list uchar int vertex_indices
element vertex 1329
property float x
property float y
property float z
property uchar diffuse_red
property uchar diffuse_green
property uchar diffuse_blue
end_header
2.34138 -3.26986 0.23142 199 163 33
2.31262 -3.26366 0.24353 165 137 13
2.30663 -3.27836 0.24343 171 145 54
2.33302 -3.32336 0.22587 194 186 148
2.32422 -3.33581 0.22722 173 170 154
2.31925 -3.35195 0.22649 172 168 162
2.30939 -3.36353 0.22840 188 188 190
2.30203 -3.37757 0.22894 180 172 162
2.30290 -3.39963 0.22499 149 136 131
2.27965 -3.41989 0.23064 129 123 126
1.61803 -3.31630 0.50291 159 135 130
1.63420 -3.30840 0.51369 156 135 124
1.63040 -3.30899 0.49934 157 134 122
1.62661 -3.30958 0.48499 156 134 123
1.62183 -3.31571 0.51726 162 142 137
1.60946 -3.32303 0.52084 166 155 157
1.24700 -3.09331 0.68264 152 159 169
1.25474 -3.08724 0.66646 152 157 178
1.24061 -3.10612 0.68301 123 125 136
1.24226 -3.12959 0.67852 53 55 82
1.23790 -3.14535 0.67762 36 33 65
1.22314 -3.15257 0.66778 35 40 79
1.23264 -3.27182 0.65892 44 43 78
1.24784 -3.26438 0.66905 37 43 74
1.24427 -3.26494 0.65556 41 41 75
1.24070 -3.26549 0.64206 42 41 75
1.22395 -3.28278 0.66047 54 51 90
1.20596 -3.30405 0.66393 54 56 74
1.20237 -3.30461 0.65038 47 52 64
1.18730 -3.32459 0.66776 51 54 87
1.18765 -3.34896 0.66363 66 70 97
1.17060 -3.39689 0.66235 69 75 102
1.15925 -3.40468 0.66545 75 86 101
1.15873 -3.42881 0.66169 70 79 91
1.16032 -3.45639 0.65656 55 52 90
1.15531 -3.47422 0.65556 43 47 80
1.13956 -3.48193 0.64506 34 41 64
1.11401 -3.62127 0.64739 48 49 75
1.12639 -3.61395 0.64381 44 47 80
1.11781 -3.62068 0.66177 44 46 75
1.10542 -3.62801 0.66534 40 43 70
1.10934 -3.64132 0.64590 45 47 70
1.10073 -3.64808 0.66392 37 41 67
1.10079 -3.65511 0.64694 41 43 66
1.09215 -3.66189 0.66500 38 41 66
1.08833 -3.66248 0.65054 41 42 63
1.07806 -3.82024 0.62864 46 51 72
1.07411 -3.82085 0.61370 50 54 78
1.06124 -3.82847 0.61742 50 57 78
1.06645 -3.83009 0.63150 53 61 79
1.05562 -3.84137 0.63383 54 62 84
1.04424 -3.85173 0.63652 48 50 81
1.02738 -3.85998 0.62528 39 40 73
1.04000 -3.87515 0.63432 41 40 73
1.02307 -3.88343 0.62303 37 41 66
1.00591 -4.00503 0.62618 29 33 81
1.01997 -4.06583 0.61078 97 113 141
1.00265 -4.06620 0.61741 135 145 161
0.98511 -4.07477 0.60571 133 143 158
0.96889 -4.10305 0.62439 128 139 142
0.97822 -4.09573 0.60488 126 141 155
0.98683 -4.17475 0.60571 84 92 98
0.97659 -4.18989 0.60718 49 35 41
0.97045 -4.21366 0.60565 68 67 69
0.96376 -4.23656 0.60448 102 106 102
0.95196 -4.24899 0.60699 115 117 115
0.93388 -4.25783 0.59494 118 126 120
0.81131 -4.36594 0.64209 128 133 133
0.82951 -4.35704 0.65422 124 127 118
0.82523 -4.35771 0.63807 129 133 129
0.80703 -4.36661 0.62593 131 137 135
0.79311 -4.37484 0.62995 131 136 129
0.70948 -4.36986 0.68074 128 126 122
0.71903 -4.36238 0.66078 128 134 130
0.70526 -4.37052 0.66475 130 134 126
0.63685 -4.40069 0.70370 120 128 107
0.64638 -4.39322 0.68379 121 125 112
0.63264 -4.40135 0.68776 130 135 112
0.61890 -4.40947 0.69173 126 129 114
0.62388 -4.41085 0.70704 119 119 112
0.60592 -4.41964 0.69507 124 124 123
0.59667 -4.42788 0.71475 118 121 124
0.58164 -4.43248 0.71980 128 128 135
0.55037 -4.43811 0.73094 129 137 136
0.53247 -4.44687 0.71900 143 147 148
0.53764 -4.44895 0.73408 130 128 130
0.52347 -4.45574 0.73843 131 128 127
0.51397 -4.46319 0.75829 127 131 121
0.50976 -4.46385 0.74239 122 126 129
0.48667 -4.49289 0.74654 122 124 126
0.50464 -4.48411 0.75852 129 127 121
0.50042 -4.48476 0.74256 121 119 126
0.49090 -4.49224 0.76249 127 126 119
0.47715 -4.50037 0.76646 124 125 121
0.46871 -4.50168 0.73455 116 115 118
0.31631 -4.51746 0.80824 113 114 109
0.32569 -4.51010 0.78862 127 126 117
0.32047 -4.51682 0.82396 116 119 122
0.30277 -4.52547 0.81216 106 106 108
-0.99647 -5.23596 1.19698 77 76 69
-0.98719 -5.22869 1.17758 80 74 79
-1.00574 -5.24324 1.21638 71 70 65
-1.00985 -5.24388 1.20085 82 77 73
-1.01396 -5.24452 1.18532 87 82 81
2.56001 -3.07560 0.16209 117 94 63
2.56918 -3.06840 0.14291 122 97 76
2.56132 -3.09516 0.15831 110 90 53
2.56964 -3.12055 0.15083 96 73 49
2.56985 -3.13956 0.14757 77 54 41
2.55803 -3.14882 0.15060 59 43 28
2.54114 -3.15389 0.15630 42 30 29
2.53184 -3.16119 0.17574 34 29 29
2.52772 -3.16183 0.16018 36 29 24
2.52360 -3.16247 0.14461 38 29 28
2.50301 -3.19884 0.16357 40 33 49
2.49163 -3.20861 0.16634 36 41 76
2.48597 -3.22333 0.16608 123 131 153
2.45480 -3.21601 0.17939 188 197 209
2.42631 -3.25034 0.18470 201 200 196
2.43566 -3.24301 0.16514 202 202 207
2.42216 -3.25099 0.16904 201 201 204
2.40697 -3.25312 0.19173 197 188 147
2.38681 -3.25508 0.19923 194 160 53
2.35759 -3.26887 0.20825 200 165 31
2.34295 -3.27570 0.21279 200 167 51
2.32981 -3.28391 0.21651 192 170 57
2.31747 -3.29287 0.21980 191 174 80
2.33657 -3.33120 0.20597 194 183 167
2.33052 -3.34629 0.20579 194 192 176
2.31889 -3.35621 0.20864 166 166 151
2.31162 -3.37030 0.20910 187 190 189
2.30297 -3.38314 0.21031 190 185 183
2.29463 -3.39636 0.21133 184 178 160
2.28362 -3.40705 0.21381 139 128 107
2.27117 -3.41636 0.21708 116 106 102
2.26126 -3.42819 0.21894 144 138 144
2.25176 -3.43565 0.23882 130 127 112
2.24755 -3.43630 0.22291 150 152 134
1.63007 -3.33579 0.47926 156 134 131
1.63870 -3.32902 0.46122 154 134 124
1.62625 -3.33638 0.46481 158 134 130
1.62375 -3.35051 0.47924 162 145 145
1.24934 -3.10131 0.66620 154 159 174
1.25710 -3.09522 0.64997 153 156 178
1.24590 -3.10184 0.65321 155 157 175
1.24128 -3.11201 0.66754 141 144 147
1.24431 -3.13735 0.66212 85 85 92
1.24113 -3.15475 0.66044 34 32 65
1.22633 -3.16199 0.65056 37 37 79
1.23765 -3.28426 0.64010 49 48 82
1.22804 -3.29404 0.64220 58 59 88
1.21993 -3.30598 0.64334 56 57 77
1.20463 -3.31346 0.63314 41 47 65
1.20392 -3.33039 0.64547 50 51 79
1.20100 -3.35004 0.64331 63 63 91
1.20001 -3.37269 0.63990 74 81 104
1.18956 -3.38176 0.64243 83 88 113
1.18109 -3.39377 0.64371 70 67 100
1.17621 -3.41121 0.64268 62 57 99
1.16849 -3.42453 0.64345 60 75 94
1.16849 -3.44963 0.63924 59 69 83
1.16397 -3.46813 0.63790 49 46 81
1.15776 -3.48423 0.63761 37 43 71
1.14196 -3.49196 0.62708 38 41 62
1.12493 -3.61834 0.62789 53 55 90
1.14114 -3.61041 0.63870 42 49 83
1.13733 -3.61100 0.62431 46 46 83
1.12572 -3.64725 0.62275 62 69 96
1.11766 -3.66193 0.62342 59 62 85
1.11273 -3.68193 0.62198 49 49 73
1.11183 -3.70890 0.61782 47 46 67
1.10307 -3.71577 0.63612 42 43 61
1.09920 -3.71637 0.62146 46 46 64
1.09532 -3.71697 0.60681 53 51 67
1.05673 -3.85108 0.61539 47 53 77
1.03983 -3.85934 0.60412 38 43 74
1.04693 -3.86438 0.61696 42 45 75
1.03001 -3.87266 0.60568 37 42 74
1.02314 -4.01318 0.60127 40 40 74
1.04054 -4.00467 0.61287 39 40 66
1.03646 -4.00531 0.59743 42 39 67
1.03227 -4.06427 0.58918 69 67 103
1.01747 -4.06963 0.59402 120 133 149
0.99988 -4.07823 0.58230 136 142 155
1.00401 -4.07758 0.59792 136 143 158
0.98642 -4.08618 0.58619 131 141 157
0.97271 -4.11973 0.60300 124 139 146
0.97878 -4.16756 0.59264 92 99 103
0.97723 -4.20051 0.58772 68 60 46
0.96516 -4.21211 0.59046 88 86 79
0.95606 -4.23000 0.59099 112 116 113
0.93803 -4.23881 0.57897 125 128 123
0.94310 -4.23991 0.59436 120 125 119
0.89516 -4.28848 0.60483 119 125 125
0.91327 -4.27962 0.61690 118 122 120
0.90902 -4.28028 0.60082 117 126 121
0.89942 -4.28781 0.62090 118 124 121
0.88556 -4.29601 0.62490 117 119 120
0.87706 -4.29733 0.59275 130 133 136
0.88303 -4.30048 0.60752 126 130 130
0.86491 -4.30934 0.59544 132 135 133
0.87086 -4.31248 0.61023 130 136 127
0.86124 -4.32002 0.63035 122 123 124
0.85698 -4.32068 0.61424 128 131 124
0.81902 -4.35387 0.62341 129 133 133
0.80084 -4.36276 0.61129 139 139 137
0.57342 -4.42214 0.70725 123 122 133
0.56921 -4.42279 0.69136 125 127 129
0.55791 -4.42522 0.71275 128 134 137
0.54295 -4.42971 0.71780 132 142 141
0.51890 -4.45536 0.72284 138 147 142
0.50099 -4.46412 0.71090 139 144 136
0.50609 -4.46607 0.72601 121 126 128
0.49610 -4.48511 0.72670 117 116 117
0.47813 -4.49390 0.71472 133 141 137
0.48069 -4.48830 0.73215 119 118 120
0.46274 -4.49708 0.72018 127 134 136
0.31165 -4.51639 0.79302 127 121 113
0.32103 -4.50903 0.77340 121 122 118
0.30749 -4.51703 0.77731 121 121 115
0.29396 -4.52504 0.78122 119 121 116
-0.06942 -4.72990 0.90509 108 108 108
-0.05592 -4.72191 0.90119 114 122 108
-0.06527 -4.72925 0.92076 110 110 106
-0.07878 -4.73724 0.92466 108 106 101
-0.08292 -4.73789 0.90899 104 100 104
2.57702 -2.57841 0.22359 94 79 65
2.58893 -2.57137 0.22015 91 75 66
2.58527 -2.57194 0.20632 75 58 60
2.58067 -2.57785 0.23741 106 88 70
2.56876 -2.58489 0.24085 107 89 67
2.56796 -3.08587 0.14040 121 98 70
2.57717 -3.07865 0.12116 123 97 79
2.56389 -3.08650 0.12499 122 98 78
2.56535 -3.10234 0.13861 118 97 60
2.56472 -3.12053 0.13574 108 87 56
2.57471 -3.14755 0.12723 88 66 54
2.57500 -3.16683 0.12382 71 52 37
2.56728 -3.17963 0.12464 52 35 30
2.54960 -3.18828 0.11285 42 31 32
2.54478 -3.19947 0.13003 39 34 33
2.54894 -3.19883 0.14575 37 30 35
2.53769 -3.21295 0.13049 43 40 38
2.52286 -3.21991 0.13509 48 40 47
2.50823 -3.22703 0.13957 48 41 55
2.53808 -3.27252 0.12016 82 85 96
2.46215 -3.22662 0.15761 165 177 190
2.44174 -3.22854 0.16524 199 204 209
2.42414 -3.23715 0.15351 204 201 206
2.41073 -3.26081 0.17182 200 198 190
2.42009 -3.25347 0.15225 202 200 203
2.39890 -3.27029 0.17481 201 182 119
2.37222 -3.26637 0.18589 200 165 37
2.35469 -3.27062 0.19200 200 170 57
2.34688 -3.28373 0.19280 199 177 126
2.34823 -3.30535 0.18858 197 188 162
2.33055 -3.31400 0.17680 198 197 207
2.34092 -3.31913 0.18908 197 194 179
2.32321 -3.32778 0.17727 197 196 206
2.33049 -3.33006 0.19127 197 197 197
2.31277 -3.33873 0.17946 197 196 204
2.32651 -3.34710 0.18992 200 198 196
2.30874 -3.35580 0.17806 198 197 202
2.31964 -3.36153 0.19013 185 188 187
2.30808 -3.37156 0.19292 190 185 190
2.29025 -3.38028 0.18104 202 199 203
2.29437 -3.37956 0.19690 200 197 201
2.27655 -3.38828 0.18502 203 201 204
2.28005 -3.38697 0.20122 206 200 195
2.27036 -3.39887 0.20297 175 174 156
2.27541 -3.42529 0.19648 134 125 105
2.25419 -3.42601 0.20463 128 128 130
2.23628 -3.43477 0.19270 97 92 113
2.23571 -3.42937 0.21127 143 143 145
2.22623 -3.43680 0.23109 106 106 73
1.61821 -3.34904 0.46579 160 140 139
1.62685 -3.34227 0.44772 158 134 126
1.60549 -3.35611 0.46954 169 157 157
1.59685 -3.36289 0.48760 158 151 164
1.59303 -3.36348 0.47314 167 159 168
1.58920 -3.36408 0.45867 166 159 161
1.24644 -3.12378 0.64925 152 155 161
1.25424 -3.11766 0.63294 152 158 176
1.24895 -3.14855 0.64404 112 114 114
1.24812 -3.16916 0.64084 43 40 69
1.24761 -3.28048 0.62202 46 45 74
1.26288 -3.27301 0.63220 40 39 75
1.25929 -3.27356 0.61864 40 42 71
1.25570 -3.27412 0.60509 40 45 61
1.24167 -3.29536 0.62179 58 57 84
1.23121 -3.30404 0.62439 66 70 88
1.22586 -3.31996 0.62375 56 56 77
1.21049 -3.32747 0.61351 46 45 72
1.21220 -3.34797 0.62429 48 48 76
1.21351 -3.37387 0.61935 67 80 97
1.20440 -3.38492 0.62102 75 85 103
1.19111 -3.38994 0.62534 76 84 108
1.18648 -3.40769 0.62412 66 69 96
1.17972 -3.42243 0.62423 55 52 94
1.16408 -3.43008 0.61381 46 46 81
1.17183 -3.43562 0.62505 45 54 85
1.17090 -3.45942 0.62135 47 56 72
1.16979 -3.48322 0.61772 49 46 68
1.16052 -3.49474 0.61937 42 43 69
1.13690 -3.61703 0.60768 50 52 85
1.15313 -3.60909 0.61851 43 47 78
1.14932 -3.60968 0.60409 43 46 79
1.13777 -3.64600 0.60239 67 72 94
1.13975 -3.67714 0.59629 77 84 103
1.13301 -3.69425 0.59600 73 81 94
1.11991 -3.70092 0.59997 58 63 84
1.12086 -3.73120 0.59442 54 53 76
1.10425 -3.73932 0.58335 51 51 69
1.07279 -3.85672 0.59172 46 49 77
1.08576 -3.84905 0.58797 50 54 79
1.06881 -3.85734 0.57667 42 44 72
1.05583 -3.86501 0.58042 41 42 70
1.06073 -3.86603 0.59483 42 45 75
1.04377 -3.87433 0.58352 39 43 69
1.04827 -4.00293 0.57630 42 41 57
1.06569 -3.99441 0.58791 39 41 60
1.06159 -3.99504 0.57245 42 41 59
1.05236 -4.00229 0.59176 40 40 59
1.03878 -4.01809 0.57741 47 48 78
1.03987 -4.05364 0.57091 73 80 107
1.02340 -4.05576 0.57697 116 122 139
1.00584 -4.06434 0.56526 132 144 153
1.01263 -4.06890 0.57892 133 145 150
0.99505 -4.07750 0.56720 133 144 159
0.98182 -4.11186 0.58359 124 139 153
0.99119 -4.10451 0.56400 129 141 156
0.97400 -4.13137 0.58331 116 134 141
0.97164 -4.16221 0.57896 104 110 118
0.97077 -4.19655 0.57343 102 102 86
0.95583 -4.20215 0.57830 112 115 102
0.93789 -4.21093 0.56634 133 133 124
0.94708 -4.22069 0.57854 123 126 120
0.92909 -4.22949 0.56655 132 132 128
0.92413 -4.24674 0.58304 126 130 124
0.91458 -4.25424 0.60303 120 129 120
0.90611 -4.25556 0.57102 135 142 137
0.91041 -4.25504 0.58697 127 134 125
0.89714 -4.26434 0.59056 125 129 126
0.88620 -4.27879 0.59235 125 128 131
0.86814 -4.28762 0.58031 134 136 139
0.84784 -4.31031 0.60193 128 131 126
0.83558 -4.32211 0.60469 133 134 128
0.81747 -4.33097 0.59262 144 145 144
0.82203 -4.33100 0.60846 142 142 137
0.80392 -4.33986 0.59638 144 144 143
0.80954 -4.34240 0.61138 143 143 140
0.79142 -4.35126 0.59929 140 139 140
0.55191 -4.42083 0.69844 126 122 123
0.56138 -4.41340 0.67863 134 132 125
0.53835 -4.42922 0.70229 117 116 117
0.52598 -4.44102 0.70510 130 131 140
0.51356 -4.45275 0.70794 137 145 145
0.49001 -4.48025 0.71242 136 141 135
0.36936 -4.51008 0.75437 128 133 128
0.38715 -4.50138 0.76624 125 124 120
0.38297 -4.50203 0.75044 132 134 130
0.37354 -4.50943 0.77017 126 125 122
0.35992 -4.51748 0.77411 125 129 125
0.35745 -4.52375 0.75668 125 126 124
0.34800 -4.53116 0.77644 122 127 120
0.34381 -4.53181 0.76062 121 120 120
0.33963 -4.53247 0.74480 120 124 126
0.09042 -4.64300 0.84043 118 121 122
0.10810 -4.63435 0.85222 116 113 111
0.10395 -4.63500 0.83652 120 122 117
0.08627 -4.64364 0.82473 101 98 96
0.07274 -4.65164 0.82864 105 106 109
-0.05969 -4.72444 0.88505 115 118 105
-0.04203 -4.71581 0.89682 114 116 104
-0.04618 -4.71645 0.88115 119 119 112
-0.05033 -4.71710 0.86547 111 109 108
-0.07735 -4.73307 0.87328 105 102 100
-0.07416 -4.72745 0.89018 107 100 105
-0.08702 -4.73880 0.89325 103 99 99
-0.09638 -4.74615 0.91282 110 111 102
-0.12962 -4.75116 0.90775 116 111 96
-0.13895 -4.75849 0.92727 104 102 102
-0.14309 -4.75913 0.91164 111 105 103
2.57576 -2.59549 0.20595 84 72 65
2.56012 -2.60313 0.19552 77 64 62
2.57613 -3.11499 0.11523 121 98 70
2.58540 -3.10772 0.09584 123 98 78
2.57202 -3.11563 0.09971 123 97 79
2.56996 -3.12878 0.11524 115 94 65
2.57226 -3.14957 0.11071 101 80 60
2.58006 -3.17507 0.10321 84 61 44
2.57863 -3.19315 0.10062 64 44 31
2.55749 -3.21432 0.10522 42 37 35
2.55331 -3.21497 0.08942 46 39 39
2.55005 -3.22760 0.10582 47 43 42
2.53222 -3.23632 0.09393 58 49 56
2.53656 -3.23580 0.10968 55 46 49
2.52435 -3.24509 0.11285 62 51 61
2.53835 -3.27706 0.10178 72 81 91
2.50298 -3.26639 0.11750 133 142 156
2.46923 -3.25689 0.13239 189 198 199
2.41690 -3.27067 0.15050 200 199 206
2.42629 -3.26331 0.13088 201 200 207
2.41274 -3.27132 0.13479 199 199 210
2.40582 -3.28089 0.15307 199 195 181
2.38083 -3.27855 0.16327 199 181 127
2.37221 -3.29100 0.16448 198 187 153
2.35453 -3.29964 0.15269 197 196 209
2.36326 -3.30320 0.16586 198 194 195
2.34556 -3.31186 0.15405 197 196 209
2.35392 -3.31509 0.16745 198 198 206
2.33619 -3.32376 0.15563 198 195 208
2.30600 -3.37423 0.17592 198 197 199
2.31546 -3.36681 0.15614 196 196 203
2.30181 -3.37488 0.16008 199 199 198
2.28817 -3.38295 0.16403 202 201 199
2.26786 -3.40118 0.18617 200 198 191
2.27733 -3.39375 0.16638 202 201 201
2.25718 -3.41218 0.18844 152 153 138
2.25008 -3.42677 0.18868 92 89 107
2.22393 -3.44423 0.19589 124 123 111
2.21443 -3.45168 0.21575 87 79 86
2.21023 -3.45233 0.19985 112 117 97
2.20602 -3.45299 0.18394 147 138 126
1.62256 -3.35950 0.44639 156 137 129
1.63123 -3.35270 0.42827 156 134 129
1.61872 -3.36010 0.43188 155 135 129
1.60621 -3.36749 0.43550 163 146 141
1.60250 -3.35772 0.45457 163 153 146
1.58620 -3.36569 0.44370 166 153 150
1.25222 -3.13641 0.63046 154 159 172
1.26006 -3.13026 0.61408 151 158 176
1.25334 -3.15946 0.62600 131 132 140
1.25480 -3.18322 0.62129 62 60 89
1.25366 -3.20376 0.61815 40 32 69
1.24570 -3.21000 0.63481 41 42 73
1.24217 -3.21055 0.62147 40 43 71
1.23864 -3.21110 0.60814 35 43 75
1.24611 -3.28392 0.60714 49 45 68
1.25421 -3.27756 0.59019 36 45 66
1.25047 -3.31315 0.60033 67 69 95
1.24346 -3.32680 0.60070 76 83 102
1.23120 -3.33314 0.60440 59 54 82
1.21577 -3.34069 0.59412 45 43 61
1.21884 -3.36324 0.60400 45 47 78
1.21357 -3.37979 0.60318 58 70 92
1.20754 -3.39538 0.60283 64 69 96
1.20172 -3.41143 0.60231 62 66 98
1.19494 -3.42619 0.60239 56 55 88
1.18498 -3.43633 0.60453 48 51 81
1.17266 -3.46826 0.60379 50 51 78
1.16970 -3.48933 0.60128 62 72 79
1.16364 -3.50585 0.60077 52 61 74
1.15741 -3.52226 0.60036 44 48 58
1.14895 -3.52889 0.61804 40 42 71
1.14521 -3.52947 0.60388 43 44 65
1.14146 -3.53006 0.58972 40 44 64
1.14712 -3.61287 0.58859 44 45 73
1.16337 -3.60492 0.59942 42 45 74
1.15955 -3.60552 0.58500 43 46 70
1.15574 -3.60611 0.57058 40 43 65
1.14331 -3.61346 0.57417 41 41 64
1.14273 -3.63321 0.58677 48 52 79
1.14402 -3.66304 0.58106 75 79 95
1.14238 -3.68840 0.57728 88 92 104
1.13259 -3.70057 0.57900 83 89 98
1.12503 -3.71656 0.57917 64 68 93
1.12690 -3.74855 0.57286 53 52 82
1.05470 -3.95794 0.56466 41 44 71
1.06792 -3.95012 0.56084 38 44 74
1.05876 -3.95731 0.58000 40 42 67
1.05406 -3.98926 0.55945 47 45 68
1.04589 -4.00679 0.55960 50 51 75
1.04424 -4.03690 0.55500 64 74 100
1.03194 -4.04698 0.55806 106 122 131
1.02009 -4.05799 0.56078 129 139 153
1.00253 -4.06658 0.54907 128 140 155
0.98106 -4.11931 0.56539 122 133 153
0.99044 -4.11194 0.54577 132 141 150
0.97506 -4.14259 0.56369 110 118 132
0.96394 -4.15569 0.56576 114 120 131
0.95609 -4.17562 0.56536 125 131 126
0.94689 -4.19297 0.56595 128 132 123
0.88731 -4.25279 0.57887 134 141 136
0.89684 -4.24531 0.55894 135 139 142
0.88309 -4.25344 0.56291 138 141 144
0.86933 -4.26158 0.56688 139 143 144
0.87369 -4.26122 0.58274 133 137 136
0.85571 -4.27001 0.57075 139 143 141
0.84642 -4.27804 0.59050 137 141 138
0.82844 -4.28683 0.57851 147 154 149
0.83280 -4.28648 0.59437 138 143 137
0.81482 -4.29527 0.58238 143 146 144
0.81921 -4.29500 0.59821 140 144 139
0.80122 -4.30379 0.58622 139 142 142
0.54503 -4.41400 0.68494 132 129 127
0.55449 -4.40659 0.66516 127 129 123
0.54085 -4.41465 0.66911 129 131 122
0.52720 -4.42272 0.67305 134 130 124
0.53236 -4.42480 0.68802 124 117 117
0.51452 -4.43353 0.67612 128 125 128
0.52099 -4.43942 0.68993 125 123 129
0.50312 -4.44816 0.67801 120 123 118
0.50780 -4.44890 0.69345 127 130 133
0.48992 -4.45764 0.68153 124 124 123
0.49599 -4.46245 0.69571 130 130 133
0.47809 -4.47120 0.68378 125 123 123
0.48469 -4.47765 0.69749 128 127 131
0.46676 -4.48642 0.68554 117 120 119
0.47067 -4.48486 0.70173 122 123 127
0.45275 -4.49363 0.68978 120 121 116
0.36424 -4.50770 0.73947 118 118 114
0.37367 -4.50030 0.71975 119 123 122
0.36007 -4.50834 0.72368 115 120 113
0.34646 -4.51639 0.72761 114 119 114
0.35129 -4.51789 0.74277 119 120 116
0.33350 -4.52659 0.73091 116 119 117
0.09828 -4.62925 0.82253 112 105 102
0.11594 -4.62062 0.83430 122 123 110
0.11179 -4.62126 0.81863 118 114 109
-0.10718 -4.73392 0.88482 108 113 108
-0.12477 -4.74252 0.87309 106 106 116
-0.13639 -4.73709 0.89572 117 117 103
-0.14051 -4.73773 0.88014 106 115 116
-0.16512 -4.74204 0.90612 103 102 101
-0.17440 -4.74932 0.92553 96 99 85
-0.17851 -4.74996 0.90999 91 95 92
-0.45501 -4.96263 0.98130 87 88 87
-0.43733 -4.95398 0.99309 89 87 83
-0.44563 -4.95528 0.96170 101 98 105
-0.45085 -4.96198 0.99699 85 86 80
-0.46438 -4.96998 1.00090 85 86 83
-0.46853 -4.97063 0.98521 85 86 88
-0.86084 -5.19940 1.09910 80 80 52
-0.84732 -5.19141 1.09520 75 77 65
-0.85147 -5.19205 1.07951 79 77 70
-0.87021 -5.20675 1.11869 83 83 84
-0.87436 -5.20739 1.10301 84 83 81
-0.87851 -5.20804 1.08732 86 82 84
2.57662 -3.13820 0.09388 119 97 75
2.58594 -3.13089 0.07440 123 99 77
2.57249 -3.13884 0.07828 122 99 74
2.57175 -3.15318 0.09314 110 93 63
2.57015 -3.17097 0.09061 97 78 51
2.57651 -3.19550 0.08374 77 55 38
2.57128 -3.21055 0.08312 52 35 37
2.55346 -3.21926 0.07124 45 38 45
2.55799 -3.23854 0.08338 50 43 48
2.54040 -3.26314 0.08594 68 61 70
2.54135 -3.28397 0.08186 85 88 90
2.51355 -3.27991 0.09354 114 118 140
2.50352 -3.29127 0.09547 169 169 181
2.45176 -3.26583 0.12039 200 200 206
2.43400 -3.27452 0.10854 199 198 214
2.40692 -3.28628 0.13442 198 199 208
2.41633 -3.27890 0.11475 198 197 210
2.40275 -3.28693 0.11867 197 198 210
2.38918 -3.29496 0.12259 197 197 206
2.39317 -3.29415 0.13844 199 197 195
2.37543 -3.30283 0.12661 197 197 208
2.37746 -3.30023 0.14355 198 196 202
2.35973 -3.30890 0.13173 198 199 210
2.26241 -3.40060 0.17104 199 200 194
2.27213 -3.43168 0.16168 157 157 150
2.24143 -3.42302 0.17532 91 85 97
2.23698 -3.44032 0.17400 104 103 117
1.26210 -3.15444 0.60897 153 158 174
1.26999 -3.14826 0.59249 153 158 179
1.25861 -3.15498 0.59578 155 158 178
1.25083 -3.16130 0.61220 146 147 157
1.24990 -3.18192 0.60890 98 93 110
1.26154 -3.21959 0.59761 42 32 65
1.24644 -3.22698 0.58754 36 40 70
1.24819 -3.29231 0.58994 47 46 72
1.25631 -3.28593 0.57295 35 40 70
1.25628 -3.32684 0.58061 66 74 90
1.24976 -3.34130 0.58061 80 81 98
1.23627 -3.34601 0.58509 62 55 76
1.22032 -3.37116 0.58690 36 46 74
1.21730 -3.39106 0.58455 45 51 83
1.21198 -3.40779 0.58368 47 55 87
1.20590 -3.42355 0.58327 49 55 90
1.19847 -3.43745 0.58372 49 47 83
1.18737 -3.44597 0.58658 43 43 74
1.18258 -3.46402 0.58526 57 56 90
1.18747 -3.49694 0.57748 76 87 105
1.17677 -3.50642 0.58001 80 91 98
1.17383 -3.52791 0.57735 56 63 73
1.15782 -3.53574 0.56668 43 47 67
1.16589 -3.54185 0.57800 44 48 60
1.14985 -3.54970 0.56730 38 45 66
1.14446 -3.64281 0.56849 47 43 73
1.14378 -3.69769 0.55900 87 94 106
1.12723 -3.70579 0.54797 86 92 113
1.13374 -3.70953 0.56086 88 93 108
1.12752 -3.72785 0.56005 78 84 101
1.12863 -3.75870 0.55413 65 63 89
1.12723 -3.78569 0.54988 55 52 80
1.11831 -3.79269 0.56853 46 50 65
1.12090 -3.80453 0.54902 51 55 76
1.10798 -3.81217 0.55275 50 58 77
1.06254 -3.91643 0.55212 43 40 64
1.07567 -3.90866 0.54833 40 40 66
1.06436 -3.95166 0.54514 43 41 78
1.06692 -3.98876 0.53754 48 52 93
1.04949 -3.99728 0.52592 80 92 116
1.07082 -4.02889 0.52886 65 70 102
1.05721 -4.03654 0.53286 73 88 106
1.04388 -4.04471 0.53666 76 92 103
1.03158 -4.05487 0.53971 95 111 127
1.02111 -4.06859 0.54139 121 133 155
1.00350 -4.07720 0.52965 129 136 154
0.97802 -4.12219 0.54884 131 136 151
0.97020 -4.14184 0.54843 124 126 130
0.96020 -4.15724 0.54963 127 131 131
0.95072 -4.17384 0.55042 141 147 140
0.93996 -4.18795 0.55214 139 143 135
0.92993 -4.20369 0.55330 130 129 125
0.91624 -4.21179 0.55725 128 128 129
0.83357 -4.25926 0.58139 143 150 146
0.84306 -4.25182 0.56155 142 146 143
0.82937 -4.25992 0.56550 143 148 148
0.61331 -4.34159 0.65354 131 140 132
0.63104 -4.33293 0.66536 126 134 125
0.62687 -4.33357 0.64962 122 131 128
0.62271 -4.33422 0.63389 125 130 128
0.60392 -4.34897 0.67319 140 142 134
0.59975 -4.34961 0.65746 141 140 136
0.12021 -4.61006 0.80011 118 119 107
0.13785 -4.60143 0.81187 109 115 102
0.13371 -4.60207 0.79621 117 117 106
0.12957 -4.60272 0.78055 121 121 116
0.12436 -4.60941 0.81577 115 115 98
0.10648 -4.61704 0.80428 122 119 116
0.09350 -4.62720 0.80759 117 120 114
0.07585 -4.63583 0.79582 113 109 109
0.07952 -4.63313 0.81204 109 111 115
0.06602 -4.64111 0.81594 107 110 108
0.06188 -4.64176 0.80028 106 103 96
0.05308 -4.65152 0.81919 106 114 112
0.05722 -4.65087 0.83486 110 110 111
0.03957 -4.65950 0.82309 116 121 120
-0.15784 -4.72330 0.88954 108 116 109
-0.16194 -4.72394 0.87404 114 110 107
-0.17530 -4.73184 0.87790 110 108 105
-0.17217 -4.72554 0.89479 104 102 101
-0.18960 -4.73407 0.88316 111 107 106
-0.18725 -4.72305 0.90117 102 102 96
-0.20056 -4.73093 0.90502 100 96 107
-0.20465 -4.73156 0.88957 108 108 119
-0.45962 -4.95873 0.96659 96 94 101
-0.45026 -4.95138 0.94701 96 93 99
-0.46377 -4.95937 0.95091 96 95 99
-0.47728 -4.96737 0.95482 98 98 99
-0.47511 -4.94667 0.97484 95 93 96
-0.48443 -4.95399 0.99434 87 86 91
-0.49269 -4.95527 0.96311 102 98 104
2.56833 -3.15442 0.07711 117 97 66
2.57767 -3.14709 0.05757 124 98 72
2.56419 -3.15506 0.06146 123 98 70
2.56476 -3.17059 0.07559 109 89 56
2.57740 -3.20037 0.06518 92 69 48
2.57640 -3.21900 0.06220 54 43 44
2.55853 -3.22774 0.05029 47 38 46
2.56587 -3.24946 0.06085 50 44 49
2.56166 -3.25011 0.04491 48 45 44
2.54213 -3.28896 0.06309 89 90 96
2.51658 -3.28688 0.07359 123 123 134
2.50406 -3.29611 0.07688 153 153 164
2.45645 -3.27431 0.09969 189 192 201
2.29061 -3.39001 0.14440 199 199 199
2.30428 -3.38192 0.14045 199 200 205
2.27492 -3.39614 0.14951 191 190 196
2.25653 -3.39960 0.15616 170 164 169
2.28096 -3.44520 0.13822 135 121 118
2.24977 -3.43612 0.15222 112 107 112
2.23532 -3.44353 0.15660 134 138 153
2.21738 -3.45230 0.14463 151 154 161
2.20552 -3.45740 0.16589 158 150 144
2.19601 -3.46486 0.18578 105 99 99
2.19179 -3.46551 0.16986 137 137 127
1.26729 -3.18823 0.58631 153 156 165
1.27525 -3.18199 0.56968 156 157 178
1.27154 -3.21597 0.57960 126 122 132
1.26351 -3.22756 0.58068 53 45 76
1.24625 -3.29516 0.57526 44 42 75
1.25438 -3.28878 0.55826 35 40 71
1.24697 -3.31949 0.57056 62 66 85
1.25294 -3.35146 0.56240 78 83 92
1.23707 -3.35287 0.56844 69 71 80
1.22698 -3.36244 0.57070 53 39 70
1.21905 -3.37517 0.57153 43 42 74
1.21707 -3.39661 0.56843 52 46 75
1.21056 -3.41166 0.56828 53 48 68
1.20532 -3.42870 0.56727 53 55 79
1.19918 -3.44456 0.56683 63 66 83
1.20077 -3.47214 0.56120 75 82 86
1.19785 -3.49324 0.55853 90 107 110
1.19308 -3.51175 0.55706 92 102 121
1.19055 -3.53387 0.55405 69 70 90
1.17448 -3.54173 0.54334 45 47 70
1.18351 -3.54926 0.55405 48 50 73
1.16740 -3.55714 0.54331 42 46 65
1.15814 -3.64407 0.54692 40 39 68
1.17068 -3.63665 0.54329 37 43 66
1.15287 -3.66329 0.54552 55 55 74
1.15413 -3.69339 0.53956 73 81 92
1.14849 -3.71249 0.53833 83 92 108
1.13250 -3.74335 0.53907 83 90 107
1.12975 -3.76785 0.53572 76 80 97
1.12552 -3.79012 0.53336 66 69 90
1.12062 -3.81150 0.53142 57 65 85
1.10963 -3.85285 0.52828 46 50 76
1.09660 -3.86056 0.53205 41 46 73
1.08500 -3.90195 0.52914 34 42 76
1.10216 -3.89356 0.54058 41 45 71
1.09813 -3.89418 0.52535 36 44 72
1.08903 -3.90132 0.54437 38 42 70
1.07679 -3.91861 0.52937 46 48 79
1.07872 -3.95398 0.52219 57 60 87
1.07897 -3.98670 0.51616 59 63 97
1.08165 -4.02439 0.50827 67 77 109
1.06406 -4.03299 0.49654 58 68 95
1.05683 -4.04426 0.51450 76 79 100
1.04259 -4.05077 0.51896 63 70 94
1.03665 -4.07322 0.51724 80 98 125
1.01995 -4.07502 0.52353 118 132 155
0.99309 -4.09125 0.53123 136 145 154
0.99723 -4.09060 0.54689 131 141 157
0.98386 -4.10774 0.53189 145 154 151
0.97373 -4.12258 0.53322 149 153 148
0.96368 -4.13771 0.53446 138 140 133
0.94594 -4.14639 0.52263 142 142 139
0.95439 -4.15454 0.53509 135 138 134
0.93661 -4.16323 0.52323 147 150 152
0.94597 -4.17332 0.53501 145 153 150
0.92814 -4.18204 0.52313 144 147 147
0.93315 -4.18312 0.53832 143 148 145
0.92231 -4.19712 0.54007 132 133 134
0.90863 -4.20518 0.54403 128 131 134
0.89915 -4.21261 0.56384 132 137 135
0.89496 -4.21326 0.54798 132 136 137
0.89076 -4.21391 0.53212 137 141 144
0.66565 -4.31586 0.62021 135 141 133
0.68340 -4.30718 0.63204 138 138 141
0.67923 -4.30783 0.61629 143 147 143
0.65624 -4.32324 0.63989 121 122 135
0.65207 -4.32389 0.62413 130 127 128
0.64790 -4.32454 0.60838 130 126 123
0.60582 -4.33346 0.64072 129 137 132
0.61519 -4.32610 0.62111 124 126 127
0.59139 -4.33906 0.64542 134 137 134
0.57786 -4.34706 0.64933 131 127 134
0.57371 -4.34771 0.63363 126 127 131
0.11607 -4.61070 0.78445 124 124 123
0.12542 -4.60336 0.76489 122 123 117
0.11193 -4.61135 0.76879 124 127 121
0.09843 -4.61933 0.77269 125 126 123
0.10158 -4.61453 0.78949 128 124 128
0.08767 -4.62069 0.79389 121 110 117
2.55977 -3.17054 0.06036 120 98 68
2.55668 -3.18723 0.05851 108 84 59
2.57168 -3.21922 0.04663 66 53 45
2.54863 -3.27882 0.04480 76 68 71
2.52034 -3.29451 0.05316 130 134 141
2.50767 -3.30365 0.05652 151 157 155
2.48608 -3.30491 0.06488 172 170 177
2.43555 -3.28027 0.08955 194 196 210
2.42194 -3.28832 0.09348 199 197 208
2.41776 -3.28897 0.07768 199 197 209
2.31471 -3.37539 0.12009 193 198 204
2.33259 -3.36665 0.13201 197 198 209
2.32839 -3.36730 0.11614 196 198 206
2.31891 -3.37474 0.13596 197 198 207
2.30507 -3.38736 0.12171 186 189 196
2.29807 -3.40194 0.12181 169 169 175
2.29490 -3.42033 0.11967 149 129 160
2.29254 -3.43966 0.11704 123 107 134
2.27629 -3.44543 0.12245 128 120 127
2.25824 -3.45425 0.11042 157 155 150
2.25561 -3.44677 0.13044 141 140 138
2.23760 -3.45557 0.11843 153 154 152
2.23520 -3.44828 0.13828 149 150 157
2.17666 -3.45501 0.16034 152 150 140
2.18614 -3.44757 0.14053 147 143 151
2.16299 -3.46309 0.16429 102 108 119
2.15879 -3.46375 0.14843 127 128 115
1.27715 -3.20652 0.56439 156 159 171
1.28516 -3.20024 0.54765 153 159 177
1.27361 -3.20707 0.55099 155 159 173
1.26777 -3.21623 0.56633 141 144 147
1.25961 -3.22765 0.56747 75 71 92
1.26265 -3.25430 0.56133 39 34 68
1.25457 -3.26064 0.57822 37 44 71
1.25100 -3.26119 0.56470 37 43 74
1.24742 -3.26175 0.55118 35 42 75
1.24507 -3.29909 0.56006 45 43 76
1.25321 -3.29270 0.54303 37 41 65
1.25599 -3.33772 0.54857 68 71 90
1.26500 -3.37415 0.53826 86 97 108
1.25457 -3.38344 0.54069 87 98 102
1.24224 -3.39006 0.54438 75 76 100
1.23392 -3.40244 0.54540 73 78 100
1.23032 -3.42177 0.54327 78 85 100
1.22245 -3.43503 0.54395 83 87 93
1.22450 -3.46304 0.53796 86 91 107
1.22174 -3.48423 0.53514 105 114 126
1.20700 -3.48765 0.54038 111 123 126
1.19705 -3.49827 0.54238 104 110 116
1.20182 -3.53138 0.53436 77 76 93
1.18573 -3.53925 0.52363 49 46 66
1.20337 -3.55995 0.52847 56 51 69
1.18718 -3.56787 0.51767 43 47 72
1.16746 -3.63825 0.52830 42 45 70
1.18386 -3.63023 0.53924 38 44 67
1.18000 -3.63083 0.52468 40 45 64
1.16083 -3.65522 0.52781 45 46 79
1.15887 -3.67994 0.52402 65 69 82
1.14234 -3.68802 0.51300 72 79 95
1.15811 -3.70689 0.51934 77 82 91
1.15132 -3.72423 0.51884 77 85 102
1.14300 -3.73916 0.51940 79 87 109
1.13382 -3.75276 0.52054 79 87 107
1.13174 -3.77853 0.51661 75 84 97
1.12843 -3.80247 0.51350 65 76 86
1.12201 -3.82134 0.51257 54 63 76
1.11443 -3.83840 0.51244 46 52 74
1.10153 -3.87697 0.51045 41 43 77
1.09019 -3.88783 0.51296 40 49 80
1.09019 -3.91917 0.50717 49 66 97
1.07296 -3.92759 0.49568 106 115 128
1.10196 -3.97225 0.49268 80 92 113
1.09428 -3.99053 0.49236 98 103 118
1.08730 -4.01029 0.49148 87 87 104
1.05326 -4.04598 0.49845 67 70 96
1.04448 -4.06293 0.49881 82 91 111
1.03093 -4.07084 0.50274 109 121 136
1.01495 -4.07400 0.50852 125 136 148
1.00244 -4.08390 0.51167 133 141 149
0.98480 -4.09253 0.49991 149 160 153
0.98905 -4.09210 0.51549 144 151 148
0.97142 -4.10073 0.50373 150 155 153
0.98025 -4.10947 0.51578 152 161 150
0.96257 -4.11812 0.50399 155 162 162
0.96954 -4.12317 0.51752 159 164 157
0.96028 -4.13992 0.51811 149 152 141
0.91351 -4.18802 0.52785 139 143 143
0.92296 -4.18061 0.50809 141 144 148
0.90932 -4.18867 0.51202 140 146 153
0.89568 -4.19674 0.51596 138 145 149
0.89898 -4.19418 0.53249 135 140 142
0.88117 -4.20289 0.52062 139 147 146
0.67060 -4.29731 0.60437 138 142 140
0.68830 -4.28865 0.61617 138 142 136
0.67999 -4.28994 0.58474 128 133 135
0.65290 -4.30596 0.59257 123 125 126
0.65543 -4.30119 0.60969 131 135 129
0.63775 -4.30984 0.59790 132 132 128
0.59677 -4.32118 0.62935 121 125 126
0.57914 -4.32980 0.61760 112 116 120
0.52349 -4.34478 0.65417 124 132 131
0.54105 -4.33619 0.66588 128 132 135
0.53693 -4.33683 0.65029 124 133 135
0.52762 -4.34414 0.66976 128 133 135
0.51418 -4.35208 0.67364 124 131 122
0.50594 -4.35337 0.64246 118 121 122
0.23163 -4.47653 0.74603 112 111 110
0.24904 -4.46801 0.75764 122 127 122
0.24495 -4.46865 0.74218 115 118 116
0.21831 -4.48441 0.74988 111 109 109
0.21422 -4.48504 0.73442 112 106 101
0.08255 -4.61715 0.77941 121 118 115
0.09188 -4.60983 0.75989 118 122 122
0.07842 -4.61779 0.76379 121 121 119
0.06855 -4.62281 0.78394 116 113 107
0.05510 -4.63077 0.78782 107 106 96
-0.16911 -4.70683 0.86304 109 105 105
-0.15580 -4.69896 0.85920 103 96 93
-0.18650 -4.71533 0.85144 102 100 94
2.61815 -2.77744 0.09377 86 72 58
2.63454 -2.76943 0.10470 89 74 64
2.63069 -2.77002 0.09014 82 68 56
2.62684 -2.77062 0.07559 76 63 50
2.60945 -2.78426 0.11195 96 80 61
2.61674 -2.79275 0.09145 88 75 58
2.60802 -2.79959 0.10968 99 81 60
2.56617 -3.16075 0.04242 128 100 71
2.57968 -3.15277 0.03852 125 98 70
2.55642 -3.17185 0.04424 133 107 81
2.54973 -3.18555 0.04433 125 106 73
2.56824 -3.22050 0.03035 84 72 47
2.57205 -3.24339 0.02452 54 41 45
2.55410 -3.25217 0.01254 48 47 48
2.55027 -3.26452 0.02925 61 53 50
2.51579 -3.29489 0.03734 137 137 146
2.49777 -3.30370 0.02532 141 141 146
2.50205 -3.30309 0.04130 146 145 153
2.49115 -3.31381 0.04364 152 148 169
2.44056 -3.28912 0.06853 184 187 191
2.34428 -3.34497 0.09655 199 197 208
2.36212 -3.33624 0.10845 198 198 215
2.35793 -3.33690 0.09261 197 199 213
2.34847 -3.34432 0.11239 199 196 209
2.33482 -3.35239 0.11633 197 197 206
2.33376 -3.35599 0.09869 193 195 203
2.32000 -3.36398 0.10269 184 187 195
2.31394 -3.37932 0.10223 169 171 179
2.31082 -3.39759 0.10004 149 134 147
2.30241 -3.41087 0.10091 122 109 134
2.29358 -3.42382 0.10200 121 118 144
2.28654 -3.43860 0.10204 141 139 143
2.26849 -3.44742 0.09000 155 150 154
2.27707 -3.45105 0.10348 154 154 147
2.01878 -3.34073 0.22761 100 83 69
2.02787 -3.33360 0.20861 158 152 143
2.02281 -3.34010 0.24283 108 98 105
2.00970 -3.34786 0.24662 137 124 113
1.27987 -3.23771 0.54271 151 152 159
1.28794 -3.23139 0.52584 155 159 175
1.26785 -3.26677 0.54205 40 33 70
1.24594 -3.30586 0.54347 44 43 68
1.25409 -3.29946 0.52641 38 42 67
1.26452 -3.35534 0.52672 66 71 96
1.26819 -3.38441 0.51978 89 98 116
1.26186 -3.39962 0.51945 104 114 114
1.25066 -3.40798 0.52236 105 110 119
1.24125 -3.41893 0.52406 95 97 121
1.23138 -3.42928 0.52606 95 101 115
1.21559 -3.43701 0.51553 106 113 121
1.22281 -3.44159 0.52718 105 115 117
1.21959 -3.46188 0.52465 114 122 130
1.21434 -3.47936 0.52346 117 126 143
1.20282 -3.48759 0.52652 102 110 125
1.20017 -3.50926 0.52350 85 90 114
1.21459 -3.55723 0.50870 62 54 76
1.19837 -3.56516 0.49789 44 46 70
1.17952 -3.63678 0.50776 43 47 66
1.19595 -3.62875 0.51871 40 45 59
1.19209 -3.62935 0.50413 41 47 57
1.17207 -3.65242 0.50780 49 49 80
1.16949 -3.67605 0.50439 58 58 91
1.15294 -3.68414 0.49336 76 80 97
1.16489 -3.69666 0.50235 69 74 91
1.14828 -3.70478 0.49128 71 76 94
1.15085 -3.73054 0.50159 67 78 100
1.14693 -3.73115 0.48677 64 72 95
1.14504 -3.74973 0.50030 69 81 103
1.13997 -3.77037 0.49845 70 80 101
1.13762 -3.79584 0.49459 64 69 93
1.12072 -3.80411 0.48332 47 46 83
1.13483 -3.82086 0.49100 52 59 83
1.12500 -3.83401 0.49246 43 51 75
1.11456 -3.84620 0.49434 42 45 76
1.10461 -3.85933 0.49586 45 49 84
1.10176 -3.88512 0.49214 58 65 98
1.10935 -3.92990 0.48068 76 91 115
1.10233 -3.94899 0.47989 94 110 125
1.08496 -3.95749 0.46831 105 103 118
1.08860 -3.98829 0.47799 108 108 122
1.08432 -4.01304 0.47505 95 93 102
1.07880 -4.03578 0.47297 73 75 88
1.06940 -4.05148 0.47378 73 87 93
1.06649 -4.07964 0.46965 97 108 123
1.04989 -4.08190 0.47586 113 127 132
1.02851 -4.07481 0.48576 137 142 137
1.01518 -4.08318 0.48952 134 137 138
0.99751 -4.09182 0.47773 154 157 157
1.00100 -4.08987 0.49393 147 153 153
0.98333 -4.09850 0.48216 146 154 161
0.95370 -4.13564 0.50425 151 154 153
0.96310 -4.12827 0.48459 155 160 159
0.94239 -4.14831 0.50639 146 148 144
0.92881 -4.15634 0.51031 143 151 146
0.84212 -4.19302 0.53810 135 134 137
0.85981 -4.18437 0.54990 142 143 143
0.84627 -4.19237 0.55381 145 145 145
0.83796 -4.19366 0.52239 129 130 134
0.82442 -4.20167 0.52630 130 131 130
0.82772 -4.19912 0.54271 133 130 128
0.81835 -4.20648 0.56232 139 142 139
0.81419 -4.20713 0.54662 139 140 130
0.66353 -4.29063 0.59120 122 124 135
0.65938 -4.29127 0.57552 121 127 132
0.64586 -4.29927 0.57942 124 128 130
0.60180 -4.30252 0.61367 124 125 125
0.61938 -4.29393 0.62539 130 126 129
0.61525 -4.29457 0.60978 131 134 134
0.58422 -4.31112 0.60195 112 119 113
0.58834 -4.31047 0.61755 115 120 121
0.56134 -4.32610 0.62542 131 131 127
0.55202 -4.33341 0.64491 122 123 135
0.54514 -4.32653 0.63182 131 133 139
0.52971 -4.32890 0.63755 126 136 140
0.51218 -4.33747 0.62587 118 118 113
0.51420 -4.33096 0.64337 121 114 119
0.49671 -4.33952 0.63170 117 124 115
0.47192 -4.34855 0.65698 121 125 114
0.48938 -4.34001 0.66863 120 126 122
0.48528 -4.34065 0.65312 123 128 120
0.47602 -4.34791 0.67249 121 125 121
0.46265 -4.35582 0.67635 117 125 119
0.45855 -4.35646 0.66084 118 123 116
0.23999 -4.46616 0.72766 122 126 124
0.25739 -4.45765 0.73927 117 123 124
0.25330 -4.45829 0.72382 120 124 128
0.22682 -4.47457 0.73135 119 116 109
0.16896 -4.54766 0.74075 121 125 123
0.18650 -4.53908 0.75245 114 116 114
0.18238 -4.53972 0.73687 119 120 118
0.17308 -4.54702 0.75632 119 120 112
0.15554 -4.55560 0.74463 126 128 126
0.06203 -4.61303 0.77124 121 123 113
0.07133 -4.60573 0.75178 120 119 116
0.04448 -4.62162 0.75954 116 112 105
0.04656 -4.61194 0.77764 109 109 102
0.03727 -4.61922 0.79706 109 110 105
0.03316 -4.61986 0.78151 108 109 99
0.02904 -4.62050 0.76596 111 109 104
-0.13329 -4.68382 0.83608 110 112 99
-0.11998 -4.67595 0.83224 115 120 114
-0.12920 -4.68319 0.85152 107 104 98
-0.14251 -4.69106 0.85536 106 100 98
-0.14659 -4.69169 0.83992 106 103 105
-0.15067 -4.69233 0.82449 88 92 90
-0.16046 -4.69634 0.84460 105 108 114
-0.20214 -4.70905 0.85889 97 100 104
-0.21133 -4.71626 0.87811 100 98 101
-0.21948 -4.71753 0.84733 108 115 117
-0.75841 -5.05884 1.01567 78 79 85
-0.74100 -5.05032 1.02728 81 83 86
-0.74509 -5.05096 1.01182 77 77 72
-0.75432 -5.05820 1.03113 77 78 79
-0.77582 -5.06735 1.00406 89 85 93
2.61524 -2.77871 0.07870 80 66 51
2.62393 -2.77189 0.06052 68 55 44
2.61665 -2.79603 0.07482 83 68 50
2.62113 -2.83227 0.06607 89 75 56
2.61233 -2.83918 0.08447 99 80 61
2.60843 -2.83978 0.06974 92 76 57
2.60453 -2.84039 0.05500 85 70 52
2.61777 -2.86335 0.06146 95 76 60
2.60892 -2.87030 0.07998 104 83 67
2.60961 -2.87430 0.06264 98 79 63
2.60074 -2.88126 0.08119 107 85 68
2.59682 -2.88187 0.06634 101 82 67
2.56634 -3.12694 0.03162 127 100 82
2.58388 -3.11836 0.04331 120 100 77
2.57976 -3.11901 0.02774 122 99 78
2.57046 -3.12630 0.04719 122 98 75
2.56222 -3.12758 0.01605 138 110 80
2.55966 -3.14039 0.03173 131 103 79
2.55800 -3.15807 0.02901 137 110 77
2.54701 -3.16812 0.03151 149 123 86
2.53801 -3.17987 0.03287 142 122 86
2.54807 -3.20771 0.02349 98 78 60
2.56068 -3.23798 0.01261 55 46 46
2.54255 -3.26218 0.01527 65 60 53
2.55421 -3.29228 0.00481 105 107 84
2.51830 -3.28126 0.02137 135 134 144
2.48459 -3.31241 0.02895 146 138 152
2.49415 -3.30491 0.00897 140 139 148
2.46946 -3.31936 0.03371 163 159 162
2.43361 -3.30766 0.05037 193 195 213
2.42412 -3.31510 0.07022 198 196 207
2.41992 -3.31576 0.05433 200 199 207
2.35376 -3.33757 0.07676 193 195 208
2.37160 -3.32885 0.08865 197 199 210
2.36741 -3.32950 0.07281 197 198 206
2.33987 -3.34541 0.08084 183 187 197
2.33445 -3.36125 0.07999 165 167 169
2.32734 -3.37559 0.08010 148 130 154
2.31373 -3.38380 0.08400 127 122 155
2.30628 -3.39793 0.08429 136 136 140
2.29670 -3.41009 0.08581 149 147 150
2.27872 -3.41888 0.07383 160 157 160
2.28795 -3.42311 0.08683 158 159 159
2.28291 -3.43986 0.08565 155 152 152
2.26486 -3.44868 0.07361 153 143 143
2.19028 -3.45671 0.11968 154 151 146
2.20399 -3.44860 0.11572 153 148 149
2.17657 -3.46482 0.12364 154 149 153
2.17236 -3.46547 0.10773 157 155 161
1.94961 -3.31584 0.24350 139 125 125
1.28713 -3.25279 0.52206 155 157 167
1.29524 -3.24643 0.50511 152 158 175
1.26909 -3.27391 0.52527 50 55 87
1.26355 -3.28933 0.52454 34 38 72
1.24818 -3.29685 0.51430 37 43 69
1.24837 -3.31484 0.52576 43 43 67
1.24474 -3.31540 0.51206 39 42 66
1.24741 -3.33704 0.52189 60 64 93
1.26777 -3.38961 0.50363 88 97 123
1.25840 -3.40054 0.50530 103 111 123
1.24771 -3.40962 0.50786 114 119 125
1.23194 -3.41733 0.49735 122 134 148
1.24023 -3.42339 0.50823 115 117 129
1.23318 -3.43789 0.50828 109 116 122
1.21705 -3.46422 0.50973 101 111 128
1.21318 -3.48381 0.50753 93 97 121
1.22285 -3.52396 0.49594 63 72 97
1.22791 -3.55765 0.48745 55 58 89
1.21166 -3.56559 0.47662 41 44 68
1.22012 -3.57212 0.48781 49 46 72
1.20384 -3.58008 0.47695 38 44 68
1.19179 -3.63558 0.48704 45 47 62
1.20824 -3.62753 0.49801 42 47 62
1.20438 -3.62813 0.48340 44 48 60
1.18517 -3.65253 0.48645 52 52 75
1.17943 -3.67104 0.48522 63 67 90
1.16287 -3.67913 0.47418 79 87 102
1.17357 -3.68956 0.48402 73 77 100
1.15696 -3.69768 0.47295 77 85 98
1.14908 -3.76370 0.47966 62 75 95
1.14385 -3.78419 0.47784 61 70 91
1.14039 -3.80793 0.47468 55 56 87
1.12348 -3.83893 0.47554 47 48 80
1.11725 -3.85851 0.47429 59 63 94
1.12767 -3.90762 0.46069 76 85 114
1.11038 -3.91607 0.44916 107 113 127
1.11574 -3.91773 0.46355 95 108 126
1.10643 -3.93259 0.46444 107 118 129
1.10168 -3.95582 0.46190 108 113 121
1.08253 -3.98532 0.46395 102 104 127
1.08117 -4.01550 0.45871 103 112 121
1.07509 -4.03723 0.45699 106 118 118
1.06379 -4.04936 0.45921 118 133 122
1.05300 -4.06253 0.46103 127 139 141
1.03532 -4.07117 0.44924 140 140 143
1.03980 -4.07116 0.46469 127 136 139
1.02265 -4.07215 0.47139 143 151 140
1.00500 -4.08079 0.45962 144 154 155
1.00956 -4.08095 0.47497 141 144 144
0.99190 -4.08958 0.46320 150 148 157
0.94493 -4.12686 0.49217 154 161 162
0.94078 -4.12751 0.47647 159 166 162
0.84641 -4.17452 0.52266 135 139 143
0.85991 -4.16654 0.51876 138 146 150
0.82877 -4.18315 0.51090 132 133 134
0.66486 -4.26324 0.57869 130 135 130
0.68244 -4.25464 0.59041 131 136 132
0.67831 -4.25529 0.57480 138 141 131
0.64728 -4.27184 0.56697 118 122 122
0.60863 -4.28874 0.59641 129 135 131
0.62206 -4.28080 0.59254 128 128 130
0.59108 -4.29733 0.58471 118 122 116
0.59287 -4.29056 0.60241 123 126 115
0.57535 -4.29913 0.59072 116 122 115
0.56743 -4.31010 0.60889 116 121 123
0.55461 -4.31967 0.61222 123 125 123
0.53919 -4.32215 0.61794 126 137 130
0.52167 -4.33072 0.60626 117 117 122
0.52359 -4.32400 0.62386 123 131 130
0.50610 -4.33255 0.61220 114 115 115
0.47890 -4.33474 0.63978 118 124 112
0.48815 -4.32749 0.62044 114 112 115
0.46146 -4.34327 0.62815 105 109 106
0.46594 -4.34375 0.64327 113 117 110
0.44551 -4.37815 0.64489 117 123 129
0.43621 -4.38544 0.66433 119 120 123
0.43210 -4.38608 0.64877 124 131 133
0.24708 -4.45138 0.71068 117 116 128
0.26445 -4.44289 0.72226 119 122 128
0.26037 -4.44352 0.70684 117 115 121
0.25629 -4.44416 0.69142 116 112 115
0.24300 -4.45202 0.69526 111 106 114
0.23483 -4.46297 0.71338 126 126 132
0.21745 -4.47148 0.70179 121 121 114
0.17490 -4.52750 0.72512 121 116 113
0.19239 -4.51895 0.73678 117 115 116
0.18828 -4.51959 0.72125 121 119 119
0.18418 -4.52023 0.70572 117 118 119
0.15742 -4.53605 0.71346 109 106 109
0.16316 -4.54178 0.72710 116 109 109
0.14565 -4.55035 0.71542 113 111 114
0.05209 -4.58828 0.76287 121 118 110
0.04800 -4.58892 0.74738 103 101 108
0.03465 -4.59681 0.75123 111 112 112
-0.00745 -4.59123 0.78625 106 111 111
0.00988 -4.58275 0.79781 110 112 105
0.00581 -4.58339 0.78242 108 109 107
-0.00338 -4.59060 0.80164 111 113 108
-0.01664 -4.59844 0.80547 117 120 119
-0.02478 -4.59970 0.77470 109 104 102
-0.02040 -4.60055 0.78967 113 120 116
-0.03366 -4.60840 0.79351 120 120 112
-0.03773 -4.60903 0.77811 111 104 100
-0.07293 -4.63458 0.80428 120 122 116
-0.05558 -4.62610 0.81585 100 105 105
-0.05966 -4.62673 0.80045 115 113 111
-0.06373 -4.62737 0.78505 111 116 109
-0.08213 -4.64180 0.82352 107 117 116
-0.08620 -4.64243 0.80812 131 129 129
-0.09894 -4.65310 0.81119 128 125 114
-0.09486 -4.65247 0.82660 111 113 113
-0.10814 -4.66032 0.83044 110 115 113
-0.11132 -4.66576 0.81375 119 109 99
-0.12433 -4.67514 0.81718 105 111 108
-0.14172 -4.68364 0.80559 96 103 96
-0.16657 -4.68532 0.83222 101 104 110
-0.18390 -4.69380 0.82067 113 118 121
-0.23515 -4.71006 0.85507 105 110 107
-0.23921 -4.71069 0.83973 99 92 95
-0.24431 -4.71725 0.87422 108 108 104
-0.24837 -4.71788 0.85889 112 115 106
-0.76230 -5.06487 0.99910 81 85 90
-0.77973 -5.07339 0.98748 93 91 97
2.61706 -2.78331 0.06107 71 59 45
2.62577 -2.77648 0.04286 57 44 43
2.62475 -2.80514 0.05370 75 61 46
2.63040 -2.84235 0.04416 82 68 53
2.62075 -2.86900 0.04286 89 70 51
2.61239 -2.87983 0.04412 92 73 60
2.60903 -2.89441 0.04263 95 77 70
2.60012 -2.90140 0.06127 102 83 67
2.59617 -2.90201 0.04635 98 79 64
2.59223 -2.90263 0.03143 94 78 58
2.56002 -3.06983 0.02822 125 96 79
2.57734 -3.06135 0.03977 121 96 66
2.57327 -3.06199 0.02439 121 94 72
2.56409 -3.06919 0.04360 122 96 71
2.55083 -3.07703 0.04743 121 99 78
2.54269 -3.07830 0.01666 142 116 90
2.55691 -3.08583 0.02635 129 102 86
2.53953 -3.09433 0.01476 141 117 81
2.55427 -3.14000 0.01685 139 110 83
2.56358 -3.13269 -0.00263 142 115 81
2.55163 -3.15687 0.01462 144 118 84
2.53401 -3.16549 0.00287 163 137 91
2.54236 -3.16835 0.01613 160 132 87
2.53320 -3.17996 0.01757 150 127 92
2.54646 -3.23014 0.00241 62 48 42
2.53279 -3.23822 0.00636 58 47 46
2.53647 -3.26124 0.00038 85 78 81
2.53011 -3.27575 0.00012 137 133 126
2.51212 -3.28456 -0.01188 147 141 144
2.51575 -3.28338 0.00444 152 155 153
2.49775 -3.29218 -0.00756 142 141 143
2.50679 -3.29574 0.00565 142 137 146
2.48083 -3.31349 0.01268 150 142 150
2.47660 -3.31415 -0.00333 154 151 153
2.46281 -3.32230 0.00066 150 147 151
2.43393 -3.31238 0.03186 180 176 203
2.41768 -3.31820 0.03729 198 202 209
2.40818 -3.32565 0.05715 199 196 207
2.40194 -3.32444 0.04244 199 197 209
2.39245 -3.33189 0.06229 199 199 204
2.38706 -3.33145 0.04708 194 194 203
2.36995 -3.33639 0.05304 185 189 200
2.36244 -3.35022 0.05338 169 165 176
2.35128 -3.36071 0.05584 143 128 149
2.33155 -3.36314 0.06334 120 110 123
2.32189 -3.37506 0.06492 126 122 148
2.31748 -3.39207 0.06339 152 154 164
2.29952 -3.40086 0.05141 163 159 159
2.30572 -3.40212 0.06618 167 167 158
2.28775 -3.41091 0.05419 164 160 174
2.29528 -3.41347 0.06818 163 159 163
2.27729 -3.42227 0.05619 162 158 167
2.28048 -3.44230 0.06854 156 154 151
2.27624 -3.44296 0.05250 161 159 156
2.22678 -3.45451 0.08787 142 141 146
2.24055 -3.44637 0.08389 149 144 150
2.23101 -3.45386 0.10385 146 144 151
2.20895 -3.45855 0.09429 164 160 157
2.19098 -3.46733 0.08231 166 163 168
2.18000 -3.45118 0.10743 165 162 166
2.16212 -3.45993 0.09551 156 155 161
1.97800 -3.32917 0.21292 101 85 91
1.95938 -3.33097 0.22009 125 114 107
1.93809 -3.32984 0.22892 150 131 116
1.92911 -3.33689 0.24771 152 131 121
1.92513 -3.33751 0.23267 153 132 118
1.92115 -3.33812 0.21763 152 133 122
1.30050 -3.27610 0.49719 152 158 167
1.30866 -3.26970 0.48011 151 157 171
1.29688 -3.27667 0.48352 152 157 164
1.27786 -3.29133 0.50337 85 86 100
1.26818 -3.30120 0.50536 40 35 64
1.25275 -3.30875 0.49507 37 43 73
1.24653 -3.34149 0.50625 45 50 89
1.25476 -3.33503 0.48904 34 44 68
1.26536 -3.39201 0.48878 88 99 134
1.25464 -3.40103 0.49135 107 113 134
1.23888 -3.40873 0.48085 123 125 135
1.24699 -3.41450 0.49181 122 127 137
1.23121 -3.42222 0.48129 117 122 142
1.23038 -3.43981 0.49359 126 129 134
1.22098 -3.45098 0.49521 111 121 128
1.22430 -3.48111 0.48799 86 95 115
1.24175 -3.53275 0.47086 64 58 87
1.23290 -3.54543 0.47196 47 47 78
1.22763 -3.56362 0.47054 40 46 69
1.20489 -3.63560 0.46569 47 46 70
1.22138 -3.62754 0.47668 42 48 70
1.21750 -3.62814 0.46204 40 43 72
1.19433 -3.64632 0.46786 54 50 76
1.18970 -3.66655 0.46579 68 68 85
1.17314 -3.67465 0.45474 79 87 98
1.18429 -3.68572 0.46424 76 83 95
1.16303 -3.73616 0.46298 69 81 99
1.15643 -3.75408 0.46216 60 68 96
1.15304 -3.77757 0.45894 53 58 88
1.14703 -3.79689 0.45760 50 51 77
1.13472 -3.80568 0.46086 50 48 78
1.13129 -3.82974 0.45756 55 59 93
1.14040 -3.87583 0.44488 71 81 107
1.12319 -3.88425 0.43341 106 113 129
1.13591 -3.89880 0.44221 93 104 119
1.11863 -3.90725 0.43069 104 107 127
1.12348 -3.90801 0.44544 105 117 130
1.10619 -3.91646 0.43391 101 103 127
1.09968 -3.92842 0.45108 104 106 117
1.09151 -3.94543 0.45106 101 103 119
1.08768 -3.97055 0.44770 109 109 125
1.08030 -3.98941 0.44701 115 120 135
1.07705 -4.01615 0.44311 118 125 132
1.06980 -4.03574 0.44221 126 132 133
1.05218 -4.04436 0.43046 143 141 148
1.05667 -4.04439 0.44583 141 149 145
1.03904 -4.05301 0.43408 144 145 149
1.04751 -4.06062 0.44637 140 146 149
1.02984 -4.06926 0.43459 142 142 142
1.01645 -4.06879 0.45733 143 150 149
0.92228 -4.12521 0.48440 155 162 157
0.93163 -4.11787 0.46484 155 160 155
0.90465 -4.13383 0.47264 142 148 147
0.90830 -4.13217 0.48869 139 144 143
0.89067 -4.14079 0.47693 143 145 142
0.85002 -4.15469 0.50786 137 142 146
