ply
format ascii 1.0
element face 0
property list uchar int vertex_indices
element vertex 1310
property float x
property float y
property float z
property uchar diffuse_red
property uchar diffuse_green
property uchar diffuse_blue
end_header
-3.03223 -3.47614 1.51835 227 241 253
-3.05148 -3.47439 1.51792 198 199 245
-3.06316 -3.49752 1.52423 135 156 208
-3.06457 -3.53139 1.53342 139 143 181
-3.07688 -3.53928 1.52261 136 132 130
-3.09909 -3.58582 1.54827 132 122 120
-3.09012 -3.57970 1.53351 131 122 110
-3.10081 -3.58674 1.53544 130 121 107
-3.11149 -3.59377 1.53737 129 122 110
-3.10380 -3.59921 1.55192 130 119 115
-3.11623 -3.60717 1.54099 131 121 108
-3.14466 -3.66746 1.57053 126 124 102
-3.13385 -3.66035 1.56858 128 123 102
-3.15426 -3.67594 1.57285 116 119 99
-3.15767 -3.69140 1.57706 101 100 96
-3.16201 -3.70593 1.58101 75 80 81
-3.17237 -3.71368 1.58314 50 53 62
-3.18501 -3.72178 1.57204 26 30 35
-3.18129 -3.72310 1.58572 31 31 51
-3.19394 -3.73121 1.57460 26 31 35
-3.49800 -4.35410 1.75768 20 22 33
-3.48411 -4.34521 1.76989 17 26 20
-3.48604 -4.34623 1.75552 19 23 24
-3.49607 -4.35308 1.77205 17 23 25
-3.49992 -4.35513 1.74332 45 48 53
-3.50804 -4.36095 1.77421 18 23 27
-3.50886 -4.36379 1.76034 24 25 30
-3.52055 -4.40006 1.77021 48 45 48
-3.53453 -4.40902 1.75792 79 74 46
-3.58575 -4.43097 1.77874 81 70 54
-3.57567 -4.42409 1.76214 73 69 48
-3.58768 -4.43200 1.76432 73 63 46
-3.59969 -4.43990 1.76649 72 62 37
-3.59756 -4.43922 1.78101 76 67 34
-3.61151 -4.44816 1.76875 72 60 43
-3.97256 -4.47271 1.79094 114 112 112
-3.98403 -4.48028 1.79302 124 129 136
-3.99722 -4.48397 1.79405 130 135 139
-4.01095 -4.48639 1.79474 121 124 128
-4.01817 -4.50355 1.79941 130 141 151
-4.02683 -4.51760 1.80324 146 157 172
-4.04970 -4.56786 1.81694 141 153 158
-4.05819 -4.58289 1.82104 140 147 154
-4.06804 -4.59478 1.82428 135 135 139
-4.08153 -4.60342 1.81243 122 118 110
-4.09789 -4.63023 1.83397 123 118 107
-4.11143 -4.63891 1.82208 127 119 98
-4.22544 -4.97199 1.92701 130 125 100
-4.21510 -4.96494 1.91000 136 127 102
-4.24030 -4.97240 1.92716 105 102 67
-4.24799 -4.99454 1.93318 93 77 45
-4.26033 -5.00266 1.93542 93 80 64
-4.26231 -5.00371 1.92060 87 79 59
-4.13796 -5.81924 2.15676 85 80 55
-4.12101 -5.80838 2.17166 89 84 66
-4.12336 -5.80963 2.15412 85 82 62
-4.12571 -5.81088 2.13658 83 78 57
-4.15547 -5.81884 2.15670 83 76 46
-4.16598 -5.84263 2.16317 75 67 28
-4.19304 -5.80832 2.15392 43 27 28
-4.20986 -5.81910 2.13915 25 16 5
-4.21535 -5.78990 2.14898 25 17 8
-4.23207 -5.80062 2.13428 21 16 5
-4.23481 -5.78106 2.14662 21 18 7
-4.24582 -5.80273 2.15252 10 20 19
-4.26249 -5.80371 2.15283 18 20 27
-4.31016 -5.75034 2.13845 60 59 71
-4.32841 -5.74377 2.13671 74 80 73
-4.34024 -5.75184 2.15619 82 86 80
-4.34251 -5.75305 2.13926 83 90 79
-1.92710 -3.43926 1.49084 143 139 164
-1.91681 -3.43224 1.47389 35 37 52
-1.92907 -3.44031 1.47611 97 101 117
-2.56650 -3.32769 1.46365 224 224 242
-2.58097 -3.33208 1.46489 232 233 245
-2.59363 -3.34019 1.45376 254 254 253
-2.58749 -3.34273 1.46777 244 244 250
-2.60017 -3.35085 1.45663 254 254 254
-2.59648 -3.35146 1.47015 251 251 253
-2.60917 -3.35959 1.45901 254 254 254
-3.01440 -3.42773 1.49241 251 254 254
-3.00230 -3.41997 1.50304 254 254 254
-3.00398 -3.42087 1.49052 254 254 254
-3.01272 -3.42684 1.50493 254 254 254
-3.02315 -3.43370 1.50681 254 254 254
-3.01889 -3.44032 1.49581 239 251 254
-3.02296 -3.45340 1.49933 224 234 252
-3.03126 -3.46243 1.50179 188 193 242
-3.05420 -3.47426 1.50506 136 146 213
-3.05913 -3.48671 1.50843 137 145 196
-3.07131 -3.49452 1.49772 137 127 129
-3.05970 -3.50362 1.51296 138 146 160
-3.14024 -3.65614 1.55423 109 109 111
-3.14728 -3.68663 1.56244 58 61 71
-3.15988 -3.69470 1.55137 25 32 39
-3.15942 -3.69232 1.56402 29 38 49
-3.17202 -3.70039 1.55295 26 34 34
-3.16835 -3.70165 1.56656 21 28 39
-3.18095 -3.70973 1.55548 28 34 31
-3.17588 -3.71260 1.56954 24 27 37
-3.18851 -3.72069 1.55844 27 35 22
-3.48102 -4.30439 1.72962 21 23 19
-3.46725 -4.29556 1.74173 18 26 21
-3.46916 -4.29658 1.72747 17 22 20
-3.47911 -4.30337 1.74387 17 24 18
-3.49098 -4.31118 1.74602 18 25 16
-3.49044 -4.31613 1.73281 30 25 18
-3.49852 -4.33013 1.73660 36 31 36
-3.51160 -4.36347 1.74560 60 67 52
-3.51353 -4.36450 1.73123 80 79 55
-3.52549 -4.37237 1.73340 78 73 53
-3.51763 -4.38121 1.75039 75 74 57
-3.94951 -4.43067 1.76551 103 103 97
-3.93628 -4.42219 1.77715 85 76 43
-3.93811 -4.42317 1.76345 95 90 80
-3.94768 -4.42970 1.77921 87 79 45
-3.96118 -4.46997 1.77611 131 134 132
-3.98425 -4.48486 1.78020 127 131 148
-3.99758 -4.49341 1.76848 138 154 164
-3.99945 -4.48410 1.78006 131 138 154
-4.01275 -4.49262 1.76837 140 152 155
-4.01023 -4.49316 1.78254 132 137 149
-4.02016 -4.50421 1.78554 137 149 166
-4.02940 -4.51692 1.78899 142 155 174
-4.03614 -4.53554 1.79402 140 151 165
-4.05352 -4.56419 1.80178 131 132 132
-4.06695 -4.57279 1.78998 122 120 97
-4.06348 -4.57567 1.80490 127 125 117
-4.07692 -4.58429 1.79309 124 120 97
-4.07059 -4.59413 1.80989 125 120 107
-4.08407 -4.60277 1.79804 123 121 109
-4.22197 -4.98935 1.91657 132 127 102
-4.21160 -4.98227 1.89949 137 127 102
-4.23637 -4.99132 1.91717 101 99 76
-4.25071 -5.00051 1.90457 85 78 64
-4.24535 -5.00977 1.92215 88 78 58
-4.25972 -5.01898 1.90953 85 78 56
-4.14307 -5.81109 2.13671 81 75 48
-4.13084 -5.80274 2.11657 82 75 53
-4.15785 -5.81997 2.13916 79 70 35
-4.17587 -5.81755 2.13859 62 52 20
-4.25193 -5.79003 2.13153 16 19 12
-4.28270 -5.80103 2.13461 40 32 49
-4.30627 -5.77511 2.12776 51 49 67
-4.32277 -5.78568 2.11326 63 70 69
-4.33486 -5.72878 2.11545 63 73 70
-4.35117 -5.73923 2.10112 59 67 69
0.78691 -4.18062 1.65525 139 119 107
0.80858 -4.16674 1.67430 148 124 110
0.80557 -4.16834 1.65188 142 123 106
0.78991 -4.17902 1.67767 147 123 111
0.77125 -4.19131 1.68105 147 122 106
-1.97701 -3.42410 1.47212 153 152 155
-1.96682 -3.41715 1.45533 56 68 74
-1.97896 -3.42514 1.45753 107 113 126
-1.99111 -3.43314 1.45973 158 157 170
-2.08709 -3.36500 1.45714 203 209 214
-2.11254 -3.36337 1.45687 237 245 248
-2.12241 -3.37010 1.47312 250 251 252
-2.12430 -3.37111 1.45899 250 253 254
-2.43817 -3.28744 1.43879 243 248 250
-2.42537 -3.27923 1.45004 249 251 251
-2.42714 -3.28018 1.43680 245 249 251
-2.43640 -3.28649 1.45204 249 250 251
-2.44743 -3.29375 1.45403 249 250 251
-2.44920 -3.29470 1.44079 237 242 248
-2.43834 -3.31831 1.44698 240 240 246
-2.43655 -3.31736 1.46032 245 244 248
-2.44766 -3.32467 1.46233 245 245 248
-2.44944 -3.32562 1.44899 250 249 250
-2.54982 -3.32729 1.45007 252 250 252
-2.54064 -3.32103 1.43494 254 254 254
-2.55158 -3.32823 1.43692 254 254 254
-2.56252 -3.33543 1.43890 254 254 254
-2.56976 -3.32745 1.45023 252 250 252
-2.58243 -3.33556 1.43910 254 254 254
-2.58382 -3.33215 1.45157 254 253 252
-2.59647 -3.34026 1.44045 254 254 254
-3.02212 -3.42281 1.47839 218 226 251
-3.02257 -3.43928 1.48276 181 189 239
-3.04997 -3.44663 1.48488 138 148 212
-3.05125 -3.46250 1.48910 137 145 191
-3.05209 -3.47893 1.49346 137 146 176
-3.05388 -3.49455 1.49761 138 136 142
-3.06610 -3.50238 1.48687 133 122 120
-3.11219 -3.61427 1.52973 128 126 116
-3.10146 -3.60721 1.52779 130 125 111
-3.12120 -3.62042 1.54457 129 121 107
-3.12912 -3.65222 1.53991 73 68 97
-3.13756 -3.66194 1.54254 45 45 76
-3.15011 -3.66998 1.53151 31 31 37
-3.14457 -3.67329 1.54559 27 29 54
-3.15714 -3.68134 1.53454 30 33 35
-3.15372 -3.68229 1.54804 25 25 47
-3.16630 -3.69035 1.53698 28 34 41
-3.45492 -4.27014 1.70584 14 18 25
-3.44119 -4.26135 1.71790 20 24 33
-3.44310 -4.26236 1.70370 17 18 22
-3.45302 -4.26913 1.72004 19 22 29
-3.46484 -4.27691 1.72218 18 23 21
-3.46580 -4.27941 1.70837 20 23 28
-3.47783 -4.28687 1.71042 33 37 31
-3.49335 -4.28875 1.71102 52 63 54
-3.50245 -4.30087 1.71429 77 83 70
-3.51618 -4.30967 1.70223 80 77 60
-3.92603 -4.42192 1.74907 108 114 89
-3.93845 -4.42732 1.75058 121 133 121
-3.94866 -4.43742 1.75333 122 125 130
-3.96362 -4.46966 1.76197 130 133 151
-3.97695 -4.47820 1.75026 137 153 164
-3.97393 -4.47980 1.76473 130 131 154
-4.02339 -4.50202 1.77093 139 146 152
-4.03410 -4.51130 1.77346 132 137 144
-4.04741 -4.51983 1.76176 122 118 107
-4.04102 -4.52947 1.77832 126 129 128
-4.05437 -4.53803 1.76659 121 119 98
-4.04694 -4.55019 1.78386 123 123 113
-4.06035 -4.55878 1.77208 122 120 93
-4.05531 -4.56535 1.78793 122 120 101
-4.06874 -4.57395 1.77613 124 121 94
-4.21769 -5.00921 1.90667 132 126 100
-4.20727 -5.00210 1.88950 131 126 100
-4.23602 -4.99947 1.90420 98 92 70
-4.25038 -5.00867 1.89159 85 76 60
-4.14732 -5.80585 2.11749 79 71 46
-4.13510 -5.79752 2.09738 80 72 41
-4.15801 -5.82877 2.12364 71 68 31
-4.17792 -5.81981 2.12139 52 36 22
-4.19480 -5.83063 2.10655 42 25 17
-4.19464 -5.82165 2.12198 35 17 12
-4.21149 -5.83245 2.10717 45 35 28
-4.24409 -5.76656 2.10769 33 22 17
-4.25619 -5.78407 2.11241 39 31 29
-4.28605 -5.73551 2.09972 47 43 45
-4.30248 -5.74603 2.08528 74 66 72
-4.30013 -5.74511 2.10235 63 62 56
-4.31655 -5.75563 2.08792 65 62 75
-4.31902 -5.73624 2.10012 65 68 68
-4.33539 -5.74672 2.08574 60 64 68
0.76374 -4.15050 1.62469 130 117 101
0.78527 -4.13670 1.64362 143 124 114
0.78229 -4.13829 1.62133 134 120 106
0.77357 -4.17701 1.63156 119 102 100
0.75193 -4.19087 1.61254 73 63 87
0.79177 -4.20796 1.63952 112 97 95
-2.12657 -3.35599 1.44064 207 213 224
-2.11674 -3.34928 1.42444 101 103 124
-2.12846 -3.35700 1.42656 158 160 178
-2.17400 -3.33889 1.43656 239 246 250
-2.18374 -3.34553 1.45259 252 253 253
-2.18560 -3.34653 1.43866 251 253 254
-2.18747 -3.34752 1.42472 241 246 249
-2.40386 -3.26877 1.42010 242 247 251
-2.39104 -3.26056 1.43137 245 246 248
-2.39282 -3.26151 1.41811 246 250 251
-2.40208 -3.26783 1.43336 245 247 249
-2.41312 -3.27509 1.43536 247 249 250
-2.42861 -3.26605 1.41960 239 240 249
-2.43220 -3.29410 1.42698 220 222 232
-2.43146 -3.31014 1.43118 209 210 229
-2.43693 -3.32165 1.43424 223 223 236
-3.00454 -3.37544 1.45309 243 251 254
-2.99257 -3.36777 1.46360 254 254 254
-2.99423 -3.36865 1.45122 251 254 254
-3.00288 -3.37455 1.46547 254 254 254
-3.01253 -3.38440 1.45550 232 240 252
-3.01502 -3.41531 1.46363 175 188 241
-3.02268 -3.42478 1.46617 149 165 227
-3.03442 -3.43033 1.46772 137 149 211
-3.04289 -3.47332 1.47906 135 134 143
-3.05507 -3.48112 1.46836 131 123 112
-3.04788 -3.48570 1.48235 135 127 133
-3.06008 -3.49353 1.47162 132 122 112
-3.05489 -3.49614 1.48514 133 122 122
-3.06711 -3.50397 1.47440 131 122 112
-3.09529 -3.57971 1.50739 129 124 121
-3.08290 -3.57177 1.51828 127 121 108
-3.08462 -3.57268 1.50546 134 122 110
-3.09358 -3.57879 1.52021 130 120 113
-3.10425 -3.58582 1.52214 131 122 109
-3.10091 -3.59210 1.51068 122 121 115
-3.10350 -3.60779 1.51481 112 111 112
-3.11194 -3.61732 1.51738 85 84 96
-3.11661 -3.63096 1.52100 60 63 77
-3.12911 -3.63897 1.51001 31 34 45
-3.13229 -3.65157 1.52653 23 27 63
-3.14482 -3.65960 1.51552 29 36 40
-3.14091 -3.66108 1.52910 27 28 51
-3.15345 -3.66912 1.51807 29 35 39
-3.44854 -4.25788 1.68809 32 23 24
-3.43484 -4.24910 1.70013 20 19 26
-3.43864 -4.25112 1.67178 56 59 67
-3.45044 -4.25889 1.67392 76 76 65
-3.46224 -4.26666 1.67605 84 82 63
-3.45584 -4.27268 1.69203 35 34 46
-3.46958 -4.28148 1.67996 89 87 66
-3.47692 -4.26589 1.69043 59 66 70
-3.49059 -4.27465 1.67842 86 82 67
-3.48443 -4.28042 1.69430 88 96 76
-3.49540 -4.28952 1.69678 94 98 70
-3.50691 -4.29776 1.69903 89 87 59
-3.52062 -4.30655 1.68699 71 64 31
-3.89646 -4.39448 1.72764 105 102 89
-3.88322 -4.38600 1.73928 86 77 42
-3.88506 -4.38698 1.72558 94 88 74
-3.89463 -4.39351 1.74134 87 75 45
-3.90641 -4.40499 1.73048 121 126 115
-3.91966 -4.41348 1.71884 130 149 143
-3.91757 -4.41302 1.73268 121 133 117
-3.92942 -4.41962 1.73451 128 142 127
-3.94267 -4.42811 1.72287 141 154 165
-3.93954 -4.42988 1.73728 135 145 148
-3.95280 -4.43837 1.72563 139 151 168
-3.94804 -4.44366 1.74097 131 135 151
-3.96132 -4.45217 1.72929 140 151 164
-3.98724 -4.48840 1.75302 138 152 162
-4.00189 -4.48886 1.75326 137 146 151
-4.01390 -4.49516 1.75501 132 134 135
-4.02721 -4.50369 1.74332 123 118 105
-4.02611 -4.50099 1.75664 127 125 123
-4.03941 -4.50951 1.74496 124 118 104
-4.03752 -4.50865 1.75875 123 119 114
-4.05082 -4.51717 1.74706 125 119 107
-4.21696 -5.01849 1.89388 130 124 94
-4.20651 -5.01136 1.87668 129 127 103
-4.23259 -5.01700 1.89362 94 84 60
-4.24701 -5.02624 1.88095 83 74 60
-4.14584 -5.82017 2.10340 75 68 38
-4.13359 -5.81181 2.08323 76 68 31
-4.14818 -5.82142 2.08587 70 63 36
-4.15979 -5.83200 2.10662 62 59 22
-4.18236 -5.81369 2.10201 48 26 24
-4.25440 -5.73862 2.08294 55 46 37
-4.24248 -5.73048 2.06330 62 59 48
-4.27090 -5.74919 2.06844 69 61 65
-4.27549 -5.72260 2.07892 64 58 51
-4.29189 -5.73311 2.06450 66 61 73
-4.29573 -5.70906 2.07554 71 66 74
-4.31206 -5.71953 2.06119 63 59 73
0.77664 -4.13855 1.59874 123 111 104
0.79519 -4.12635 1.59538 125 102 96
0.77915 -4.16131 1.60460 116 108 101
0.76956 -4.17810 1.60905 105 87 98
0.79615 -4.23527 1.62358 87 82 85
1.51666 -4.72799 1.74370 138 147 161
-2.17903 -3.33769 1.42209 211 217 226
-2.16930 -3.33105 1.40607 99 109 125
-2.18089 -3.33868 1.40817 163 168 177
-2.39024 -3.26558 1.40561 225 230 240
-2.39683 -3.27610 1.40840 212 211 230
-2.40607 -3.28471 1.41073 206 198 224
-2.41893 -3.29295 1.39943 197 179 186
-2.41561 -3.29313 1.41301 202 189 212
-2.43032 -3.29774 1.41436 196 183 195
-2.44162 -3.30486 1.41632 193 182 197
-2.44049 -3.32128 1.42056 215 207 218
-2.43433 -3.35745 1.42986 249 249 252
-2.44374 -3.36387 1.44536 254 254 254
-2.44554 -3.36483 1.43189 253 253 254
-2.98197 -3.34983 1.43359 248 253 254
-2.97003 -3.34218 1.44408 254 254 254
-2.97168 -3.34306 1.43173 252 254 254
-2.98031 -3.34895 1.44594 254 254 254
-2.99059 -3.35571 1.44780 254 254 254
-2.98894 -3.35964 1.43621 241 248 253
-3.01153 -3.37133 1.43947 201 214 249
-3.00411 -3.39479 1.44547 174 188 240
-3.01249 -3.40348 1.44781 150 168 220
-3.02197 -3.41116 1.44989 138 152 205
-3.02519 -3.42486 1.45347 133 142 183
-3.03635 -3.44796 1.45957 133 125 142
-3.04847 -3.45572 1.44892 131 123 105
-3.04055 -3.46096 1.46298 133 124 117
-3.05270 -3.46874 1.45231 131 122 102
-3.04040 -3.47835 1.46749 129 123 106
-3.05260 -3.48617 1.45677 131 123 106
-3.08731 -3.57258 1.49238 118 119 104
-3.09347 -3.58436 1.49550 93 98 97
-3.08787 -3.60868 1.50174 72 80 81
-3.10036 -3.61669 1.49076 24 28 54
-3.10215 -3.61199 1.50274 43 49 73
-3.11463 -3.61999 1.49178 29 33 52
-3.11349 -3.61843 1.50453 26 30 69
-3.12596 -3.62642 1.49357 31 36 45
-3.12077 -3.62925 1.50741 30 34 54
-3.13326 -3.63726 1.49643 30 38 43
-3.41885 -4.20432 1.65945 22 19 27
-3.40525 -4.19561 1.67141 17 22 34
-3.40714 -4.19661 1.65733 14 19 22
-3.41697 -4.20332 1.67353 17 21 28
-3.42869 -4.21103 1.67565 16 19 22
-3.42609 -4.21883 1.66329 30 21 33
-3.43594 -4.22555 1.67951 18 17 27
-3.43109 -4.23685 1.66801 36 32 52
-3.44476 -4.24561 1.65599 87 92 82
-3.50150 -4.28380 1.68090 78 73 55
-3.49162 -4.27705 1.66462 75 67 51
-3.50340 -4.28481 1.66675 72 65 44
-3.51518 -4.29256 1.66888 69 65 38
-3.50893 -4.29859 1.68481 74 69 35
-3.52263 -4.30737 1.67276 69 64 34
-3.86829 -4.33454 1.69786 87 86 62
-3.85518 -4.32614 1.70939 80 78 54
-3.85699 -4.32710 1.69582 80 75 52
-3.86647 -4.33357 1.71143 81 74 54
-3.87777 -4.34101 1.71347 85 74 48
-3.87022 -4.36070 1.70465 107 109 95
-3.87975 -4.36720 1.72035 92 80 58
-3.88995 -4.38175 1.71031 127 136 124
-3.89856 -4.39492 1.71381 119 136 123
-3.91179 -4.40340 1.70218 110 131 124
-3.90945 -4.40348 1.71614 129 150 148
-3.93123 -4.42066 1.72082 135 150 144
-3.98013 -4.47624 1.73572 133 140 136
-3.99345 -4.48477 1.72402 122 116 95
-4.00724 -4.48194 1.73748 123 122 116
-4.02052 -4.49044 1.72581 122 119 96
-4.01671 -4.49394 1.74069 123 120 110
-4.03001 -4.50246 1.72900 123 119 93
-4.21817 -5.02192 1.87953 127 121 91
-4.20772 -5.01479 1.86232 128 128 106
-4.16232 -5.83262 2.08892 59 52 25
-4.15007 -5.82426 2.06874 68 63 48
-4.16467 -5.83387 2.07138 62 57 46
0.79581 -4.10839 1.56806 123 114 119
0.76818 -4.11605 1.57037 131 124 126
0.73062 -4.11871 1.57151 138 132 130
0.72918 -4.13934 1.57681 137 134 126
0.72952 -4.16100 1.58235 124 128 124
0.74680 -4.19138 1.58991 98 103 107
0.79180 -4.23621 1.60082 80 61 70
0.79302 -4.25892 1.60662 83 83 70
1.36979 -4.65388 1.70050 124 127 135
1.56208 -4.78118 1.73068 131 156 181
1.53714 -4.79716 1.70877 104 114 131
1.37553 -4.73190 1.72040 115 120 141
1.35110 -4.74756 1.69893 108 115 128
1.39758 -4.76918 1.72966 110 115 139
1.37299 -4.78494 1.70806 110 115 134
1.41970 -4.80683 1.73902 108 110 143
1.39496 -4.82268 1.71728 109 117 138
-0.32662 -4.37217 1.64954 122 104 82
-0.30654 -4.35930 1.66719 135 121 88
-0.30932 -4.36078 1.64641 154 137 105
-0.31210 -4.36226 1.62564 163 148 124
-0.32384 -4.37069 1.67032 114 98 54
-0.32940 -4.37365 1.62876 132 120 100
-0.36317 -4.37101 1.64970 111 89 63
-0.37763 -4.38088 1.67352 36 24 41
-0.38041 -4.38235 1.65282 54 39 40
-0.38318 -4.38383 1.63212 78 72 47
-2.23753 -3.31473 1.40274 212 218 229
-2.22793 -3.30818 1.38694 102 115 136
-2.23937 -3.31571 1.38901 163 164 193
-2.24896 -3.32226 1.40481 228 233 244
-2.30995 -3.29457 1.39849 213 212 232
-2.32303 -3.30295 1.38700 182 164 184
-2.31532 -3.30621 1.40153 198 193 220
-2.37679 -3.29286 1.39888 184 165 183
-2.39576 -3.29449 1.39954 187 169 185
-2.43347 -3.29768 1.40082 206 189 184
-2.43525 -3.29863 1.38753 213 200 189
-2.44632 -3.30591 1.38953 211 201 192
-2.44027 -3.30814 1.40358 209 196 188
-2.45313 -3.31638 1.39228 212 201 194
-2.44443 -3.32062 1.40683 216 202 199
-2.43571 -3.34288 1.41242 226 215 219
-2.42808 -3.36452 1.41786 235 231 237
-2.43881 -3.37232 1.41999 244 243 247
-2.44825 -3.37875 1.43553 254 254 254
-2.46497 -3.36823 1.41927 250 250 252
-2.47436 -3.37464 1.43473 254 254 254
-2.47616 -3.37560 1.42129 253 253 254
-2.96546 -3.33500 1.41700 247 252 254
-2.95354 -3.32735 1.42748 254 254 254
-2.95519 -3.32823 1.41514 252 254 254
-2.96381 -3.33412 1.42933 254 254 254
-2.97565 -3.34184 1.41887 238 242 251
-2.98600 -3.34852 1.42071 220 227 249
-2.99607 -3.35547 1.42262 201 212 249
-2.99655 -3.37135 1.42669 179 195 244
-3.00708 -3.37793 1.42850 157 175 231
-3.01650 -3.38556 1.43057 144 155 213
-3.02341 -3.41226 1.43749 131 127 147
-3.03545 -3.41998 1.42691 129 121 108
-3.03109 -3.42168 1.43999 129 125 129
-3.04315 -3.42940 1.42940 130 123 108
-3.03511 -3.43469 1.44337 130 123 116
-3.04719 -3.44243 1.43276 130 123 114
-3.06797 -3.52337 1.46648 130 124 114
-3.05740 -3.51641 1.46456 132 125 107
-3.06627 -3.52247 1.47918 130 122 116
-3.07685 -3.52943 1.48110 130 121 120
-3.07293 -3.55403 1.47438 114 110 94
-3.07144 -3.57366 1.47939 88 80 82
-3.07597 -3.58717 1.48290 56 63 67
-3.08842 -3.59515 1.47196 31 38 43
-3.08565 -3.59533 1.48511 34 44 56
-3.09811 -3.60331 1.47416 29 34 49
-3.09511 -3.60375 1.48738 23 29 59
-3.10757 -3.61173 1.47643 28 35 48
-3.40530 -4.17806 1.63821 17 19 28
-3.39174 -4.16938 1.65012 16 22 21
-3.39362 -4.17038 1.63610 16 20 19
-3.40342 -4.17706 1.65223 14 23 22
-3.41409 -4.19004 1.64139 25 22 35
-3.42027 -4.20603 1.64555 44 42 51
-3.43388 -4.21475 1.63360 88 82 67
-3.43413 -4.23612 1.65343 81 87 74
-3.44779 -4.24488 1.64142 77 70 70
-3.84641 -4.29352 1.67325 92 81 68
-3.83337 -4.28517 1.68471 82 83 54
-3.83517 -4.28613 1.67122 86 78 55
-3.84460 -4.29256 1.68674 85 81 51
-3.85583 -4.29995 1.68877 87 79 47
-3.85806 -4.30009 1.67508 98 96 87
-3.87980 -4.34616 1.68713 149 158 160
-3.89293 -4.35457 1.67560 150 157 170
-3.89315 -4.34949 1.68815 153 160 165
-3.89664 -4.37282 1.69417 135 148 145
-3.92161 -4.41422 1.70507 119 137 130
-3.93226 -4.42334 1.70754 130 150 147
-3.94502 -4.42798 1.70889 136 155 159
-3.95288 -4.44313 1.71286 133 146 150
-3.96445 -4.45035 1.71485 128 134 133
-3.97772 -4.45885 1.70319 120 118 97
-3.97594 -4.45776 1.71689 125 125 116
-3.98921 -4.46626 1.70523 121 116 93
-4.21875 -5.02730 1.86566 125 114 90
-4.18724 -5.81545 2.06695 59 56 58
-4.17506 -5.80714 2.04689 57 60 64
-4.18957 -5.81669 2.04951 58 57 68
-4.20409 -5.82625 2.05214 60 59 73
0.85274 -4.07557 1.53628 127 111 115
0.87423 -4.06180 1.55516 139 121 114
0.87125 -4.06338 1.53293 132 120 116
0.86827 -4.06497 1.51069 135 128 118
0.83125 -4.08934 1.51739 137 144 122
0.82337 -4.08249 1.53845 119 115 114
0.80869 -4.09651 1.54221 130 132 129
0.70697 -4.06775 1.53641 149 155 146
0.70152 -4.08610 1.54113 152 160 155
0.70302 -4.10800 1.54665 155 160 155
0.71326 -4.13443 1.55318 143 147 137
0.69078 -4.14451 1.55605 110 115 112
0.76332 -4.20291 1.56976 87 91 85
0.79239 -4.23967 1.57863 64 60 65
0.79187 -4.26150 1.58416 68 60 63
0.79690 -4.28635 1.59037 84 76 62
0.82279 -4.32227 1.59907 95 81 67
-2.24685 -3.32603 1.39173 189 179 208
-2.23724 -3.31948 1.37591 110 119 140
-2.24869 -3.32701 1.37798 157 149 165
-2.27232 -3.32359 1.39148 182 163 191
-2.37571 -3.29590 1.38598 208 191 178
-2.38866 -3.30420 1.37460 215 203 194
-2.40652 -3.28889 1.38465 214 199 184
-2.41939 -3.29714 1.37334 215 202 194
-2.42655 -3.28961 1.38513 214 200 188
-2.43939 -3.29783 1.37385 215 202 193
-2.44406 -3.33889 1.39784 215 202 198
-2.43470 -3.33251 1.38243 215 204 197
-2.44585 -3.33985 1.38445 218 206 198
-2.45700 -3.34719 1.38646 220 208 201
-2.44127 -3.35683 1.40233 220 209 211
-2.43694 -3.37610 1.40714 229 221 227
-2.45663 -3.37701 1.40766 238 234 237
-2.95813 -3.31201 1.39850 247 251 253
-2.94626 -3.30440 1.40893 254 254 254
-2.94791 -3.30528 1.39665 252 254 254
-2.95649 -3.31114 1.41078 254 254 254
-2.96534 -3.32146 1.40099 236 240 250
-2.97092 -3.33243 1.40384 217 226 247
-2.98163 -3.33876 1.40560 202 214 246
-2.98593 -3.35099 1.40875 186 199 240
-2.99290 -3.36081 1.41134 166 180 229
-3.00336 -3.36743 1.41316 144 161 214
-3.01273 -3.37507 1.41523 131 142 181
-3.01217 -3.39209 1.41952 129 128 152
-3.02418 -3.39979 1.40898 130 120 110
-3.05413 -3.50472 1.44860 127 125 115
-3.04357 -3.49777 1.44669 131 125 108
-3.05243 -3.50381 1.46128 134 123 107
-3.06027 -3.51613 1.45158 112 115 110
-3.06822 -3.54360 1.45864 77 70 71
-3.08056 -3.55151 1.44779 30 34 48
-3.06521 -3.56470 1.46393 50 49 64
-3.07762 -3.57265 1.45302 32 37 49
-3.07259 -3.57518 1.46668 30 35 61
-3.08501 -3.58314 1.45576 33 37 43
-3.08006 -3.58561 1.46943 30 39 50
-3.09250 -3.59358 1.45849 29 38 36
-3.38801 -4.15759 1.61848 25 16 30
-3.37448 -4.14892 1.63037 16 19 26
-3.37635 -4.14992 1.61637 17 15 25
-3.38613 -4.15659 1.63248 17 18 21
-3.38988 -4.15858 1.60449 48 41 46
-3.40643 -4.18016 1.62446 45 36 59
-3.41999 -4.18884 1.61254 77 76 59
-3.42257 -4.20641 1.63133 85 83 74
-3.43731 -4.23515 1.63880 81 76 65
-3.43920 -4.23616 1.62467 74 67 52
-3.45097 -4.24390 1.62680 72 65 52
-3.83072 -4.27026 1.65338 96 89 78
-3.81772 -4.26193 1.66481 85 82 53
-3.81952 -4.26289 1.65136 89 75 60
-3.82892 -4.26930 1.66683 86 78 56
-3.84372 -4.27859 1.64196 136 146 150
-3.84164 -4.27816 1.65554 109 108 93
-3.84355 -4.30350 1.66197 123 132 126
-3.85662 -4.31188 1.65048 128 140 155
-3.86416 -4.32210 1.66697 133 145 148
-3.87725 -4.33048 1.65547 139 150 163
-3.90869 -4.38357 1.68316 132 144 129
-3.92512 -4.41169 1.69051 122 142 129
-3.93399 -4.42454 1.69388 125 136 124
-3.94724 -4.43304 1.68223 122 115 92
-3.94363 -4.43585 1.69688 124 128 118
-3.95690 -4.44435 1.68522 121 116 92
-3.95228 -4.44937 1.70042 120 122 110
-3.96557 -4.45789 1.68874 122 118 97
-3.96592 -4.45214 1.70132 119 120 103
-3.97919 -4.46064 1.68966 124 120 96
-4.20653 -5.02541 1.84973 130 128 111
-4.19203 -5.01612 1.86246 128 127 109
-4.19404 -5.01719 1.84747 131 127 113
-4.19605 -5.01826 1.83247 132 128 111
-4.21901 -5.03363 1.85199 123 111 88
-4.23425 -5.03344 1.85216 87 66 49
-4.24871 -5.04271 1.83945 78 69 45
-4.35582 -5.76145 2.03796 45 52 49
-4.33945 -5.75096 2.05234 50 58 60
-4.34172 -5.75217 2.03541 48 50 51
-4.35355 -5.76024 2.05489 46 55 59
-4.36765 -5.76952 2.05744 50 56 66
-4.37615 -5.88016 2.06826 100 97 74
-4.38821 -5.88839 2.08812 78 76 67
-4.39052 -5.88962 2.07086 125 114 83
-4.39283 -5.89085 2.05361 134 124 95
0.84295 -4.07387 1.51333 140 140 121
0.85847 -4.06328 1.48777 127 128 121
0.80083 -4.09571 1.51948 136 138 135
0.73570 -4.08490 1.51786 127 134 143
0.73653 -4.10648 1.52323 96 97 131
0.72482 -4.12193 1.52729 100 103 122
0.76157 -4.16177 1.53663 98 96 111
0.77578 -4.19058 1.54359 78 82 93
0.75410 -4.20448 1.52453 69 66 68
0.78684 -4.21802 1.55025 70 69 73
0.79213 -4.24270 1.55633 58 52 60
0.77026 -4.25671 1.53711 42 49 57
0.77323 -4.25507 1.55973 54 45 60
0.79125 -4.28662 1.56731 72 64 59
0.81586 -4.32188 1.57571 87 79 64
-0.43398 -4.37628 1.60996 50 34 33
-0.41685 -4.36500 1.60686 101 90 59
-0.44835 -4.38609 1.63363 25 16 15
-0.45387 -4.38902 1.59248 34 18 37
-0.44851 -4.38928 1.61345 27 16 17
-0.46289 -4.39910 1.63713 24 17 18
-0.46565 -4.40057 1.61655 29 19 17
-0.46841 -4.40203 1.59596 23 18 24
-2.29511 -3.30965 1.37441 191 176 179
-2.28561 -3.30316 1.35876 113 120 133
-2.29693 -3.31062 1.36081 163 158 162
-2.32379 -3.30467 1.37364 212 198 191
-2.35704 -3.29622 1.37208 216 203 191
-2.37003 -3.30455 1.36067 215 203 197
-2.44838 -3.36968 1.39194 221 209 210
-2.43896 -3.36326 1.37643 222 210 200
-2.45019 -3.37064 1.37846 224 211 205
-2.46141 -3.37803 1.38049 226 213 208
-2.94872 -3.29113 1.38060 246 250 254
-2.93689 -3.28355 1.39099 254 254 254
-2.93853 -3.28442 1.37875 249 253 254
-2.94708 -3.29025 1.39284 254 254 254
-2.95706 -3.29948 1.38282 237 242 251
-2.96342 -3.30963 1.38546 220 232 249
-2.97113 -3.31860 1.38783 204 219 247
-2.97646 -3.32977 1.39070 186 203 246
-2.98317 -3.33974 1.39330 167 185 240
-2.99195 -3.34784 1.39547 151 166 214
-2.99716 -3.35928 1.39842 132 142 175
-3.00909 -3.36693 1.38793 125 115 117
-2.99584 -3.37687 1.40278 125 125 150
-3.00783 -3.38455 1.39225 127 118 113
-3.00054 -3.38895 1.40588 124 119 130
-3.01255 -3.39665 1.39532 130 120 113
-3.00690 -3.39954 1.40863 127 120 117
-3.01894 -3.40725 1.39805 131 122 112
-3.04206 -3.46714 1.42609 129 124 104
-3.03158 -3.46024 1.42419 131 125 107
-3.04037 -3.46624 1.43868 132 124 109
-3.05085 -3.47314 1.44057 134 124 110
-3.04391 -3.48260 1.42998 123 123 105
-3.04794 -3.49600 1.43339 112 108 99
-3.05504 -3.50641 1.43611 86 81 100
-3.06183 -3.53493 1.44334 36 43 61
-3.07416 -3.54283 1.43251 31 39 48
-3.06670 -3.54783 1.44664 29 36 50
-3.07906 -3.55574 1.43578 31 37 46
-3.40760 -4.18221 1.61068 76 74 49
-3.42116 -4.19090 1.59876 75 67 44
-3.42471 -4.20703 1.61716 76 72 62
-3.42660 -4.20803 1.60309 71 64 45
-3.43831 -4.21574 1.60521 69 62 45
-3.43301 -4.21994 1.62052 75 68 56
-3.44663 -4.22867 1.60855 68 63 43
-3.81118 -4.28298 1.64252 118 122 111
-3.79810 -4.27460 1.65401 86 76 56
-3.80173 -4.27653 1.62695 131 143 128
-3.81299 -4.28394 1.62899 133 140 145
-3.82425 -4.29136 1.63102 133 137 156
-3.82476 -4.28599 1.64349 133 138 141
-3.83782 -4.29435 1.63201 127 138 155
-3.84830 -4.29877 1.64707 133 141 150
-3.86135 -4.30713 1.63560 136 150 159
-3.86818 -4.31870 1.65238 131 142 158
-3.86999 -4.31967 1.63885 137 153 167
-3.89788 -4.34920 1.66049 144 154 169
-3.90744 -4.36015 1.66338 143 153 155
-3.91222 -4.38103 1.66867 136 145 132
-3.91860 -4.39883 1.67322 127 132 121
-3.93180 -4.40730 1.66161 120 112 101
-3.92771 -4.41108 1.67643 120 120 114
-3.94094 -4.41956 1.66480 122 113 97
-4.20833 -5.02708 1.83488 130 128 111
-4.19786 -5.01993 1.81762 131 128 105
-4.22075 -5.03550 1.83719 116 111 88
-4.23111 -5.05023 1.84104 84 68 44
-4.24563 -5.05954 1.82828 78 67 44
-4.33622 -5.71960 2.00991 44 51 56
-4.31994 -5.70916 2.02422 50 57 55
-4.32219 -5.71037 2.00737 46 52 51
-4.33396 -5.71840 2.02676 47 52 56
-4.34500 -5.74941 2.01750 63 55 53
-4.35164 -5.78831 2.02732 76 76 64
-4.36677 -5.86103 2.04573 124 119 90
-4.38341 -5.87169 2.03110 131 125 95
-4.37905 -5.87897 2.05041 134 121 95
-4.39572 -5.88965 2.03576 134 128 102
0.85559 -4.08299 1.49269 131 131 126
0.87115 -4.07238 1.46707 90 87 99
0.79656 -4.07551 1.49194 113 112 120
0.79272 -4.11602 1.50200 94 97 100
0.76827 -4.12527 1.50474 71 72 97
0.74679 -4.13903 1.48586 84 82 81
0.77564 -4.15037 1.51079 74 74 94
0.75407 -4.16418 1.49184 80 81 68
0.77990 -4.17408 1.51656 81 75 86
0.75826 -4.18795 1.49754 76 75 75
0.77990 -4.19579 1.52191 76 67 81
0.77647 -4.23783 1.53234 56 58 58
0.78245 -4.28525 1.54392 58 55 55
0.77941 -4.28687 1.52119 50 46 33
-0.39301 -4.38396 1.59010 115 97 68
-0.37302 -4.37115 1.60767 122 104 67
-0.37856 -4.37410 1.56631 147 126 107
-0.44007 -4.37554 1.58890 75 57 55
-2.33835 -3.29649 1.35809 195 187 186
-2.32894 -3.29006 1.34258 118 123 137
-2.37067 -3.28864 1.35676 210 199 196
-2.91714 -3.25869 1.35953 251 254 254
-2.90535 -3.25113 1.36989 254 254 254
-2.90698 -3.25200 1.35769 254 254 254
-2.91551 -3.25782 1.37173 254 254 254
-2.92567 -3.26451 1.37357 254 254 254
-2.92793 -3.26483 1.36124 244 249 253
-2.93646 -3.27065 1.37528 251 254 254
-2.93783 -3.27175 1.36313 236 241 251
-2.94530 -3.28079 1.36550 226 237 249
-2.95343 -3.28929 1.36775 218 231 249
-2.96287 -3.29665 1.36974 206 220 247
-2.97138 -3.30484 1.37191 189 204 243
-2.97563 -3.31690 1.37497 169 187 233
-2.97914 -3.32972 1.37819 150 165 216
-2.97981 -3.34520 1.38202 132 141 187
-2.98542 -3.35626 1.38485 123 123 156
-2.99737 -3.36391 1.37435 128 114 112
-2.99061 -3.36776 1.38779 120 115 131
-3.00259 -3.37544 1.37726 134 118 111
-3.04077 -3.45379 1.40993 116 112 106
-3.03569 -3.47599 1.41531 98 94 97
-3.04841 -3.48072 1.41671 72 78 68
-3.05589 -3.50817 1.42362 31 31 62
-3.06815 -3.51603 1.41285 33 37 41
-3.06398 -3.51763 1.42611 31 36 53
-3.07625 -3.52549 1.41532 33 38 43
-3.34257 -4.06098 1.56527 15 16 26
-3.32924 -4.05244 1.57698 16 18 19
-3.33109 -4.05342 1.56319 14 16 11
-3.34073 -4.06000 1.57906 13 20 26
-3.35221 -4.06756 1.58114 10 20 14
-3.34595 -4.07987 1.56999 18 17 28
-3.35562 -4.08647 1.58592 13 18 23
-3.35493 -4.09104 1.57291 25 23 32
-3.36647 -4.09864 1.57500 37 33 51
-3.36833 -4.09963 1.56114 86 78 56
-3.87981 -4.32996 1.64157 137 155 165
-3.89333 -4.33285 1.64254 138 150 154
-3.90425 -4.34093 1.64473 133 137 133
-3.91732 -4.34930 1.63325 119 116 98
-3.91040 -4.35879 1.64925 127 124 116
-3.92351 -4.36719 1.63773 122 116 92
-3.91584 -4.37829 1.65416 124 118 101
-3.92900 -4.38672 1.64260 123 114 92
-3.92058 -4.39949 1.65948 121 113 99
-3.93379 -4.40795 1.64787 122 115 94
-4.20532 -5.04319 1.82350 130 125 103
-4.19481 -5.03602 1.80618 133 128 104
-4.21883 -5.04847 1.82505 104 106 86
-4.30843 -5.70984 1.98980 53 52 65
-4.29212 -5.69939 2.00413 48 55 62
-4.29438 -5.70059 1.98726 49 50 52
-4.30617 -5.70864 2.00668 46 53 57
-4.33681 -5.72727 1.99462 72 76 66
-4.32919 -5.82169 2.01777 107 99 67
-4.34579 -5.83232 2.00318 139 125 86
0.80085 -4.08062 1.47053 82 91 102
0.77944 -4.09434 1.45171 73 74 69
0.79620 -4.09951 1.47522 76 78 71
0.77474 -4.11326 1.45637 78 75 76
0.80607 -4.12566 1.48139 77 77 63
0.78452 -4.13947 1.46245 86 84 99
0.76827 -4.12833 1.48281 81 80 86
0.74678 -4.14210 1.46393 88 86 99
0.76739 -4.21439 1.50379 72 69 67
0.78310 -4.20367 1.47791 79 80 75
0.76529 -4.23526 1.50891 66 62 58
0.76640 -4.25790 1.51440 55 50 44
-0.42142 -4.39119 1.57135 99 77 69
-0.42611 -4.41085 1.57623 42 27 44
-0.43716 -4.42634 1.58023 21 18 29
-0.45164 -4.43622 1.60408 22 21 17
-0.45441 -4.43770 1.58336 22 19 16
-0.45719 -4.43918 1.56263 25 15 22
-2.34885 -3.29121 1.34327 163 156 165
-2.37505 -3.28773 1.34297 196 184 192
-2.39261 -3.29039 1.34398 214 201 200
-2.40194 -3.29675 1.35934 218 204 196
-2.40373 -3.29770 1.34599 222 206 201
-2.91013 -3.25157 1.34520 248 249 253
-2.89834 -3.24402 1.35556 254 254 254
-2.89998 -3.24489 1.34336 253 254 254
-2.91177 -3.25244 1.33300 221 224 249
-2.92192 -3.25913 1.33484 199 207 244
-2.92052 -3.25805 1.34699 232 235 249
-2.92911 -3.26609 1.34913 214 219 245
-2.94111 -3.27118 1.35061 210 217 245
-2.94929 -3.27960 1.35283 201 216 245
-2.95934 -3.28638 1.35469 181 200 240
-2.97091 -3.30761 1.36010 151 160 210
-2.97726 -3.33379 1.36660 122 120 150
-2.98916 -3.34142 1.35614 124 116 107
-2.98343 -3.34428 1.36928 118 113 131
-2.99535 -3.35192 1.35881 130 120 107
-2.98571 -3.35840 1.37277 122 111 117
-2.99766 -3.36607 1.36226 132 121 106
-3.01326 -3.41514 1.38715 127 123 119
-3.00286 -3.40830 1.38527 133 123 114
-3.02199 -3.42110 1.40152 131 124 111
-3.02518 -3.43742 1.39282 109 106 95
-3.03219 -3.46475 1.39962 63 58 71
-3.04436 -3.47255 1.38892 33 36 40
-3.04169 -3.47263 1.40174 44 44 57
-3.05387 -3.48044 1.39103 31 40 38
-3.34349 -4.06327 1.55177 33 30 47
-3.35682 -4.07181 1.54005 85 81 53
-3.34364 -4.08668 1.55748 54 59 56
-3.35405 -4.09590 1.55993 73 75 67
-3.36746 -4.10449 1.54815 78 73 47
-3.78231 -4.23231 1.60198 118 123 122
-3.76932 -4.22399 1.61339 89 76 54
-3.77112 -4.22494 1.59996 107 103 93
-3.78051 -4.23135 1.61541 92 77 70
-3.79169 -4.23871 1.61744 97 95 90
-3.79396 -4.23880 1.60380 131 140 135
-3.80335 -4.24520 1.61925 120 126 114
-3.80515 -4.24616 1.60582 133 141 140
-3.80694 -4.24712 1.59239 134 142 151
-3.86625 -4.30205 1.62069 140 150 157
-3.85503 -4.29467 1.61866 143 157 163
-3.87699 -4.31039 1.62294 133 141 147
-3.89837 -4.32732 1.62751 126 119 110
-3.91141 -4.33567 1.61605 120 115 84
-3.90661 -4.34078 1.63095 121 114 102
-3.91967 -4.34915 1.61947 121 117 88
-4.20428 -5.05344 1.81061 131 125 102
-4.19374 -5.04624 1.79325 134 128 110
-4.21815 -5.05773 1.81194 99 103 82
-4.23272 -5.06706 1.79914 77 69 51
-4.22141 -5.09454 1.82097 81 69 42
-4.23608 -5.10394 1.80808 75 64 48
-4.23147 -5.30908 1.87342 66 57 63
-4.22043 -5.30154 1.85523 58 52 54
-4.23359 -5.31020 1.85761 53 52 58
-4.24675 -5.31887 1.85999 44 53 59
-4.28710 -5.67595 1.96389 51 53 49
-4.27084 -5.66553 1.97818 45 56 52
-4.27310 -5.66673 1.96136 44 51 40
-4.28485 -5.67475 1.98071 47 54 54
-4.30392 -5.73668 1.97903 81 79 79
-4.31787 -5.74666 1.98174 105 103 88
-4.33427 -5.75717 1.96733 134 124 89
-4.32716 -5.77475 1.98877 129 117 86
-4.34363 -5.78530 1.97430 135 127 91
-4.33549 -5.80714 1.99683 137 125 83
-4.35204 -5.81774 1.98229 135 127 93
0.82928 -4.07633 1.44625 81 74 83
0.84479 -4.06574 1.42071 85 83 94
0.80783 -4.09007 1.42740 73 71 73
0.80216 -4.08428 1.44878 76 77 71
0.78073 -4.09801 1.42995 72 71 74
0.76976 -4.21874 1.48183 80 77 75
0.78548 -4.20801 1.45593 81 74 63
0.76876 -4.24020 1.48701 75 70 68
0.76465 -4.26017 1.49191 64 60 54
0.77793 -4.28931 1.49861 50 49 46
0.75595 -4.30340 1.47930 55 47 59
-0.39833 -4.38706 1.54877 127 108 80
-0.38388 -4.37720 1.52497 164 150 137
-0.41300 -4.40008 1.55223 111 94 71
-0.41094 -4.42430 1.55801 62 47 38
-0.43102 -4.43717 1.54037 47 24 26
-0.42470 -4.43807 1.56163 31 18 30
-0.44479 -4.45094 1.54397 28 14 22
-2.27440 -3.33125 1.33750 58 70 89
-2.26298 -3.32374 1.33543 11 23 41
-2.26482 -3.32471 1.32172 15 15 27
-2.33973 -3.30002 1.33147 121 123 138
-2.40136 -3.28626 1.32956 202 189 186
-2.42051 -3.28766 1.33033 219 205 199
-2.42979 -3.29400 1.34562 223 208 199
-2.43157 -3.29494 1.33233 224 211 200
-2.93067 -3.26704 1.33694 193 205 243
-2.92214 -3.26122 1.32290 174 186 243
-2.93984 -3.27458 1.33896 188 201 239
-2.95155 -3.27992 1.34051 170 185 230
-2.96053 -3.28765 1.34257 145 158 207
-2.96723 -3.31326 1.34888 121 119 148
-2.97909 -3.32086 1.33845 124 114 107
-2.97086 -3.32593 1.35201 119 110 124
-2.98275 -3.33355 1.34156 127 120 108
-3.00177 -3.39516 1.36935 127 123 104
-2.99141 -3.38833 1.36747 132 123 106
-3.00010 -3.39427 1.38180 133 121 111
-3.00597 -3.40783 1.37249 116 113 97
-3.00872 -3.42197 1.37595 95 96 94
-3.03340 -3.44898 1.38300 38 39 62
-3.04553 -3.45675 1.37234 33 39 44
-3.28964 -4.04714 1.53260 14 14 32
-3.27624 -4.03856 1.54437 16 17 26
-3.27810 -4.03955 1.53051 12 16 29
-3.28778 -4.04616 1.54646 15 17 28
-3.30118 -4.05473 1.53468 26 16 45
-3.32352 -4.04753 1.53346 37 35 61
-3.33685 -4.05607 1.52174 84 80 58
-3.33523 -4.05478 1.53547 60 67 61
-3.34015 -4.07146 1.53959 77 82 67
-3.75913 -4.19589 1.57899 114 121 99
-3.74620 -4.18761 1.59035 85 76 53
-3.74799 -4.18856 1.57698 98 98 42
-3.75733 -4.19493 1.59236 86 72 44
-3.76847 -4.20226 1.59438 95 79 66
-3.77205 -4.20417 1.56764 150 158 163
-3.76346 -4.21544 1.58379 141 148 137
-3.77643 -4.22375 1.57239 146 151 165
-3.77279 -4.22614 1.58658 149 152 147
-3.78577 -4.23447 1.57516 143 154 157
-3.78419 -4.23310 1.58851 135 137 134
-3.79718 -4.24142 1.57710 146 155 163
-3.79503 -4.24110 1.59068 132 139 149
-3.86866 -4.30182 1.60694 123 128 122
-3.88168 -4.31017 1.59550 119 112 97
-3.88113 -4.30672 1.60840 121 117 112
-3.89415 -4.31506 1.59696 122 115 102
-3.89109 -4.31661 1.61100 122 114 99
-3.90411 -4.32495 1.59956 122 116 94
-4.20365 -5.06250 1.79738 133 128 105
-4.19309 -5.05529 1.77999 133 128 113
-4.21573 -5.07232 1.80002 100 100 78
-4.26930 -5.63010 1.93531 54 53 61
-4.25314 -5.61975 1.94951 43 54 47
-4.25538 -5.62094 1.93280 40 49 35
-4.26706 -5.62891 1.95203 48 51 54
-4.27679 -5.66268 1.94331 70 64 57
-4.30556 -5.74030 1.96262 128 121 83
-4.32196 -5.75081 1.94821 135 123 91
-4.31941 -5.75068 1.96543 133 122 86
-4.33582 -5.76119 1.95101 135 125 95
-4.37302 -5.86747 1.99472 126 119 90
-4.35867 -5.85803 1.99213 131 124 92
-4.38505 -5.87568 2.01454 132 124 90
0.82473 -4.07715 1.42391 79 74 81
0.84024 -4.06657 1.39838 84 79 84
0.80329 -4.09089 1.40506 70 66 70
0.77421 -4.22416 1.46004 86 85 76
0.75243 -4.23812 1.44090 95 96 91
0.76352 -4.24067 1.46423 87 82 77
0.75599 -4.25887 1.46873 78 77 68
0.76741 -4.28704 1.47513 61 59 60
0.74546 -4.30111 1.45584 39 40 52
-0.37207 -4.40768 1.53191 137 123 107
-0.35754 -4.39777 1.50798 163 151 137
-0.37486 -4.40916 1.51111 155 138 122
-0.40410 -4.40931 1.53309 119 97 76
-2.28080 -3.32896 1.32312 18 19 40
-2.27123 -3.32244 1.30737 20 19 27
-2.28264 -3.32994 1.30943 13 18 27
-2.29404 -3.33745 1.31149 22 26 41
-2.31716 -3.31851 1.32154 67 72 92
-2.38460 -3.28532 1.31533 130 126 141
-2.42486 -3.27139 1.31302 172 164 165
-2.43660 -3.27810 1.31491 202 194 195
-2.85969 -3.22232 1.31212 246 245 246
-2.84789 -3.21476 1.32249 250 249 252
-2.84953 -3.21563 1.31028 240 233 236
-2.85116 -3.21650 1.29807 233 224 221
-2.85806 -3.22145 1.32433 253 253 254
-2.86823 -3.22814 1.32617 254 254 254
-2.87250 -3.22681 1.31351 250 252 253
-2.88102 -3.23263 1.32754 254 254 254
-2.88429 -3.23436 1.30314 229 231 248
-2.88564 -3.23099 1.31482 252 253 254
-2.89416 -3.23679 1.32884 253 254 254
-2.89742 -3.23853 1.30447 229 234 250
-2.89508 -3.23827 1.31678 246 247 252
-2.90522 -3.24495 1.31862 224 225 248
-2.93331 -3.26703 1.32455 175 189 241
-2.94591 -3.27158 1.32594 154 166 213
-2.95119 -3.28254 1.32867 127 136 172
-2.96299 -3.29010 1.31830 118 110 100
-2.94976 -3.29952 1.33267 118 118 142
-2.96161 -3.30711 1.32225 122 117 100
-2.95294 -3.31251 1.33583 114 113 121
-2.96483 -3.32012 1.32538 125 120 107
-2.99024 -3.35904 1.34779 127 124 111
-2.97995 -3.35226 1.34593 128 124 109
-3.00220 -3.36670 1.33729 78 75 83
-2.99389 -3.37200 1.35095 121 119 105
-2.99625 -3.40282 1.35833 86 85 95
-3.01132 -3.40523 1.35927 62 65 75
-3.02337 -3.41295 1.34868 32 37 55
-3.01835 -3.41526 1.36182 45 50 69
-3.03041 -3.42299 1.35122 32 37 54
-3.02886 -3.42198 1.36368 37 42 64
-3.04092 -3.42971 1.35308 34 39 48
-3.03231 -3.43555 1.36698 34 38 55
-3.04440 -3.44330 1.35635 33 41 44
-3.21108 -4.01701 1.50937 30 30 9
-3.19762 -4.00838 1.52119 20 27 30
-3.19948 -4.00938 1.50727 22 25 17
-3.20135 -4.01037 1.49334 22 27 23
-3.20921 -4.01601 1.52329 22 24 27
-3.22080 -4.02364 1.52539 28 27 27
-3.22333 -4.02378 1.51128 47 45 14
-3.23305 -4.03042 1.52729 24 21 14
-3.23805 -4.02730 1.51248 43 27 16
-3.24777 -4.03393 1.52847 16 18 19
-3.25217 -4.03157 1.51384 26 17 18
-3.26187 -4.03819 1.52981 11 17 22
-3.26149 -4.04216 1.51658 15 14 21
-3.31282 -4.04241 1.51791 59 60 57
-3.34200 -4.07244 1.52575 79 75 54
-3.34386 -4.07343 1.51192 74 67 43
-3.35537 -4.08101 1.51401 75 66 38
-3.35007 -4.08487 1.52890 77 70 40
-3.36345 -4.09345 1.51714 74 66 38
-3.75203 -4.18554 1.56272 135 146 122
-3.73912 -4.17727 1.57406 85 78 41
-3.74091 -4.17822 1.56071 99 115 123
-3.74270 -4.17917 1.54736 111 121 149
-3.76494 -4.19381 1.55138 140 155 162
-3.75760 -4.20276 1.56695 146 161 157
-3.77055 -4.21106 1.55557 142 153 161
-3.82050 -4.25436 1.58074 138 149 158
-3.82971 -4.26544 1.58360 130 140 137
-3.83910 -4.27185 1.59906 143 150 161
-3.84271 -4.27376 1.57218 116 113 93
-3.83711 -4.28005 1.58725 123 126 121
-3.85013 -4.28840 1.57581 117 115 94
-3.84707 -4.28986 1.58982 120 118 106
-3.86010 -4.29821 1.57837 120 115 99
-4.19927 -5.08286 1.78668 133 130 104
-4.18866 -5.07562 1.76921 131 129 110
-4.20480 -5.11286 1.79394 93 83 77
-4.20808 -5.15032 1.80291 68 55 61
-4.22088 -5.15875 1.80523 61 52 55
-4.22294 -5.15985 1.78985 52 52 58
-4.24452 -5.61013 1.91291 50 55 49
-4.25502 -5.63138 1.91821 70 64 49
-4.26558 -5.65277 1.92355 86 88 77
-4.27421 -5.68154 1.93059 114 108 89
-4.29050 -5.69198 1.91627 132 127 97
-4.28519 -5.70207 1.93573 129 124 88
-4.30153 -5.71254 1.92138 135 124 95
-4.29825 -5.71514 1.93915 134 124 87
-4.31460 -5.72561 1.92479 133 124 98
-4.38221 -5.90933 1.98731 114 109 98
-4.39897 -5.92007 1.97258 131 121 93
0.83164 -4.08352 1.40258 77 72 74
0.84717 -4.07292 1.37701 84 82 85
0.78323 -4.21000 1.43349 80 81 79
0.80499 -4.19606 1.45262 80 71 68
0.80197 -4.19767 1.43010 76 75 78
0.78022 -4.21161 1.41098 76 72 55
0.77042 -4.22538 1.43744 89 95 91
0.75696 -4.26255 1.44650 82 80 73
0.75393 -4.26417 1.42388 84 82 79
0.76439 -4.28867 1.45242 60 61 63
0.75890 -4.33068 1.46240 54 49 43
0.75585 -4.33231 1.43957 59 39 40
0.55604 -4.86538 1.59304 41 54 55
0.57929 -4.85048 1.61347 52 56 54
0.57607 -4.85220 1.58942 57 64 67
0.57285 -4.85391 1.56537 61 69 71
0.55927 -4.86366 1.61709 35 43 50
0.54373 -4.88348 1.59761 55 54 66
0.52690 -4.89496 1.62532 146 132 128
0.52368 -4.89668 1.60124 124 119 128
-0.39004 -4.42198 1.51452 125 103 89
-0.37550 -4.41206 1.49058 160 146 132
-0.41294 -4.45270 1.52233 60 39 32
-0.43016 -4.46422 1.52549 31 19 21
-0.44473 -4.47417 1.54948 23 15 30
-0.44753 -4.47565 1.52863 24 15 27
-0.45032 -4.47714 1.50777 24 16 23
-2.41293 -3.28233 1.30177 135 131 147
-2.44476 -3.27436 1.30075 176 168 174
-2.51182 -3.25526 1.29807 223 213 213
-2.52091 -3.26146 1.31304 227 219 210
-2.52265 -3.26238 1.30003 229 219 212
-2.52439 -3.26331 1.28702 224 215 214
-2.86184 -3.22277 1.29983 231 230 228
-2.87496 -3.22699 1.30117 227 229 239
-2.92000 -3.24992 1.30774 162 170 226
-2.93917 -3.24879 1.30799 145 156 215
-2.94217 -3.26162 1.31107 137 143 188
-2.93875 -3.28014 1.31532 121 121 148
-2.95057 -3.28772 1.30493 121 113 96
-2.94629 -3.28917 1.31764 112 110 116
-2.95812 -3.29675 1.30724 126 119 98
-2.98716 -3.34805 1.33252 113 111 103
-2.97854 -3.34216 1.31832 87 82 81
-2.98881 -3.34893 1.32018 66 61 68
-2.99908 -3.35569 1.32204 49 46 64
-2.98977 -3.36189 1.33583 97 94 98
-3.00173 -3.36955 1.32532 39 38 58
-3.00528 -3.38023 1.34054 57 56 71
-3.01727 -3.38791 1.33001 29 34 46
-3.01587 -3.38678 1.34235 38 41 66
-3.02785 -3.39445 1.33182 30 38 50
-3.02270 -3.39689 1.34491 30 39 59
-3.03470 -3.40458 1.33436 34 39 48
-3.21234 -4.01878 1.49561 31 35 20
-3.20261 -4.01214 1.47958 18 24 29
-3.22781 -4.02136 1.49663 65 69 25
-3.23961 -4.02870 1.49866 66 58 38
-3.25269 -4.03433 1.50033 52 34 35
-3.26384 -4.04250 1.50254 46 40 27
-3.28985 -4.03074 1.50048 58 64 48
-3.30320 -4.03929 1.48875 76 67 46
-3.30927 -4.02760 1.50027 66 74 48
-3.32257 -4.03613 1.48858 72 64 48
-3.34234 -4.05203 1.50687 76 67 46
-3.35564 -4.06056 1.49518 71 64 37
-3.75369 -4.18671 1.54942 134 141 150
-3.74436 -4.18035 1.53405 135 142 149
-3.75548 -4.18767 1.53606 140 156 154
-3.77768 -4.22570 1.55919 141 148 165
-3.79066 -4.23401 1.54778 126 123 118
-3.78869 -4.23338 1.56128 141 151 161
-3.80166 -4.24169 1.54987 118 112 103
-3.82402 -4.28062 1.57329 120 115 101
-3.81459 -4.27419 1.55775 117 113 92
-3.82583 -4.28159 1.55979 120 113 90
-3.83707 -4.28898 1.56182 120 115 90
-4.19677 -5.09765 1.77458 132 129 104
-4.18612 -5.09038 1.75705 131 128 111
-4.19639 -5.14588 1.78587 75 63 71
-4.21126 -5.15541 1.77280 48 45 61
-4.20862 -5.15609 1.78859 57 44 57
-4.22350 -5.16562 1.77551 45 52 64
-4.19807 -5.60750 1.89401 37 52 47
-4.18185 -5.59710 1.90827 47 52 58
-4.18410 -5.59830 1.89148 45 46 55
-4.19583 -5.60630 1.91080 41 50 48
-4.21483 -5.60715 1.89438 49 58 31
-4.22726 -5.62163 1.89810 70 68 69
-4.25676 -5.63438 1.90188 119 110 73
-4.27295 -5.64475 1.88765 135 128 94
-4.26764 -5.65464 1.90691 131 124 85
-4.28387 -5.66504 1.89265 134 129 95
-4.27881 -5.67415 1.91178 132 129 93
-4.29508 -5.68457 1.89748 134 128 99
-4.35857 -5.87971 1.96205 96 88 92
-4.37466 -5.88222 1.96307 62 64 88
-4.38148 -5.92337 1.97289 104 105 94
-4.39828 -5.93413 1.95812 138 131 98
0.83361 -4.08750 1.38077 83 85 81
0.84915 -4.07690 1.35518 87 81 85
0.82832 -4.10615 1.38523 81 78 77
0.81275 -4.11678 1.41087 71 67 75
0.82169 -4.12423 1.38960 80 66 67
0.80609 -4.13487 1.41529 74 70 76
0.80309 -4.13647 1.39296 82 73 58
0.77592 -4.23135 1.41567 79 73 50
0.77290 -4.23296 1.39310 74 72 56
0.76782 -4.24922 1.42003 84 87 76
0.74597 -4.26322 1.40083 84 83 88
0.75080 -4.28477 1.42873 78 72 70
0.76236 -4.31322 1.43497 66 58 48
0.59077 -4.89119 1.57346 56 60 61
0.60767 -4.87965 1.54562 63 68 74
0.56738 -4.90618 1.55291 37 51 60
0.57198 -4.90532 1.57727 33 42 56
0.52644 -4.90225 1.57787 93 97 103
0.50960 -4.91374 1.60561 153 138 130
0.50637 -4.91546 1.58150 144 137 126
0.50314 -4.91718 1.55740 130 129 117
-0.37700 -4.43399 1.49569 134 117 98
-0.36242 -4.42404 1.47168 162 145 133
-0.37980 -4.43548 1.47482 147 136 114
-0.39730 -4.44347 1.49847 116 95 72
-0.41181 -4.45683 1.50197 80 68 48
-0.42371 -4.47198 1.50581 41 25 20
-0.44391 -4.48492 1.48807 23 19 29
-2.37786 -3.27933 1.28650 11 17 27
-2.36674 -3.27201 1.28449 18 20 28
-2.36853 -3.27296 1.27114 21 20 31
-2.37965 -3.28028 1.27315 17 16 30
-2.43961 -3.28039 1.28853 141 140 140
-2.47911 -3.26654 1.28646 181 172 170
-2.83672 -3.20053 1.28151 240 235 233
-2.82494 -3.19298 1.29186 238 232 228
-2.82657 -3.19385 1.27967 239 234 232
-2.83509 -3.19966 1.29370 239 231 227
-2.84524 -3.20634 1.29554 236 226 221
-2.84594 -3.20797 1.28349 236 231 226
-2.85693 -3.21396 1.28520 222 218 213
-2.86292 -3.22410 1.28771 199 194 198
-2.86588 -3.23681 1.29073 173 167 187
-2.87745 -3.24236 1.29235 162 163 190
-2.91037 -3.24508 1.29392 171 178 214
-2.92429 -3.24851 1.29512 138 142 182
-2.92139 -3.26643 1.29918 123 122 154
-2.93320 -3.27400 1.28879 126 113 102
-2.92694 -3.27715 1.30181 119 111 127
-2.93878 -3.28474 1.29141 124 118 97
-2.93596 -3.28489 1.30386 118 109 102
-2.95645 -3.31408 1.31119 125 123 100
-3.21260 -4.02184 1.48211 29 32 33
-3.20287 -4.01520 1.46607 19 22 28
-3.22896 -4.02329 1.48292 64 65 38
-3.24254 -4.02828 1.48446 79 74 49
-3.25597 -4.03689 1.47266 85 79 61
-3.25936 -4.02896 1.48510 86 79 54
-3.27669 -4.02884 1.48557 88 78 57
-3.29006 -4.03741 1.47383 97 84 62
-3.29954 -4.02120 1.48447 82 72 48
-3.67092 -4.09625 1.51250 89 78 59
-3.65812 -4.08805 1.52375 81 80 38
-3.65989 -4.08899 1.51051 85 77 50
-3.66915 -4.09531 1.52575 83 81 52
-3.68017 -4.10257 1.52774 84 77 48
-3.67888 -4.10860 1.51559 94 89 70
-3.68815 -4.11493 1.53085 85 74 37
-3.68862 -4.11806 1.51805 96 96 80
-3.69790 -4.12439 1.53333 88 78 53
-3.69827 -4.12772 1.52056 101 110 108
-3.70933 -4.13500 1.52256 114 125 123
-3.71111 -4.13594 1.50927 122 135 141
-3.76319 -4.20108 1.53938 142 155 164
-3.78084 -4.22418 1.54523 131 136 137
-3.79381 -4.23249 1.53383 113 108 86
-4.19620 -5.10661 1.76109 134 127 106
-4.18553 -5.09933 1.74352 131 128 112
-4.19724 -5.15066 1.77130 61 60 61
-4.21213 -5.16020 1.75822 44 46 63
-4.18223 -5.55755 1.86488 43 48 57
-4.16612 -5.54723 1.87904 43 51 56
-4.16835 -5.54841 1.86237 40 47 55
-4.17059 -5.54960 1.84570 56 57 57
-4.18000 -5.55636 1.88155 43 49 61
-4.19847 -5.61499 1.87862 68 74 59
-4.23849 -5.59147 1.87434 120 112 95
-4.25460 -5.60178 1.86019 134 125 94
-4.24991 -5.60925 1.87878 132 123 93
-4.26605 -5.61959 1.86460 136 125 92
-4.26222 -5.62409 1.88256 138 128 86
-4.27837 -5.63444 1.86837 136 126 104
-4.36229 -5.87523 1.94347 92 69 83
-4.35022 -5.86700 1.92360 127 118 94
-4.37667 -5.88470 1.94608 82 76 78
-4.39337 -5.89540 1.93140 134 129 102
-4.38125 -5.93534 1.95791 118 119 100
-4.39809 -5.94612 1.94311 141 130 99
0.83940 -4.09335 1.35923 95 90 88
0.85496 -4.08273 1.33360 95 86 85
0.83580 -4.11286 1.36378 95 93 88
0.82872 -4.13076 1.36808 87 87 80
0.81526 -4.14557 1.37187 75 76 73
0.79662 -4.15784 1.37525 66 67 71
0.78842 -4.21893 1.38943 80 80 65
0.80720 -4.20657 1.38603 84 86 78
0.76873 -4.25287 1.39777 74 78 75
0.74265 -4.28371 1.40561 91 86 85
0.74953 -4.30969 1.41132 84 82 64
0.76378 -4.33976 1.41773 55 53 47
0.74167 -4.35393 1.39830 44 39 35
