ply
format ascii 1.0
element face 0
property list uchar int vertex_indices
element vertex 1315
property float x
property float y
property float z
property uchar diffuse_red
property uchar diffuse_green
property uchar diffuse_blue
end_header
-1.36285 -4.10363 2.51218 37 41 51
-1.36657 -4.09528 2.52878 27 33 40
-1.38794 -4.09393 2.52627 26 27 22
-1.40437 -4.10342 2.50800 30 37 73
-1.40571 -4.09989 2.52602 15 24 41
-1.42974 -4.09270 2.52173 26 20 21
-1.44563 -4.10241 2.52264 19 20 35
-1.45775 -4.12020 2.52603 11 21 45
-1.47593 -4.12516 2.52548 30 37 69
-1.49232 -4.13463 2.50723 27 42 61
-1.48275 -4.15474 2.53245 46 59 79
-1.49923 -4.16426 2.51412 39 49 66
-1.49872 -4.16467 2.53341 55 77 72
-1.59669 -4.17316 2.52572 18 30 86
-1.61306 -4.18262 2.50750 37 52 72
-1.61746 -4.17174 2.52325 28 47 101
-1.64774 -4.14768 2.51396 63 80 128
-1.66650 -4.15041 2.51277 90 99 148
-1.68271 -4.15977 2.49474 26 51 91
-1.69229 -4.18415 2.51891 149 171 185
-1.69620 -4.22345 2.52870 189 213 211
-1.74091 -4.16188 2.50823 212 232 237
-1.75533 -4.17501 2.51017 232 246 248
-2.23202 -4.34983 2.50733 234 228 215
-2.21551 -4.34230 2.50705 242 245 238
-2.24293 -4.37757 2.51342 218 213 208
-2.26139 -4.37827 2.51173 214 209 213
-2.28017 -4.37760 2.50966 227 221 221
-2.29533 -4.39030 2.51142 237 236 234
-2.33333 -4.38640 2.50658 231 243 236
-2.33381 -4.38467 2.52467 224 225 215
-2.34981 -4.39391 2.50686 211 221 225
-2.40542 -4.31693 2.48130 128 128 173
-2.38925 -4.30956 2.48102 181 179 207
-2.42423 -4.31339 2.47848 76 84 135
-2.43989 -4.32243 2.46106 25 16 55
-2.43703 -4.33468 2.48270 51 58 117
-2.45415 -4.33804 2.48185 34 39 83
-2.46984 -4.34711 2.46439 25 24 35
-2.46968 -4.34815 2.48290 24 26 66
-2.48538 -4.35722 2.46543 19 29 37
-2.48733 -4.34902 2.48134 20 27 60
-2.50301 -4.35808 2.46389 19 26 40
1.75542 -4.02170 2.80113 121 106 98
1.77718 -4.01428 2.77756 130 115 91
1.70949 -4.01081 2.79379 85 67 85
1.68905 -4.02261 2.77105 74 69 80
0.87583 -3.58207 2.60136 82 77 81
0.89490 -3.57557 2.58071 85 78 90
0.87637 -3.58401 2.58103 82 77 84
0.85924 -3.59225 2.60232 61 71 77
0.84125 -3.60265 2.58229 57 64 70
0.84558 -3.60508 2.60424 49 63 77
0.79611 -3.58558 2.59434 95 112 142
0.80948 -3.62292 2.60521 123 145 162
0.79038 -3.62943 2.62590 128 147 156
0.79092 -3.63138 2.60553 130 145 160
0.79146 -3.63333 2.58516 127 146 174
0.34626 -4.01060 2.65825 153 169 184
0.36593 -4.00389 2.63695 148 162 190
0.31550 -4.00620 2.65407 87 103 134
0.29917 -4.01797 2.65546 52 63 89
0.27726 -4.02342 2.65467 69 75 88
0.24405 -4.04646 2.65726 48 61 73
0.20744 -4.03473 2.65062 24 36 52
0.18900 -4.04537 2.63011 20 23 32
-0.00687 -4.09073 2.64364 47 57 68
0.01254 -4.08411 2.62262 53 61 72
-0.00632 -4.09271 2.62294 53 63 71
-0.02518 -4.10130 2.62326 55 62 77
-0.02831 -4.09608 2.64287 62 70 91
-0.04824 -4.10328 2.64273 75 81 119
-0.06653 -4.11385 2.62238 59 66 95
-0.06412 -4.11566 2.64432 63 68 100
-0.08243 -4.12623 2.62395 67 73 84
-0.07961 -4.12859 2.64608 56 58 74
-0.09939 -4.13603 2.64602 59 55 58
-0.11785 -4.14516 2.64652 51 46 49
-0.13617 -4.15575 2.62613 46 43 43
-0.16564 -4.14903 2.64276 53 51 48
-0.18838 -4.15236 2.64135 80 80 71
-0.20726 -4.16081 2.64163 96 91 83
-0.22482 -4.17105 2.64251 124 113 101
-0.25744 -4.16072 2.63662 157 148 135
-0.26171 -4.18917 2.64347 190 182 197
-0.28921 -4.18566 2.63984 233 235 241
-0.30655 -4.19619 2.64081 250 253 254
-0.32746 -4.20171 2.64014 250 251 253
-0.34568 -4.21101 2.64071 242 243 249
-0.36405 -4.22012 2.64121 229 230 234
-0.38906 -4.21963 2.63860 211 207 207
-0.40255 -4.23577 2.64138 191 181 175
-0.41144 -4.25878 2.64638 185 173 156
-0.42819 -4.27040 2.64768 187 176 154
-0.44646 -4.28095 2.62735 192 177 166
-0.44208 -4.28632 2.65037 190 177 155
-0.46038 -4.29689 2.63001 191 175 165
-0.60916 -4.25353 2.62539 189 172 152
-0.59011 -4.24703 2.60475 189 177 163
-0.60862 -4.25547 2.60507 189 176 159
-0.63159 -4.25579 2.62373 168 152 122
-0.64985 -4.26459 2.62417 151 162 109
-0.71213 -4.20287 2.60221 147 208 134
-0.72981 -4.21308 2.58254 175 203 149
-0.74066 -4.19450 2.59723 139 220 126
-0.75302 -4.21218 2.60052 129 223 122
-0.78966 -4.22828 2.60100 88 178 124
-0.88670 -4.10488 2.55982 62 110 109
-0.90467 -4.11240 2.55995 50 62 69
-0.92220 -4.12066 2.56032 43 47 48
-1.32888 -4.08818 2.51160 21 28 48
-1.31240 -4.07866 2.52994 29 55 65
-1.31191 -4.08044 2.51131 31 38 49
-1.31141 -4.08223 2.49268 26 33 32
-1.32839 -4.08996 2.49297 25 29 44
-1.38685 -4.09695 2.50808 40 55 42
-1.36943 -4.09102 2.48923 31 36 50
-1.42673 -4.09975 2.50484 41 38 41
-1.42624 -4.10152 2.48632 43 45 45
-1.44311 -4.10921 2.48661 35 36 36
-1.45617 -4.08089 2.49709 32 35 29
-1.47928 -4.07502 2.49329 17 29 40
-1.49452 -4.08584 2.49454 32 47 49
-1.52886 -4.14389 2.50597 44 43 68
-1.51151 -4.13797 2.48717 55 70 72
-1.52837 -4.14566 2.48746 62 68 78
-1.54524 -4.15335 2.48775 51 55 76
-1.56410 -4.15586 2.50552 44 57 79
-1.58046 -4.16531 2.48732 42 54 72
-1.58586 -4.15231 2.50246 44 51 71
-1.60218 -4.16174 2.48429 39 49 66
-1.66737 -4.14894 2.49349 28 49 92
-1.70655 -4.14998 2.48986 38 63 111
-1.70607 -4.15173 2.47161 38 38 70
-1.77548 -4.02883 2.45205 66 86 140
-1.73383 -4.18005 2.49484 98 113 166
-1.79649 -4.07199 2.46099 138 159 210
-1.79613 -4.12168 2.47373 174 195 242
-1.81302 -4.12744 2.49202 253 254 254
-2.21703 -4.33702 2.48693 219 205 214
-2.20102 -4.32778 2.50475 247 249 246
-2.20054 -4.32951 2.48665 237 234 240
-2.23260 -4.34780 2.48814 216 204 208
-2.24355 -4.37536 2.49410 227 225 222
-2.27866 -4.38317 2.49260 238 245 242
-2.29501 -4.39145 2.49310 225 235 232
-2.31916 -4.44126 2.50342 149 147 183
-2.33534 -4.45061 2.48542 25 31 57
-2.38059 -4.34406 2.47248 61 58 112
-2.40606 -4.31411 2.46229 37 35 99
-2.42541 -4.30826 2.45887 24 16 74
-2.45629 -4.32859 2.46100 27 24 40
0.85420 -3.58921 2.58017 76 74 79
0.87325 -3.58272 2.55954 83 79 83
0.81828 -3.60709 2.58117 64 78 95
0.81558 -3.62993 2.58666 110 139 167
0.34082 -4.00590 2.63500 157 170 180
0.30370 -3.99430 2.62845 92 102 125
0.29568 -4.01539 2.63298 54 61 91
0.27880 -4.02654 2.63414 61 73 93
0.25752 -4.03268 2.63361 63 72 88
0.22801 -4.02925 2.62986 39 46 62
0.15772 -4.03950 2.62557 28 28 35
0.13825 -4.04614 2.64666 34 32 49
0.13416 -4.04261 2.62405 37 34 48
0.11471 -4.04924 2.64512 42 40 56
0.11461 -4.05045 2.62411 47 46 54
0.09516 -4.05708 2.64518 49 46 50
0.09626 -4.06105 2.60369 64 64 63
0.10637 -4.07193 2.62872 56 53 52
0.08686 -4.07858 2.64985 46 49 55
0.08796 -4.08256 2.60824 64 66 65
-0.04175 -4.11281 2.62454 56 61 93
-0.04120 -4.11479 2.60383 72 70 92
-0.06007 -4.12339 2.60415 76 73 89
-0.10135 -4.13475 2.62424 69 73 73
-0.08194 -4.12814 2.60323 80 78 78
-0.11430 -4.15107 2.62709 57 58 62
-0.15958 -4.15832 2.62449 57 51 37
-0.18505 -4.15806 2.62193 88 79 63
-0.20673 -4.16276 2.62100 125 112 98
-0.23337 -4.16066 2.61787 163 149 135
-0.24854 -4.17411 2.61977 183 175 157
-0.26875 -4.18068 2.61945 196 191 182
-0.28852 -4.18784 2.61932 223 219 220
-0.30427 -4.20059 2.62100 238 237 239
-0.32530 -4.20597 2.62030 239 238 238
-0.34499 -4.21319 2.62019 232 227 233
-0.36405 -4.22130 2.62037 222 214 220
-0.38226 -4.23182 2.60011 207 196 194
-0.38176 -4.23136 2.62118 209 198 198
-0.39790 -4.24373 2.62272 199 190 180
-0.41612 -4.25425 2.60243 198 187 176
-0.41414 -4.25600 2.62422 197 186 172
-0.43238 -4.26654 2.60392 195 184 180
-0.43027 -4.26850 2.62579 195 183 173
-0.44853 -4.27904 2.60548 192 180 173
-0.64615 -4.23393 2.59597 184 172 153
-0.62723 -4.22748 2.57547 190 177 161
-0.64562 -4.23586 2.57579 188 177 160
-0.66401 -4.24425 2.57610 186 178 154
-0.67949 -4.21856 2.58884 180 177 148
-0.69726 -4.22882 2.56907 186 184 156
-0.72322 -4.18616 2.57640 178 195 147
-0.76099 -4.20025 2.57625 169 208 151
-0.79671 -4.17960 2.56756 133 184 139
-0.86683 -4.10150 2.54101 69 111 81
-0.89399 -4.09371 2.53639 45 49 51
-0.90900 -4.10609 2.53805 56 57 45
-0.92594 -4.11528 2.53871 49 52 46
-0.94305 -4.12516 2.51967 23 23 36
-0.94192 -4.12614 2.53988 25 35 43
-0.95955 -4.13418 2.54018 19 26 40
-0.95904 -4.13603 2.52083 26 27 32
-1.38593 -4.09961 2.48978 43 52 42
-1.36851 -4.09367 2.47092 23 31 47
-1.40236 -4.10910 2.47150 22 25 35
-1.48603 -4.06134 2.47035 28 40 44
-1.46888 -4.05550 2.45178 22 32 30
-1.48554 -4.06309 2.45206 25 39 44
-1.50854 -4.05634 2.46688 38 56 53
-1.51539 -4.08515 2.47348 48 69 74
-1.70216 -4.11348 2.46235 34 34 58
-1.71820 -4.12275 2.44451 39 38 54
-1.74826 -4.09639 2.45354 31 37 75
-1.76418 -4.10559 2.43582 24 29 27
-1.77067 -4.08890 2.44946 18 24 66
-1.78442 -4.10286 2.45163 23 29 78
-1.80032 -4.11204 2.43395 36 41 54
-1.82602 -4.04614 2.43327 32 43 97
-1.85615 -4.01750 2.42310 48 72 113
-1.88463 -3.99233 2.41397 79 96 129
-1.90098 -3.99790 2.43167 228 242 250
-1.90868 -3.97809 2.40803 126 132 195
-1.92494 -3.98363 2.42565 242 250 250
-1.90838 -4.02812 2.42067 166 182 231
-1.92481 -4.03372 2.43846 250 253 250
-1.90667 -4.08294 2.43466 193 213 250
-1.92328 -4.08860 2.45264 254 254 253
-1.93178 -4.06588 2.42790 216 242 252
-1.94829 -4.07150 2.44578 254 254 254
-1.94944 -4.06874 2.42690 243 252 254
-1.96593 -4.07436 2.44476 254 254 254
-1.96547 -4.07604 2.42717 253 254 254
-2.18762 -4.30992 2.46440 229 224 217
-2.17165 -4.30070 2.48216 254 254 253
-2.17118 -4.30243 2.46412 246 249 245
-2.18809 -4.30820 2.48244 248 253 251
-2.21821 -4.33292 2.46720 220 212 219
-2.23067 -4.35470 2.47148 231 233 233
-2.24445 -4.37212 2.47452 227 241 236
-2.26276 -4.37322 2.47301 210 216 225
-2.28826 -4.34747 2.46402 175 169 205
-2.30420 -4.35667 2.44629 37 39 88
-2.30403 -4.35737 2.46497 119 113 165
-2.31998 -4.36658 2.44723 26 28 53
-2.32334 -4.35384 2.46220 74 66 119
-2.33925 -4.36302 2.44450 22 29 36
-2.39933 -4.26886 2.43335 16 20 42
-2.39887 -4.27054 2.41577 16 23 29
-2.40986 -4.29847 2.43978 16 15 41
-2.42694 -4.30171 2.43893 44 30 59
-2.44226 -4.31221 2.44008 93 81 81
-2.46081 -4.30902 2.43746 102 99 62
-2.46924 -4.34939 2.44681 72 62 14
-2.49049 -4.33434 2.44094 37 34 20
-2.51437 -4.30674 2.43165 26 19 26
-2.53081 -4.31234 2.44944 18 24 31
-2.53252 -4.30409 2.42921 18 12 17
-2.54891 -4.30968 2.44696 14 20 17
-2.55049 -4.30189 2.42689 12 10 11
-2.56686 -4.30747 2.44461 11 14 10
-2.57570 -4.26523 2.41519 18 9 9
-2.59191 -4.27075 2.43274 10 12 16
-2.59780 -4.24192 2.40715 20 14 15
-2.61390 -4.24741 2.42459 10 12 25
-2.61344 -4.24905 2.40742 12 11 20
1.76135 -4.05719 2.76289 128 109 94
1.78321 -4.04974 2.73921 136 116 106
1.72746 -4.05634 2.75942 87 71 72
1.70564 -4.06378 2.78304 75 74 90
1.70626 -4.06600 2.75978 77 70 79
1.70687 -4.06823 2.73651 82 69 71
0.85956 -3.59546 2.56139 80 77 76
0.87864 -3.58896 2.54073 84 83 83
0.86010 -3.59741 2.54105 83 83 78
0.84057 -3.60350 2.56156 69 71 55
0.82015 -3.61024 2.56127 46 60 55
0.83871 -3.65246 2.57355 100 121 150
0.82885 -3.66906 2.57673 126 145 166
0.80958 -3.67562 2.59759 124 142 160
0.81013 -3.67759 2.57705 126 144 158
0.81067 -3.67955 2.55650 127 146 160
0.35919 -3.99780 2.61326 153 166 191
0.37771 -3.98710 2.63387 145 163 186
0.37827 -3.98911 2.61294 144 162 187
0.35975 -3.99980 2.59233 180 184 186
0.34194 -4.00854 2.61427 169 176 178
0.30063 -3.99221 2.60624 110 109 113
0.29465 -4.01560 2.61148 53 47 69
0.27617 -4.02627 2.59091 33 25 33
0.27439 -4.02288 2.61134 38 45 65
0.25040 -4.02585 2.60977 35 39 62
0.22804 -4.03064 2.60881 29 29 47
0.20087 -4.02977 2.60598 28 24 34
0.18253 -4.03912 2.60654 35 29 42
0.15223 -4.03434 2.60244 41 38 52
0.13532 -4.04532 2.60354 49 48 62
0.11697 -4.05593 2.58312 70 65 64
0.12087 -4.05928 2.60562 59 61 66
0.10249 -4.06990 2.58517 71 63 63
-0.01459 -4.08365 2.59865 67 68 80
0.00423 -4.07507 2.59833 63 64 72
0.00477 -4.07705 2.57768 67 73 81
-0.01604 -4.11413 2.60609 71 70 90
-0.03439 -4.12473 2.58566 90 84 76
-0.10428 -4.13221 2.60209 79 76 69
-0.11484 -4.15162 2.60590 65 57 60
-0.13564 -4.15771 2.60541 49 43 42
-0.15485 -4.16585 2.60559 70 64 49
-0.19368 -4.14775 2.59736 123 111 95
-0.20864 -4.16142 2.59931 164 153 133
-0.22688 -4.17195 2.57903 192 181 170
-0.24923 -4.17440 2.59864 193 184 166
-0.26744 -4.18492 2.57837 198 189 175
-0.26938 -4.18103 2.59835 198 191 173
-0.29309 -4.18269 2.59648 210 203 196
-0.30923 -4.19485 2.59795 219 216 213
-0.32872 -4.20234 2.59794 223 219 217
-0.34691 -4.21285 2.57769 215 210 207
-0.34508 -4.21426 2.59933 220 213 216
-0.36328 -4.22478 2.57907 212 205 202
-0.36452 -4.22182 2.59933 213 203 208
-0.38272 -4.23233 2.57908 209 201 196
-0.39729 -4.24578 2.60214 202 192 184
-0.41552 -4.25631 2.58185 200 190 175
-0.85990 -4.07682 2.51565 84 94 93
-0.87479 -4.08933 2.51733 52 57 69
-0.89727 -4.08922 2.51514 44 48 50
-0.91433 -4.09908 2.49615 23 25 51
-0.91362 -4.09929 2.51607 40 38 50
-0.93070 -4.10915 2.49707 29 24 38
-0.93261 -4.10493 2.51564 34 27 45
-0.94968 -4.11478 2.49665 28 21 28
-1.51660 -4.03967 2.44325 25 44 51
-1.49958 -4.03387 2.42481 28 45 39
-1.53014 -4.05376 2.44545 34 49 64
-1.54464 -4.06585 2.44706 43 49 65
-1.55690 -4.08303 2.45015 43 52 65
-1.57304 -4.09236 2.43219 27 38 48
-1.85253 -4.02728 2.40786 50 61 71
-1.85831 -4.06125 2.41575 37 49 70
-1.88071 -4.05210 2.41132 27 39 87
-1.91303 -4.01619 2.39929 29 49 105
-1.92555 -4.03258 2.40215 36 55 130
-1.93352 -4.06154 2.40859 80 99 168
-1.95925 -4.04213 2.40129 185 206 247
-1.97021 -4.06320 2.40547 244 252 254
-1.98665 -4.06881 2.42328 254 254 254
-1.98619 -4.07049 2.40574 254 254 254
-2.14224 -4.21419 2.42645 251 254 254
-2.12651 -4.20511 2.44395 254 254 254
-2.12604 -4.20681 2.42617 254 254 254
-2.14272 -4.21249 2.44423 254 254 254
-2.15892 -4.21987 2.44451 254 254 254
-2.15545 -4.23140 2.42946 245 252 243
-2.17216 -4.23710 2.44756 252 254 254
-2.15937 -4.27967 2.44108 238 225 210
-2.17768 -4.28065 2.43956 226 215 210
-2.18872 -4.30625 2.44486 222 217 218
-2.20427 -4.31677 2.44598 220 226 222
-2.21674 -4.33815 2.45010 212 219 224
-2.26190 -4.37634 2.45525 89 89 126
-2.27796 -4.38562 2.43738 26 34 58
-2.26909 -4.41859 2.46505 59 56 109
-2.28526 -4.42793 2.44706 25 35 54
-2.40959 -4.29934 2.42190 39 36 45
-2.39303 -4.29370 2.40397 38 37 45
-2.43254 -4.27836 2.41448 100 95 109
-2.46552 -4.21437 2.39540 160 169 159
-2.48185 -4.21904 2.39499 169 178 138
-2.50538 -4.19243 2.38612 149 148 88
-2.54467 -4.17060 2.37691 96 84 58
-2.53671 -4.28457 2.40600 63 47 18
-2.55758 -4.26854 2.40001 43 34 26
-2.58564 -4.21782 2.38471 66 58 54
-2.59999 -4.23083 2.38656 55 50 43
-2.61942 -4.21923 2.38181 16 11 11
-2.63541 -4.22469 2.39913 10 14 20
-2.63496 -4.22632 2.38207 8 17 13
-2.63451 -4.22795 2.36502 10 20 11
-3.29082 -4.46576 2.37851 254 249 211
1.76071 -4.05838 2.73919 134 114 106
1.78257 -4.05093 2.71552 133 119 106
1.76133 -4.06062 2.71588 133 119 108
0.84875 -3.61232 2.54363 75 75 70
0.86786 -3.60581 2.52294 82 79 82
0.84929 -3.61427 2.52326 79 76 77
0.83339 -3.62368 2.54496 47 64 67
0.83386 -3.64950 2.55133 78 91 103
0.83557 -3.67668 2.55816 120 140 167
0.81736 -3.68719 2.53790 123 145 163
0.39278 -3.97680 2.58982 152 164 182
0.41127 -3.96611 2.61040 141 163 180
0.41183 -3.96811 2.58949 143 162 182
0.39222 -3.97480 2.61072 142 163 182
0.37529 -3.98721 2.59071 161 171 186
0.34072 -4.00855 2.59267 188 188 175
0.30957 -4.00365 2.58853 133 124 110
0.29024 -4.01196 2.58873 59 40 43
0.25354 -4.03083 2.58989 37 33 49
0.22537 -4.02890 2.58675 45 44 57
0.20712 -4.03840 2.58735 52 50 55
0.18516 -4.04355 2.58653 58 55 63
0.15723 -4.04159 2.58341 62 59 70
0.13563 -4.04702 2.58270 66 62 70
-0.00283 -4.13208 2.59045 85 82 85
-0.06979 -4.11223 2.57925 98 86 73
-0.12988 -4.13320 2.57870 104 81 53
-0.15146 -4.13810 2.57787 110 94 63
-0.17674 -4.13802 2.57545 137 127 104
-0.17898 -4.16866 2.58275 170 159 138
-0.19727 -4.17922 2.56240 194 182 167
-0.20055 -4.17356 2.58191 189 179 159
-0.21883 -4.18412 2.56158 194 182 174
-0.29319 -4.18377 2.57565 204 194 185
-0.27392 -4.17720 2.55478 198 188 178
-0.29264 -4.18573 2.55510 202 193 185
-0.31137 -4.19427 2.55542 207 200 195
-0.31006 -4.19490 2.57678 211 203 199
-0.32825 -4.20540 2.55654 212 206 201
-0.32779 -4.20485 2.57754 215 210 207
-0.34599 -4.21535 2.55730 213 208 201
-0.42134 -4.21195 2.57043 204 195 188
-0.40217 -4.20541 2.54967 210 205 197
-0.76549 -4.12053 2.51548 187 182 163
-0.74763 -4.11239 2.51517 188 178 158
-0.86898 -4.06292 2.49157 37 51 54
-0.88413 -4.07485 2.49306 31 28 60
-0.90440 -4.07829 2.49199 33 28 48
-0.92142 -4.08812 2.47306 34 30 52
-1.52622 -4.01965 2.41881 24 38 46
-1.53892 -4.03535 2.42145 31 44 45
-1.55774 -4.03776 2.42026 43 47 45
-1.57373 -4.04700 2.40246 23 27 38
-1.57385 -4.04606 2.42077 37 44 42
-1.58985 -4.05531 2.40297 21 29 34
-1.61609 -4.04007 2.41531 32 40 52
-1.63297 -4.04582 2.43359 37 49 63
-1.63986 -4.03067 2.41076 31 43 57
-1.65667 -4.03640 2.42897 38 48 60
-1.65620 -4.03812 2.41104 28 46 64
-1.65572 -4.03983 2.39311 18 41 49
-1.83891 -4.06283 2.39981 20 32 54
-1.82228 -4.05716 2.38181 21 34 49
-1.85459 -4.07189 2.38236 21 30 32
-1.86472 -4.04505 2.39301 25 33 48
-1.88032 -4.05406 2.37566 21 28 23
-1.88501 -4.04127 2.39017 23 31 40
-1.90056 -4.05025 2.37286 19 27 21
-1.91190 -4.01963 2.38232 18 27 41
-1.92736 -4.02855 2.36513 17 24 26
-1.92897 -4.02378 2.38172 10 24 48
-1.94435 -4.03248 2.38240 20 25 73
-1.95439 -4.05590 2.38719 116 126 176
-1.97403 -4.05294 2.38461 223 248 247
-1.99054 -4.05858 2.38443 249 251 252
-2.00693 -4.06417 2.40218 254 254 254
-2.00647 -4.06584 2.38470 251 253 253
-2.11091 -4.19629 2.40679 253 254 254
-2.09519 -4.18721 2.42427 254 254 254
-2.09472 -4.18891 2.40651 254 254 254
-2.11138 -4.19459 2.42455 254 254 254
-2.12552 -4.20866 2.40844 246 252 249
-2.13968 -4.22267 2.41053 237 229 233
-2.14853 -4.25423 2.41743 221 217 221
-2.15890 -4.28139 2.42310 217 213 211
-2.17458 -4.29119 2.42402 208 219 206
-2.18715 -4.31171 2.42786 194 199 206
-2.20258 -4.32268 2.42909 161 159 188
-2.21855 -4.33191 2.41132 38 41 81
-2.21839 -4.39842 2.44615 66 59 124
-2.23457 -4.40776 2.42815 28 42 64
-2.41963 -4.25833 2.39279 94 99 100
-2.44573 -4.22364 2.38182 158 168 173
-2.46107 -4.23249 2.36476 179 191 195
-2.46757 -4.20549 2.37531 180 195 196
-2.48282 -4.21430 2.35834 175 188 191
-2.48237 -4.21652 2.37661 180 192 185
-2.49763 -4.22533 2.35963 170 185 189
-2.50290 -4.20287 2.37132 177 188 174
-2.51809 -4.21165 2.35442 166 182 188
-2.52428 -4.18476 2.36486 171 180 166
-2.54196 -4.18232 2.36259 159 162 137
-2.56037 -4.17630 2.35938 145 141 98
-2.57755 -4.17547 2.35755 124 129 102
-2.59096 -4.19219 2.36038 113 120 101
-2.60246 -4.21844 2.36572 56 62 53
-2.61968 -4.21736 2.36383 13 13 10
-2.74634 -4.35744 2.38617 202 188 206
-2.73102 -4.34859 2.40323 50 44 69
-2.73056 -4.35024 2.38590 142 121 150
-2.76259 -4.36298 2.40377 213 221 208
-2.76213 -4.36463 2.38644 244 247 248
-2.76167 -4.36629 2.36912 254 254 254
1.73845 -4.09646 2.72241 90 70 72
1.71651 -4.10394 2.74618 78 77 79
1.71713 -4.10618 2.72277 75 76 81
0.83550 -3.62705 2.52506 67 69 67
0.81951 -3.63789 2.52619 43 58 81
0.84593 -3.68766 2.54067 99 126 153
0.42247 -3.95174 2.56508 155 161 179
0.44093 -3.94108 2.58562 141 160 178
0.44148 -3.94308 2.56476 144 158 174
0.42192 -3.94975 2.58594 141 160 179
0.40550 -3.96262 2.56613 163 172 185
0.39171 -3.97702 2.56833 184 185 185
0.37443 -3.98765 2.56929 192 190 184
0.35750 -3.99870 2.57038 180 181 172
0.29791 -3.96203 2.55598 138 143 128
0.31652 -4.01285 2.56999 88 80 60
0.28812 -4.01093 2.56688 58 37 36
0.27139 -4.02219 2.56805 72 58 40
0.25701 -4.03618 2.57009 78 67 48
0.22736 -4.03256 2.56646 73 76 62
0.20533 -4.03765 2.56564 81 86 70
0.18209 -4.04128 2.56436 89 83 76
0.11438 -4.08559 2.56876 106 78 56
-0.07277 -4.10969 2.55718 147 131 99
-0.09102 -4.12023 2.53687 197 184 158
-0.05204 -4.16925 2.57350 154 137 104
-0.06689 -4.18333 2.57551 160 142 104
-0.09546 -4.17953 2.57194 168 150 98
-0.12748 -4.17097 2.56690 179 162 114
-0.14585 -4.18158 2.54647 197 185 165
-0.15267 -4.17126 2.56462 190 176 148
-0.17099 -4.18185 2.54423 197 184 167
-0.16856 -4.18386 2.56619 194 181 158
-0.18690 -4.19446 2.54578 196 184 172
-0.79058 -4.04515 2.47484 186 185 169
-0.77351 -4.03529 2.49384 191 179 161
-0.77300 -4.03714 2.47454 183 184 166
-0.81037 -4.04961 2.47408 157 158 146
-0.84314 -4.03305 2.46703 89 88 105
-0.85325 -4.05300 2.47091 46 53 79
-0.87025 -4.06283 2.45199 33 37 54
-0.87217 -4.05868 2.47052 35 45 55
-0.88916 -4.06849 2.45161 30 39 61
-0.88920 -4.06744 2.47106 33 44 62
-0.90620 -4.07726 2.45214 36 46 54
-0.91027 -4.06947 2.46959 34 31 37
-0.92725 -4.07928 2.45070 48 43 58
-1.46282 -3.98528 2.39787 23 36 48
-1.44686 -3.97606 2.41563 20 32 37
-1.44638 -3.97779 2.39759 18 31 23
-1.46330 -3.98356 2.41591 25 32 42
-1.47974 -3.99105 2.41619 27 38 37
-1.47878 -3.99450 2.38011 28 42 50
-1.47798 -3.99545 2.39892 30 36 52
-1.49444 -4.00295 2.39920 39 51 54
-1.51569 -4.00020 2.39656 32 45 35
-1.51521 -4.00192 2.37855 29 30 36
-1.53162 -4.00941 2.37883 23 28 21
-1.53100 -4.01004 2.39751 21 28 23
-1.54695 -4.01925 2.37977 25 25 25
-1.54506 -4.02267 2.39925 20 21 27
-1.56102 -4.03189 2.38149 24 28 32
-1.56265 -4.02765 2.39882 17 21 30
-1.57860 -4.03686 2.38107 32 42 39
-1.64644 -4.01624 2.38827 18 35 39
-1.66225 -4.02537 2.37069 21 38 45
-1.94564 -4.02937 2.36362 15 18 47
-1.94861 -4.07221 2.37369 111 118 155
-1.97184 -4.05944 2.36845 206 228 229
-1.98967 -4.06141 2.36727 232 233 243
-2.00816 -4.06136 2.36554 239 242 245
-2.02453 -4.06694 2.38326 253 254 254
-2.02099 -4.07748 2.36824 246 248 248
-2.03739 -4.08307 2.38600 254 254 254
-2.03693 -4.08474 2.36851 252 253 253
-2.09608 -4.18492 2.38720 250 254 253
-2.08039 -4.17585 2.40467 254 254 254
-2.07992 -4.17755 2.38693 254 254 254
-2.12703 -4.20405 2.38895 221 213 215
-2.13791 -4.22856 2.39386 209 213 212
-2.14831 -4.25511 2.39930 197 201 207
-2.16668 -4.25570 2.39774 173 163 199
-2.17179 -4.30070 2.40813 118 120 156
-2.20568 -4.24860 2.39240 72 81 113
-2.22141 -4.25769 2.37489 33 46 63
-2.21227 -4.28924 2.40160 50 56 94
-2.22812 -4.29839 2.38396 35 47 68
-2.40582 -4.24237 2.37228 105 104 112
-2.39038 -4.23345 2.38946 21 20 32
-2.38992 -4.23512 2.37201 45 34 55
-2.42719 -4.22741 2.36668 161 175 167
-2.44256 -4.23628 2.34958 181 194 197
-2.54331 -4.17589 2.34344 167 181 183
-2.55932 -4.18065 2.34310 171 184 166
-2.57903 -4.16819 2.33825 140 143 131
-2.59125 -4.19033 2.34247 76 81 65
-2.60628 -4.19901 2.32574 20 18 13
-2.60353 -4.21275 2.34674 21 28 21
-2.61991 -4.21570 2.34593 9 18 21
-2.63528 -4.22347 2.34638 15 23 20
-2.65125 -4.22891 2.36367 14 20 16
-2.65124 -4.22834 2.34607 20 28 18
-2.66720 -4.23379 2.36336 13 22 19
-2.66675 -4.23541 2.34634 24 30 31
-2.74516 -4.36333 2.36994 252 254 246
-2.76050 -4.37219 2.35287 254 254 254
1.75342 -4.08315 2.69662 133 114 98
1.77533 -4.07568 2.67288 135 117 109
1.73561 -4.09579 2.69800 106 97 81
0.86002 -3.62540 2.50600 85 79 78
0.87863 -3.61691 2.50568 81 80 83
0.87917 -3.61887 2.48526 82 82 89
0.86057 -3.62735 2.48558 88 82 91
0.84768 -3.63955 2.50824 75 71 62
0.82959 -3.65000 2.48811 65 65 67
0.83056 -3.64942 2.50903 47 57 68
0.84353 -3.68692 2.51914 83 97 124
0.84815 -3.71709 2.52674 116 143 156
0.82872 -3.72371 2.54778 126 144 163
0.82927 -3.72569 2.52707 124 145 160
0.82982 -3.72767 2.50635 124 149 166
0.46055 -3.93588 2.54340 145 159 171
0.47900 -3.92523 2.56393 139 157 179
0.47956 -3.92722 2.54308 140 155 176
0.48011 -3.92922 2.52222 136 157 178
0.46000 -3.93389 2.56426 139 158 176
0.44076 -3.94370 2.54345 166 175 175
0.42231 -3.95436 2.52292 208 202 194
0.42197 -3.95260 2.54385 192 189 187
0.39492 -3.95249 2.54136 203 198 193
0.39047 -3.97706 2.54680 191 194 190
0.37341 -3.98791 2.54782 151 164 167
0.34341 -3.98441 2.54425 104 102 122
0.32354 -3.99208 2.54426 43 44 64
0.30105 -3.99679 2.54332 28 20 33
0.29811 -4.02363 2.54944 80 68 44
0.26757 -4.01918 2.54559 131 121 75
0.25374 -4.03378 2.54780 124 110 71
0.22665 -4.03309 2.54516 106 107 66
0.21382 -4.04891 2.54776 116 118 94
0.20330 -4.06755 2.55123 132 121 109
0.12256 -4.03409 2.53589 160 141 106
0.11731 -4.05899 2.54134 165 148 107
-0.09969 -4.17525 2.54918 199 186 159
-0.11971 -4.18250 2.54907 199 186 161
-0.13811 -4.19312 2.52860 202 190 173
-0.76305 -4.01823 2.45117 190 186 180
-0.78181 -4.02427 2.45090 166 159 165
-0.81037 -4.01470 2.44601 148 149 150
-0.84269 -4.03478 2.44783 38 33 63
-0.85965 -4.04457 2.42896 27 34 42
-0.85636 -4.04893 2.44995 32 35 60
-0.87335 -4.05874 2.43105 33 33 46
-1.44955 -3.97202 2.37743 23 34 39
-1.43361 -3.96282 2.39516 30 36 30
-1.43314 -3.96454 2.37715 25 40 34
-1.43266 -3.96627 2.35914 30 35 37
-1.49600 -4.00035 2.37993 28 40 49
-1.49553 -4.00207 2.36189 27 36 51
-1.51196 -4.00956 2.36217 33 31 53
-1.93168 -4.01736 2.34416 19 20 29
-1.91581 -4.01012 2.34389 16 24 21
-1.91534 -4.01179 2.32647 13 24 24
-1.94725 -4.02540 2.34465 27 31 57
-1.96972 -4.01446 2.33999 126 151 166
-1.97449 -4.05243 2.34859 188 205 209
-1.99285 -4.05279 2.34700 207 212 215
-2.00047 -4.08366 2.35365 216 221 230
-2.01739 -4.08820 2.35319 224 231 239
-2.03655 -4.08618 2.35096 239 242 242
-2.05294 -4.09176 2.36872 254 253 254
-2.04826 -4.10594 2.35459 248 248 249
-2.06470 -4.11155 2.37240 254 254 254
-2.06089 -4.12324 2.35755 251 253 253
-2.07737 -4.12886 2.37540 254 254 254
-2.07691 -4.13054 2.35783 253 254 254
-2.09683 -4.18283 2.36846 234 229 239
-2.11266 -4.19120 2.36900 217 211 220
-2.12750 -4.20274 2.37039 224 221 207
-2.13363 -4.24256 2.37931 171 171 168
-2.15062 -4.24769 2.37898 100 94 123
-2.17735 -4.22041 2.37004 61 57 113
-2.19303 -4.22947 2.35259 39 49 73
-2.18801 -4.24623 2.37521 41 44 92
-2.20376 -4.25533 2.35769 46 55 70
-2.20623 -4.24680 2.37368 34 43 68
-2.22196 -4.25588 2.35619 45 56 66
-2.41373 -4.21053 2.34609 167 176 174
-2.42906 -4.21939 2.32903 184 199 198
-2.43333 -4.20224 2.34232 185 200 194
-2.44861 -4.21107 2.32532 179 194 199
-2.52782 -4.16845 2.32564 165 180 183
-2.51232 -4.16139 2.32538 166 181 185
-2.54364 -4.17402 2.32552 160 176 171
-2.56312 -4.16292 2.32110 130 130 124
-2.57827 -4.17121 2.32169 79 59 74
-2.58738 -4.20811 2.32964 31 24 21
-2.61969 -4.21616 2.32860 18 26 28
-2.63504 -4.22406 2.32908 25 30 29
-2.65117 -4.22800 2.32854 42 48 45
-2.71654 -4.33136 2.34717 254 252 246
-2.73181 -4.34018 2.33017 254 254 254
-2.72914 -4.35638 2.35198 254 254 252
-2.74448 -4.36524 2.33491 254 254 254
1.75347 -4.08491 2.67309 138 119 106
1.77539 -4.07744 2.64935 137 118 117
1.75409 -4.08715 2.64972 137 120 116
1.72474 -4.08837 2.67132 119 110 97
1.72825 -4.11901 2.67882 84 73 76
0.85676 -3.64925 2.49038 79 76 69
0.87597 -3.64270 2.46957 80 83 87
0.81840 -3.66533 2.49070 50 59 99
0.83927 -3.71036 2.50314 102 132 156
0.82099 -3.72093 2.48279 118 147 167
0.45679 -3.93327 2.52107 154 169 177
0.47632 -3.92661 2.49991 137 159 174
0.43986 -3.94413 2.52210 191 198 184
0.39728 -3.95645 2.52117 194 190 192
0.37002 -3.95602 2.51862 136 139 155
0.34940 -3.96278 2.51835 61 73 99
0.33710 -3.97877 2.52100 25 37 52
0.33147 -4.00233 2.52602 32 31 43
0.31156 -4.01001 2.52603 74 62 50
0.30268 -4.03019 2.52997 144 137 110
0.24375 -3.99330 2.51602 180 177 156
0.22579 -4.00296 2.51668 187 181 155
0.19939 -4.00284 2.51428 185 176 138
0.18794 -4.02005 2.51729 186 174 153
0.17956 -4.04100 2.52145 193 182 151
0.16766 -4.05794 2.52435 202 193 160
0.14030 -4.05658 2.52157 206 193 167
0.12193 -4.06719 2.50113 205 194 184
0.10604 -4.04677 2.51620 204 192 168
0.08774 -4.05734 2.49584 205 195 182
-0.09914 -4.17724 2.52837 204 193 183
-0.11755 -4.18787 2.50789 207 198 185
-0.11916 -4.18449 2.52828 203 192 178
-0.13756 -4.19511 2.50780 206 196 183
-0.50598 -4.12698 2.48005 201 191 185
-0.48829 -4.11676 2.49974 209 201 195
-0.48723 -4.12059 2.45974 192 190 192
-0.50651 -4.12506 2.50005 208 198 188
-0.50545 -4.12889 2.46005 188 182 184
-0.52474 -4.13337 2.50036 201 195 183
-0.53496 -4.11937 2.47566 191 179 173
-0.55365 -4.12574 2.49590 196 191 183
-0.56691 -4.10707 2.46991 178 164 174
-0.58499 -4.11531 2.47022 163 158 171
-0.70402 -4.04023 2.44192 184 179 187
-0.68686 -4.03032 2.46101 188 183 178
-0.68634 -4.03217 2.44162 168 168 175
-0.72118 -4.05014 2.42283 205 200 197
-0.75599 -4.03032 2.43493 208 200 190
-0.78858 -4.01463 2.42832 168 165 165
-0.81940 -4.00136 2.42244 71 82 104
-0.83628 -4.01112 2.40366 27 32 41
-0.83767 -4.00787 2.42233 31 33 44
-0.85455 -4.01762 2.40355 32 39 37
-1.35319 -3.92384 2.35633 28 27 33
-1.33727 -3.91465 2.37403 26 32 35
-1.33679 -3.91637 2.35605 24 27 37
-1.35366 -3.92212 2.37432 20 23 27
-1.37006 -3.92959 2.37460 17 29 33
-1.36958 -3.93131 2.35661 23 27 36
-1.39996 -3.95106 2.35851 36 30 25
-1.38402 -3.94186 2.37624 17 27 24
-1.38355 -3.94358 2.35823 24 26 29
-1.40044 -3.94934 2.37652 21 29 24
-1.41685 -3.95681 2.37680 19 29 20
-1.41637 -3.95854 2.35879 28 31 29
-1.44529 -3.98151 2.36158 43 34 32
-1.46225 -3.98793 2.36156 39 49 60
-1.93819 -4.00023 2.32171 16 19 42
-1.95779 -3.99709 2.31921 63 64 94
-1.96800 -4.01960 2.32358 139 163 166
-1.97931 -4.03937 2.32719 169 181 189
-2.00302 -4.07673 2.33383 176 187 205
-2.04464 -4.11694 2.33952 225 226 230
-2.05568 -4.13914 2.34374 236 235 237
-2.07034 -4.15074 2.34514 238 243 243
-2.10092 -4.17034 2.34699 208 200 221
-2.11316 -4.18983 2.35047 217 219 226
-2.12788 -4.20173 2.35193 229 228 217
-2.15446 -4.17541 2.34337 156 132 134
-2.16160 -4.21188 2.35129 68 43 56
-2.17769 -4.21940 2.35160 35 36 60
-2.39637 -4.14088 2.31355 124 142 140
-2.40777 -4.16450 2.31807 176 191 188
-2.42296 -4.17327 2.30116 190 205 203
-2.51607 -4.14484 2.30373 165 179 182
-2.50108 -4.13618 2.32040 173 187 187
-2.50063 -4.13780 2.30347 173 186 188
-2.53349 -4.14310 2.30176 157 166 156
-2.55461 -4.12452 2.29550 135 125 121
-2.56816 -4.13953 2.29781 94 65 96
-2.57827 -4.17076 2.30422 70 44 69
-2.59381 -4.17727 2.30436 65 45 58
-2.60509 -4.20417 2.30965 55 35 39
-2.61997 -4.21424 2.31068 43 41 30
-2.63844 -4.20654 2.30721 75 73 62
-2.64921 -4.23730 2.31346 128 121 132
-2.67802 -4.26334 2.31698 243 246 231
-2.69314 -4.27207 2.30016 254 254 254
-2.69009 -4.28923 2.32197 254 254 237
-2.70527 -4.29800 2.30508 254 254 254
-2.70395 -4.30607 2.32468 254 254 254
-2.71917 -4.31485 2.30775 254 254 254
1.73086 -4.09523 2.64953 136 116 100
1.75277 -4.08776 2.62581 138 119 116
1.73017 -4.12236 2.65574 97 85 84
1.71240 -4.13516 2.65713 82 74 79
1.69040 -4.14266 2.68097 76 74 88
1.69102 -4.14491 2.65750 82 74 79
1.69164 -4.14715 2.63403 81 75 80
0.88145 -3.67310 2.47707 79 81 78
0.90077 -3.66651 2.45615 84 82 91
0.88199 -3.67507 2.45647 83 82 85
0.85749 -3.67693 2.47585 69 69 78
0.83929 -3.68744 2.45559 52 61 67
0.83552 -3.68251 2.47520 43 58 91
0.86055 -3.73150 2.48873 85 108 140
0.45702 -3.93492 2.50013 138 159 170
0.47655 -3.92826 2.47897 135 158 172
0.45757 -3.93691 2.47930 137 156 165
0.43858 -3.94556 2.47962 159 165 163
0.43777 -3.94329 2.50037 167 176 163
0.41857 -3.95171 2.50062 190 188 169
0.39848 -3.95916 2.50057 140 126 159
0.35034 -3.93580 2.49092 60 55 80
0.35847 -3.97418 2.50051 30 28 49
0.32846 -3.97054 2.49702 48 52 40
0.32722 -3.99895 2.50348 93 87 62
0.31224 -4.01215 2.50521 137 127 115
0.27479 -3.99989 2.49907 171 172 172
0.25811 -4.01109 2.50018 188 186 183
0.23403 -4.01380 2.49869 197 187 183
0.20735 -4.01341 2.49624 202 195 178
0.18902 -4.02399 2.47585 214 206 199
0.18984 -4.02361 2.49705 210 206 194
0.17151 -4.03419 2.47666 212 202 197
0.17782 -4.04028 2.49985 215 208 193
0.15945 -4.05089 2.47941 211 202 191
0.16955 -4.06152 2.50403 212 202 186
0.15114 -4.07216 2.48353 210 201 190
0.14085 -4.05856 2.50081 208 196 184
0.12248 -4.06917 2.48037 209 200 191
-0.54464 -4.10617 2.45134 187 177 173
-0.57233 -4.10009 2.44750 185 170 173
-0.58985 -4.11021 2.42801 203 196 180
-0.59194 -4.10597 2.44712 181 171 172
-0.61049 -4.11229 2.46722 163 161 178
-0.60944 -4.11608 2.42765 206 195 182
-0.66907 -4.05964 2.42962 189 184 176
-0.66855 -4.06150 2.41011 203 194 184
-0.68633 -4.06961 2.41041 203 195 188
-0.70355 -4.04202 2.42250 197 190 188
-0.72071 -4.05193 2.40341 204 197 193
-0.75879 -4.02698 2.41416 206 196 194
-0.81077 -3.98064 2.39887 124 120 133
-0.83033 -3.98498 2.39814 31 39 50
-0.84715 -3.99469 2.37943 30 38 42
-1.35145 -3.92800 2.33901 44 51 55
-1.36738 -3.93720 2.32129 31 47 53
-1.36720 -3.93677 2.33965 35 43 44
-1.38214 -3.94714 2.34073 36 34 51
-1.39808 -3.95635 2.32299 43 50 77
-1.39420 -3.96333 2.34340 56 50 69
-1.41561 -3.96084 2.34094 35 31 37
-1.42692 -3.97869 2.34406 36 35 52
-1.44316 -3.98664 2.34447 56 57 66
-1.46190 -3.98939 2.34345 35 28 35
-1.47786 -3.99861 2.32570 20 34 26
-1.48363 -3.98580 2.34071 18 31 27
-1.68734 -3.96854 2.31875 27 24 43
-1.67129 -3.96123 2.31848 20 20 31
-1.68781 -3.96686 2.33637 22 28 43
-1.70386 -3.97417 2.33664 17 28 41
-1.70339 -3.97586 2.31902 28 29 41
-1.92527 -3.98582 2.30175 17 24 31
-1.90995 -3.97697 2.31879 13 27 26
-1.90950 -3.97863 2.30148 15 27 19
-1.90904 -3.98029 2.28418 22 28 26
-1.94200 -3.99039 2.30133 25 28 54
-1.95351 -4.00916 2.30466 82 98 108
-1.96895 -4.01736 2.30519 127 143 140
-1.99024 -4.00929 2.30144 137 149 151
-2.00642 -4.01524 2.30139 135 144 152
-2.02261 -4.02116 2.30133 143 150 159
-2.02973 -4.05322 2.30811 166 172 179
-2.03850 -4.08110 2.31378 186 185 197
-2.03440 -4.14755 2.32950 198 195 203
-2.04951 -4.15792 2.33056 202 205 205
-2.07684 -4.13128 2.32199 188 182 211
-2.09816 -4.12227 2.31803 179 166 201
-2.10654 -4.15307 2.32441 195 197 203
-2.11929 -4.17074 2.32737 211 216 213
-2.14092 -4.16032 2.32305 211 207 199
-2.16205 -4.15102 2.31904 169 141 133
-2.15436 -4.23574 2.33929 114 82 77
-2.17581 -4.22578 2.33510 67 56 62
-2.38774 -4.10705 2.28897 141 163 166
-2.40279 -4.11573 2.27223 198 210 209
-2.40313 -4.11454 2.28934 185 202 199
-2.41817 -4.12322 2.27261 196 206 209
-2.41787 -4.12454 2.29035 194 208 206
-2.43292 -4.13323 2.27361 193 206 208
-2.48538 -4.12976 2.28560 183 194 199
-2.46996 -4.12273 2.28534 184 200 202
-2.48583 -4.12814 2.30253 178 189 195
-2.50306 -4.12716 2.28344 171 183 186
-2.52223 -4.11781 2.27959 150 150 165
-2.54104 -4.10951 2.27602 135 115 133
-2.55622 -4.11690 2.27639 119 75 107
-2.60289 -4.13393 2.27620 113 74 127
-2.65842 -4.18995 2.28425 234 225 220
-2.67333 -4.19857 2.26765 254 254 254
-2.66802 -4.22672 2.29190 252 254 244
-2.68304 -4.23540 2.27519 254 254 254
1.72643 -4.09322 2.62477 141 119 105
1.74832 -4.08576 2.60107 139 121 111
1.72705 -4.09545 2.60143 143 121 115
1.71193 -4.10864 2.62702 121 105 93
1.70763 -4.13281 2.63215 89 74 85
1.68689 -4.14479 2.60907 82 76 85
0.86182 -3.68234 2.45638 79 75 81
0.88113 -3.67576 2.43547 86 82 84
0.84070 -3.71463 2.46190 68 80 96
0.81746 -3.71911 2.46091 113 136 163
0.79809 -3.72571 2.48188 131 144 163
0.79864 -3.72769 2.46123 126 142 164
0.37008 -3.92958 2.47005 69 73 116
0.38161 -3.97150 2.48059 29 23 45
0.33722 -3.98166 2.47906 79 77 64
0.32926 -4.00261 2.48313 158 163 126
0.30188 -4.00184 2.48059 185 185 173
0.27630 -4.00296 2.47863 196 190 194
0.25791 -4.01358 2.45817 222 216 210
0.25706 -4.01124 2.47884 208 201 200
0.23868 -4.02186 2.45839 219 212 206
0.23415 -4.01529 2.47778 215 208 201
0.21579 -4.02590 2.45735 215 209 201
0.20667 -4.01397 2.47510 216 209 196
0.18835 -4.02455 2.45471 215 207 199
-0.51242 -4.11978 2.43689 198 191 187
-0.49424 -4.11150 2.43658 200 192 192
-0.53008 -4.12998 2.41725 208 202 184
-0.54095 -4.11275 2.43282 200 194 181
-0.55854 -4.12291 2.41325 206 199 182
-0.57372 -4.09914 2.42689 201 195 180
-0.59122 -4.10925 2.40741 204 196 184
-0.78845 -3.98158 2.38154 160 155 164
-0.81611 -3.97323 2.37724 59 45 62
-0.83550 -3.97778 2.37659 24 30 26
-0.85228 -3.98747 2.35793 32 39 43
-1.38131 -3.94957 2.32290 35 44 64
-1.36441 -3.94381 2.30460 29 43 49
-1.38083 -3.95129 2.30488 32 43 61
-1.41475 -3.96332 2.32313 25 37 48
-1.41427 -3.96505 2.30512 27 41 53
-1.43069 -3.97253 2.30540 30 43 54
-1.44832 -3.97678 2.32329 35 49 70
-1.46425 -3.98598 2.30556 25 38 26
-1.67052 -3.96361 2.30104 19 20 33
-1.65493 -3.95460 2.31839 18 22 23
-1.65446 -3.95629 2.30077 18 25 24
-1.65399 -3.95797 2.28315 15 24 27
-1.70867 -3.96412 2.29786 39 37 50
-1.72514 -3.96974 2.31569 22 28 32
-1.72420 -3.97310 2.28057 30 32 46
-1.93344 -3.96450 2.27847 28 28 40
-1.91729 -3.95900 2.26099 24 29 31
-1.94790 -3.97493 2.27959 41 46 62
-1.95531 -4.00467 2.28572 83 95 99
-1.97215 -4.00894 2.28523 103 116 122
-1.99048 -4.00898 2.28365 108 116 126
-2.00489 -4.01992 2.28490 120 119 128
-2.02416 -4.01708 2.28258 143 144 139
-2.03424 -4.04055 2.28705 166 165 162
-2.04973 -4.04858 2.28753 176 170 173
-2.05868 -4.07601 2.29300 175 174 171
-2.08879 -4.04049 2.28231 158 137 150
-2.10378 -4.04982 2.28313 147 124 155
-2.10967 -4.08715 2.29112 165 161 169
-2.11750 -4.11922 2.29774 186 189 180
-2.13220 -4.13025 2.29897 193 194 186
-2.15004 -4.13138 2.29769 199 193 184
-2.17258 -4.11714 2.29249 193 175 160
-2.17469 -4.16929 2.30418 169 145 118
-2.17522 -4.22787 2.31746 131 110 79
-2.19498 -4.22314 2.31467 86 75 64
-2.35618 -4.09505 2.27156 105 109 110
-2.34113 -4.08637 2.28830 28 27 25
-2.34068 -4.08799 2.27130 51 48 50
-2.37890 -4.07489 2.26501 160 178 169
-2.38988 -4.09878 2.26949 191 208 203
-2.40489 -4.10745 2.25280 194 209 210
-2.47576 -4.09854 2.26200 189 204 205
-2.46042 -4.09155 2.26174 193 207 206
-2.49194 -4.10201 2.26139 175 183 193
-2.50869 -4.10289 2.26014 138 134 154
-2.52663 -4.09841 2.25756 109 85 123
-2.54493 -4.09201 2.25452 115 73 143
-2.55944 -4.10211 2.25557 131 78 147
-2.60486 -4.12416 2.25665 126 86 163
-2.61870 -4.13779 2.25855 133 98 172
-2.63057 -4.16129 2.26287 195 174 205
-2.65607 -4.20118 2.26974 254 254 250
-2.67102 -4.20981 2.25310 254 254 254
1.71965 -4.11688 2.60561 139 118 98
1.74160 -4.10940 2.58184 142 122 112
1.71607 -4.14172 2.61087 97 83 76
0.86961 -3.69093 2.43789 88 81 84
0.88895 -3.68434 2.41694 85 81 74
0.87016 -3.69290 2.41726 83 83 95
0.86731 -3.71466 2.44301 72 67 70
0.84899 -3.72524 2.42262 58 63 67
0.85547 -3.72975 2.44538 54 61 84
0.82112 -3.72399 2.44117 99 115 155
0.82287 -3.75185 2.44756 123 142 166
0.80339 -3.75848 2.46865 123 140 163
0.80395 -3.76047 2.44788 126 142 163
0.80450 -3.76246 2.42712 127 143 159
0.43142 -3.96842 2.46281 135 148 153
0.38674 -3.97852 2.46127 26 24 39
0.37058 -3.99033 2.46254 13 13 32
0.33653 -3.98227 2.45784 118 119 114
0.31523 -3.98827 2.45737 180 185 176
0.28128 -4.00999 2.45935 212 208 203
-0.51578 -4.11597 2.41533 209 202 190
-0.49710 -4.10961 2.39509 215 208 201
-0.51526 -4.11788 2.39541 212 205 194
-0.53341 -4.12616 2.39572 211 204 188
-0.75847 -3.99432 2.36744 200 191 182
-0.74103 -3.98637 2.36714 203 194 188
-0.75796 -3.99615 2.34830 198 185 170
-0.80085 -3.96318 2.35686 88 95 116
-0.82552 -3.95939 2.35391 28 19 22
-0.84293 -3.96696 2.35413 27 35 32
-0.85966 -3.97662 2.33551 31 38 40
-1.63535 -3.95647 2.28440 24 34 45
-1.61974 -3.94745 2.30176 27 36 37
-1.61927 -3.94914 2.28412 31 38 43
-1.65096 -3.96548 2.26703 16 23 27
-1.67273 -3.95915 2.28182 18 24 35
-1.67226 -3.96083 2.26423 18 24 34
-1.69317 -3.95626 2.27943 31 37 55
-1.70870 -3.96523 2.26216 25 30 44
-1.93871 -3.95090 2.25736 37 31 45
-1.95334 -3.96072 2.25831 53 57 60
-1.97183 -4.01021 2.26783 95 103 104
-1.99058 -4.00907 2.26598 102 110 118
-2.02486 -4.01543 2.26449 143 151 138
-2.04195 -4.01858 2.26374 161 165 154
-2.05257 -4.04059 2.26777 171 167 157
-2.07708 -4.02183 2.26148 148 130 141
-2.10309 -3.99792 2.25391 138 106 123
-2.11389 -4.01941 2.25781 156 139 139
-2.11956 -4.05701 2.26575 174 169 158
-2.12639 -4.09179 2.27297 180 179 167
-2.14483 -4.09068 2.27115 184 182 175
-2.15381 -4.11956 2.27686 195 190 184
-2.16999 -4.12571 2.27686 203 199 187
-2.18537 -4.13460 2.25974 202 202 186
-2.18640 -4.13106 2.27666 201 195 166
-2.20244 -4.13764 2.27677 182 169 126
-2.20175 -4.20047 2.29091 148 130 90
-2.20276 -4.25902 2.30395 115 90 58
-2.24039 -4.19235 2.28581 76 56 35
-2.25681 -4.19795 2.30359 35 43 48
-2.25634 -4.19962 2.28608 45 36 31
-2.33206 -4.11953 2.26169 82 93 101
-2.31691 -4.11078 2.27854 30 31 32
-2.31646 -4.11242 2.26143 40 38 48
-2.36177 -4.07426 2.24903 143 167 180
-2.37526 -4.08851 2.25107 177 207 212
-2.46302 -4.08079 2.24188 196 207 212
-2.44773 -4.07382 2.24162 197 209 212
-2.48236 -4.07107 2.23806 179 187 196
-2.49770 -4.07757 2.23821 133 125 148
-2.51249 -4.08611 2.22175 30 14 44
-2.51410 -4.07956 2.23726 68 52 88
-2.52912 -4.08734 2.23773 63 35 89
-2.54569 -4.08830 2.23653 105 72 149
-2.57420 -4.11078 2.23915 128 82 161
-2.60620 -4.11735 2.23790 118 85 159
-2.62139 -4.12432 2.23817 118 105 182
-2.63780 -4.12537 2.23701 213 203 240
-2.64558 -4.16913 2.24615 252 254 254
-2.66044 -4.17771 2.22961 254 254 254
1.74137 -4.13700 2.58791 142 121 101
1.76340 -4.12949 2.56405 143 122 108
1.74200 -4.13924 2.56442 142 123 107
1.72219 -4.14865 2.58888 112 103 87
1.70354 -4.16078 2.59000 90 75 82
1.68148 -4.16830 2.61388 83 76 79
1.68211 -4.17055 2.59037 85 76 68
1.68273 -4.17280 2.56685 87 76 74
0.86281 -3.71200 2.42086 79 76 76
0.88221 -3.70539 2.39985 85 83 96
0.82692 -3.73086 2.42202 72 82 104
0.81458 -3.74555 2.42423 115 139 165
0.79625 -3.75614 2.40384 128 144 157
0.45527 -3.96632 2.44295 140 159 186
0.47377 -3.95563 2.46354 136 156 171
0.47433 -3.95763 2.44263 137 157 178
0.47488 -3.95964 2.42171 139 156 176
0.45582 -3.96832 2.42204 140 157 181
0.44879 -3.98863 2.44733 123 134 151
0.38972 -3.95377 2.43471 49 40 56
0.38708 -3.98028 2.44034 19 20 29
0.36903 -3.99000 2.44098 8 12 34
0.32519 -3.97102 2.43314 104 120 128
0.31583 -3.99031 2.43661 156 166 176
0.29497 -3.99677 2.43629 178 170 165
0.26077 -4.01820 2.43817 209 204 199
0.23657 -4.02079 2.43672 214 208 199
0.21766 -4.02941 2.43704 217 210 201
-0.76500 -3.95047 2.33764 206 196 189
-0.74822 -3.94078 2.35631 201 194 186
-0.74772 -3.94259 2.33734 204 196 189
-0.74721 -3.94441 2.31838 208 201 192
-0.81047 -3.94915 2.33355 72 58 80
-0.82995 -3.95341 2.33287 27 16 13
-0.84886 -3.95852 2.33242 28 34 31
-1.92437 -3.94080 2.23877 29 32 31
-1.90921 -3.93205 2.25564 19 27 20
-1.90876 -3.93369 2.23850 19 28 21
-1.93953 -3.94956 2.22190 50 54 40
-1.93930 -3.94975 2.23950 45 43 43
-1.95094 -3.96760 2.24247 59 63 54
-1.96012 -3.99237 2.24716 72 77 72
-1.98920 -4.01331 2.24936 88 95 111
-2.02188 -4.02428 2.24905 84 100 121
-2.04200 -4.01876 2.24615 111 123 131
-2.06002 -4.01910 2.24473 129 138 144
-2.08288 -4.00496 2.23970 116 106 132
-2.10018 -4.00691 2.23869 139 130 128
-2.10907 -4.03430 2.24398 168 161 149
-2.12243 -4.04843 2.24599 176 169 154
-2.14875 -4.07853 2.25043 181 176 166
-2.16158 -4.09493 2.25298 188 183 175
-2.17425 -4.11208 2.25570 196 195 184
-2.20635 -4.12478 2.25583 198 197 171
-2.20589 -4.12643 2.23850 193 195 181
-2.22174 -4.13330 2.25642 187 177 140
-2.24957 -4.09943 2.24663 169 149 109
-2.22021 -4.26221 2.28498 139 115 74
-2.26780 -4.15949 2.25835 105 79 48
-2.28407 -4.16503 2.27597 32 26 34
-2.28315 -4.16835 2.24128 133 114 85
-2.28930 -4.14645 2.25368 68 46 38
-2.31146 -4.13045 2.24831 49 39 44
-2.33654 -4.10312 2.24019 59 65 81
-2.35216 -4.10985 2.24037 74 96 133
-2.38071 -4.06793 2.22874 100 132 175
-2.39495 -4.07922 2.23004 132 163 201
-2.41169 -4.08095 2.22903 157 187 212
-2.42749 -4.08634 2.24614 196 209 210
-2.43063 -4.07382 2.22587 177 206 213
-2.46548 -4.07062 2.22226 184 194 196
-2.48460 -4.06162 2.21868 136 124 137
-2.50027 -4.06655 2.21846 70 44 73
-2.52954 -4.08519 2.22013 53 30 81
-2.54430 -4.09372 2.20370 91 57 83
-2.54637 -4.08497 2.21867 90 57 126
-2.56111 -4.09348 2.20227 94 48 98
-2.56228 -4.08863 2.21816 109 66 136
-2.59840 -4.07569 2.21229 107 58 120
-2.61531 -4.07390 2.21048 102 55 125
-2.62990 -4.08299 2.21127 77 55 151
-2.64145 -4.10697 2.21559 199 199 243
-2.64732 -4.15985 2.22677 251 254 254
-2.66215 -4.16842 2.21027 254 254 254
1.73163 -4.15841 2.56773 139 118 103
1.75370 -4.15089 2.54382 145 124 107
1.71391 -4.17140 2.56910 100 82 83
0.85738 -3.70848 2.39849 84 82 86
0.87675 -3.70188 2.37752 88 97 92
0.85622 -3.73340 2.40381 66 64 67
0.85047 -3.75426 2.40787 55 49 67
0.80133 -3.73460 2.39958 111 119 126
0.78306 -3.74516 2.37924 133 143 158
0.45461 -3.99635 2.42802 132 148 158
0.47431 -3.98964 2.40669 134 155 176
0.40542 -3.97229 2.41877 57 58 67
0.38131 -3.97533 2.41746 16 20 15
0.36234 -3.98398 2.41778 6 12 33
0.32449 -3.97161 2.41200 99 127 124
0.30210 -3.97629 2.41118 128 131 132
0.28557 -3.98752 2.41227 133 133 142
0.26978 -3.99963 2.41361 165 167 167
0.25606 -4.01417 2.41564 188 183 171
0.22768 -4.01188 2.41282 203 193 174
0.19656 -4.00626 2.40905 211 202 192
0.17721 -4.01286 2.43002 220 211 205
0.17273 -4.00897 2.40769 217 208 203
0.15340 -4.01555 2.42863 220 210 203
0.15395 -4.01753 2.40801 221 212 207
-0.79406 -3.90670 2.30636 210 201 190
-0.77646 -3.90071 2.28730 214 207 195
-0.81116 -3.91450 2.30665 202 189 174
-0.81135 -3.94879 2.31408 130 100 97
-0.83088 -3.95295 2.31338 52 24 7
-0.85079 -3.95646 2.31252 33 24 20
-0.87043 -3.96033 2.31175 30 30 32
-0.88809 -3.96635 2.33087 33 38 44
-0.89197 -3.96106 2.31014 30 35 41
-0.90960 -3.96707 2.32924 32 37 47
-0.90910 -3.96887 2.31044 32 35 44
-1.12128 -3.82788 2.26246 37 34 49
-1.10536 -3.81869 2.28017 34 33 38
-1.10488 -3.82041 2.26218 33 35 47
-1.12175 -3.82616 2.28045 33 32 35
-1.13815 -3.83363 2.28073 32 34 44
-1.14294 -3.82623 2.26033 40 42 53
-1.15977 -3.83197 2.27856 32 33 43
-1.16559 -3.82269 2.25771 40 45 47
-1.18238 -3.82841 2.27589 32 32 35
-1.18005 -3.83339 2.25885 40 40 36
-1.19685 -3.83912 2.27704 32 35 36
-1.19512 -3.84306 2.25971 38 38 37
-1.21193 -3.84879 2.27792 29 37 38
-1.21146 -3.85051 2.25999 33 38 39
-1.21098 -3.85222 2.24207 39 38 41
-1.91532 -3.91705 2.21683 24 29 27
-1.90023 -3.90834 2.23362 15 26 17
-1.89978 -3.90997 2.21656 17 28 21
-1.92844 -3.93054 2.21868 40 41 34
-1.95710 -3.95141 2.22087 48 46 49
-1.97105 -3.96301 2.22224 36 39 52
-1.99022 -3.96031 2.22009 31 42 55
-2.02765 -3.95679 2.21626 35 36 70
-2.04278 -3.96495 2.21680 27 41 79
-2.07170 -3.98527 2.21884 61 77 100
-2.08715 -3.99259 2.21916 58 71 97
-2.11047 -3.97636 2.21373 100 111 106
-2.12206 -3.99513 2.21686 143 145 137
-2.13111 -4.02201 2.22195 164 161 150
-2.14332 -4.03954 2.22476 173 166 158
-2.15847 -4.04829 2.20790 178 166 160
-2.17834 -4.09903 2.23481 185 181 172
-2.19362 -4.10785 2.21780 185 183 171
-2.19135 -4.11514 2.23724 190 189 179
-2.21879 -4.14334 2.24112 190 189 171
-2.23415 -4.15221 2.22403 180 173 160
-2.24022 -4.13142 2.23677 182 174 151
-2.25551 -4.14025 2.21976 179 170 153
-2.25969 -4.12572 2.23394 175 159 128
-2.27494 -4.13453 2.21697 177 166 146
-2.28688 -4.09261 2.22453 163 141 106
-2.31081 -4.13281 2.23130 91 80 59
-2.31035 -4.13445 2.21412 105 97 78
-2.33813 -4.09726 2.22134 51 46 42
-2.35526 -4.09833 2.22017 23 26 52
-2.37134 -4.10315 2.21991 25 38 93
-2.38711 -4.10907 2.21990 49 68 129
-2.42292 -4.03726 2.20138 69 98 147
-2.44018 -4.03608 2.19971 96 132 162
-2.45535 -4.04300 2.19997 130 152 173
-2.46953 -4.05396 2.20119 128 130 141
-2.48930 -4.04196 2.19697 80 55 68
-2.50166 -4.06046 2.19997 47 27 39
-2.58146 -4.07687 2.19700 99 60 103
-2.61579 -4.07116 2.19295 91 51 103
-2.62946 -4.08457 2.19474 68 54 141
-2.64133 -4.10699 2.19864 193 200 242
-2.65467 -4.12272 2.20096 250 254 254
-2.66936 -4.13121 2.18461 254 254 254
1.74589 -4.17230 2.54777 144 124 112
1.76803 -4.16476 2.52380 146 123 100
1.74652 -4.17456 2.52416 146 125 115
1.73401 -4.19037 2.55067 112 101 102
1.71309 -4.20245 2.52740 100 81 87
0.85452 -3.70732 2.37689 91 80 89
0.85755 -3.73611 2.38329 79 61 77
0.85872 -3.76343 2.38922 110 86 99
0.81316 -3.74716 2.38209 149 151 137
0.46246 -4.00627 2.40929 137 156 162
0.48220 -3.99954 2.38791 133 155 170
0.44579 -4.01775 2.41040 80 105 91
0.38469 -3.98043 2.39753 31 29 15
0.36646 -3.98993 2.39809 13 15 37
0.33163 -3.98094 2.39338 98 125 131
0.30827 -3.98457 2.39228 61 62 89
0.28324 -3.98625 2.39063 47 44 71
0.23240 -3.98843 2.38701 136 148 159
0.22715 -4.01262 2.39176 172 171 168
0.19712 -4.00825 2.38841 191 185 173
0.17572 -4.01379 2.38788 199 192 181
0.13508 -3.99663 2.38095 210 200 195
0.11585 -4.00318 2.40178 223 217 211
-0.69473 -3.88928 2.29142 219 212 203
-0.67805 -3.87965 2.30998 216 208 200
-0.67705 -3.88325 2.27227 226 221 215
-0.69523 -3.88748 2.31027 215 207 195
-0.71241 -3.89531 2.31057 214 206 191
-0.71191 -3.89711 2.29171 217 211 199
-0.79356 -3.90851 2.28759 213 205 193
-0.81516 -3.90930 2.28603 208 194 186
-0.83902 -3.90644 2.28350 185 160 145
-0.83183 -3.95248 2.29391 128 95 52
-0.85143 -3.95646 2.29319 89 61 31
-0.87132 -3.95991 2.29233 49 34 17
-0.89361 -3.95940 2.29043 38 27 24
-0.91528 -3.95977 2.28877 33 29 29
-0.93286 -3.96576 2.30782 39 36 54
-0.93236 -3.96756 2.28907 37 32 49
-1.09765 -3.83364 2.24719 38 41 57
-1.08169 -3.82442 2.26495 29 40 41
-1.08121 -3.82614 2.24691 31 36 48
