ply
format ascii 1.0
element face 0
property list uchar int vertex_indices
element vertex 1351
property float x
property float y
property float z
property uchar diffuse_red
property uchar diffuse_green
property uchar diffuse_blue
end_header
1.89820 -2.98078 2.84503 89 79 82
1.88054 -2.99122 2.83020 88 77 78
1.66670 -3.71028 3.13476 58 51 49
1.68223 -3.70433 3.11192 70 58 64
1.65671 -3.72702 3.14130 33 23 38
1.63696 -3.73870 3.12472 28 18 31
0.77222 -3.26609 2.93397 43 44 49
0.78540 -3.26104 2.91458 46 50 58
0.77044 -3.26851 2.91725 40 49 50
0.76716 -3.31127 2.95213 97 122 145
0.75028 -3.32125 2.93796 113 130 147
0.11007 -4.33931 3.35265 152 167 191
0.08816 -4.33825 3.35170 108 114 164
0.06638 -4.33728 3.35080 52 60 119
0.04725 -4.34860 3.33473 45 61 95
0.03283 -4.35574 3.35748 48 65 98
0.03080 -4.35852 3.33835 46 63 98
0.01364 -4.35989 3.35870 52 72 103
-0.01039 -4.35363 3.35561 86 92 102
-0.02810 -4.36069 3.35804 97 100 104
-0.05733 -4.34266 3.35006 59 74 108
-0.07627 -4.35386 3.33415 48 67 103
-0.12694 -4.32586 3.34162 26 51 123
-0.11215 -4.32020 3.31987 44 63 104
-0.15679 -4.30466 3.33234 116 155 195
-0.17886 -4.30064 3.33019 206 240 251
-0.19746 -4.31164 3.31457 229 239 246
-0.30095 -4.34480 3.34519 219 234 243
-0.28634 -4.33920 3.32370 227 239 247
-0.31438 -4.36092 3.35140 207 213 211
-0.32924 -4.37360 3.35618 93 88 126
-0.35293 -4.36394 3.35171 56 60 102
-0.37126 -4.36767 3.35279 53 70 108
-0.38584 -4.37325 3.37423 56 75 112
-0.38780 -4.37593 3.35574 52 73 113
-0.38977 -4.37861 3.33725 49 73 111
-0.47293 -4.35749 3.34628 67 81 113
-0.48822 -4.36860 3.35041 30 49 114
-0.51323 -4.35276 3.34341 95 117 158
-0.53025 -4.35885 3.34548 157 182 198
-0.54594 -4.36865 3.34908 148 147 146
-0.57699 -4.33427 3.33443 65 48 44
-0.58999 -4.35146 3.34108 14 9 24
-0.60808 -4.36216 3.32590 5 7 16
2.16826 -2.63067 2.69185 61 68 85
2.06829 -2.61626 2.68389 44 45 78
2.04243 -2.61625 2.68332 52 56 79
2.01829 -2.61735 2.68324 58 71 87
2.01553 -2.63316 2.68952 53 60 73
2.02263 -2.65595 2.69882 42 40 66
2.00106 -2.69504 2.71402 24 27 50
2.00858 -2.73717 2.73109 40 40 59
2.00678 -2.73964 2.71408 44 50 74
1.93993 -2.89672 2.79359 29 33 43
1.95368 -2.89147 2.77338 24 28 38
1.93808 -2.89925 2.77616 24 28 40
1.93335 -2.91148 2.79937 32 37 54
1.92970 -2.92861 2.80616 36 37 60
1.91682 -2.93863 2.80989 21 27 66
1.92735 -2.96714 2.82156 62 69 102
1.90510 -2.99034 2.83038 91 82 92
1.88740 -3.00080 2.81552 88 78 81
1.67874 -3.72778 3.12125 60 52 58
1.69433 -3.72182 3.09832 72 59 60
1.66435 -3.74005 3.12585 42 30 42
0.76701 -3.31572 2.93611 92 118 139
0.12042 -4.32394 3.32643 155 178 200
0.13960 -4.31260 3.34253 153 177 204
0.13757 -4.31538 3.32337 153 177 205
0.13553 -4.31816 3.30421 154 176 206
0.10261 -4.33115 3.32894 137 156 180
0.08289 -4.33443 3.32982 85 95 132
0.05479 -4.32039 3.32358 48 56 93
0.03574 -4.33166 3.30758 44 60 93
0.00485 -4.34835 3.33370 49 70 102
0.01987 -4.34260 3.31161 44 60 94
0.00283 -4.35111 3.31465 46 61 95
-0.01422 -4.35962 3.31770 50 65 96
-0.01529 -4.35024 3.33402 70 87 100
-0.03433 -4.36149 3.31804 44 63 97
-0.06776 -4.32703 3.32357 51 64 106
-0.08663 -4.33819 3.30773 43 61 97
-0.13825 -4.30766 3.31427 26 52 120
-0.12352 -4.30203 3.29261 40 61 100
-0.17057 -4.28057 3.30270 103 129 188
-0.18448 -4.29498 3.30817 204 238 248
-0.30691 -4.33765 3.32262 224 236 247
-0.31951 -4.35573 3.32960 213 223 226
-0.33424 -4.36867 3.33447 111 106 147
-0.36988 -4.32849 3.31758 57 54 93
-0.38513 -4.33971 3.32175 52 68 103
-0.46205 -4.34243 3.32116 70 89 108
-0.49829 -4.34888 3.32296 39 58 101
-0.51632 -4.35219 3.32390 124 162 177
-0.53328 -4.35838 3.32601 163 187 193
-0.54748 -4.37241 3.33133 146 147 142
-0.56993 -4.36278 3.32698 70 52 45
-0.59153 -4.35521 3.32347 15 7 11
-0.60962 -4.36590 3.30828 6 7 18
2.17519 -2.62131 2.67040 89 91 101
2.12279 -2.62150 2.66943 65 63 73
2.10597 -2.63144 2.65530 38 33 44
2.07115 -2.62183 2.66853 48 59 66
2.04999 -2.62506 2.66939 41 44 65
2.03328 -2.63494 2.65535 38 37 54
2.04108 -2.63667 2.67383 33 29 44
2.02996 -2.64681 2.67763 25 27 43
2.02323 -2.66004 2.68276 38 34 59
1.99548 -2.75008 2.71800 40 44 59
1.99367 -2.75255 2.70097 31 34 53
1.97844 -2.76015 2.70369 37 31 55
1.94442 -2.92404 2.78614 25 29 42
1.95824 -2.91875 2.76582 18 21 31
1.94257 -2.92658 2.76862 20 21 30
1.92689 -2.93440 2.77142 22 22 34
1.93695 -2.93826 2.79165 25 25 44
1.91938 -2.94865 2.77689 16 16 31
1.92687 -2.95052 2.79632 14 17 46
1.92368 -2.96827 2.80331 48 51 85
1.92884 -2.99279 2.81317 86 94 115
1.91110 -3.00328 2.79827 93 88 100
1.91617 -3.00326 2.81708 91 85 97
1.70256 -3.75756 3.11269 64 55 56
1.71825 -3.75155 3.08962 74 59 53
1.67624 -3.75755 3.11216 49 37 42
1.66034 -3.76838 3.11615 34 19 37
1.64468 -3.77437 3.13919 21 22 31
1.64257 -3.77725 3.11932 26 23 30
1.64046 -3.78013 3.09946 27 26 30
0.76852 -3.29634 2.91062 29 43 62
0.78177 -3.29127 2.89114 45 48 54
0.76510 -3.31801 2.91917 85 107 131
0.75140 -3.32727 2.92258 111 129 150
0.73809 -3.33236 2.94215 114 130 154
0.73630 -3.33481 2.92527 114 130 154
0.73451 -3.33726 2.90839 113 130 155
0.11010 -4.31011 3.30050 155 176 198
0.12515 -4.30435 3.27836 154 174 200
0.09427 -4.32116 3.30458 119 133 167
0.06635 -4.30758 3.29862 58 63 115
0.04441 -4.30591 3.29751 45 52 89
-0.14892 -4.29081 3.28764 28 55 109
-0.17848 -4.26976 3.27868 86 110 166
-0.19217 -4.28453 3.28428 188 238 251
-0.21014 -4.28951 3.28590 210 239 250
-0.22472 -4.29508 3.30734 222 236 245
-0.22752 -4.29580 3.28805 206 237 250
-0.24209 -4.30138 3.30949 221 237 245
-0.24985 -4.29032 3.28543 204 237 250
-0.26438 -4.29588 3.30680 224 234 242
-0.26484 -4.30212 3.28982 207 239 251
-0.27938 -4.30769 3.31120 222 232 244
-0.29805 -4.31809 3.29550 207 240 251
-0.31287 -4.33045 3.30012 198 235 244
-0.32393 -4.35230 3.30859 167 195 191
-0.35074 -4.33471 3.30105 84 84 86
-0.38298 -4.30271 3.28769 56 57 91
-0.39362 -4.32551 3.29654 60 62 105
-0.41343 -4.32471 3.29583 60 64 113
-0.43523 -4.31850 3.29292 65 67 108
-0.45628 -4.31394 3.29069 59 72 106
-0.47053 -4.32744 3.29577 58 75 107
-0.49141 -4.32299 3.29358 44 64 108
-0.50010 -4.35185 3.30488 75 85 142
-0.52030 -4.34909 3.30338 144 176 200
-0.53656 -4.35720 3.30628 173 190 175
-0.55172 -4.36846 3.31045 155 156 147
-0.56150 -4.39532 3.32093 73 54 53
-0.59413 -4.35582 3.30458 17 6 13
-0.61221 -4.36651 3.28939 6 5 18
2.15346 -2.62808 2.65484 99 102 116
2.13113 -2.63075 2.65549 64 62 80
2.06585 -2.63957 2.65777 31 36 56
2.04907 -2.64950 2.64368 33 34 61
2.02932 -2.65002 2.66122 44 43 55
2.01718 -2.65949 2.66473 55 56 67
2.00041 -2.66940 2.65065 57 57 76
2.00719 -2.68860 2.67602 53 54 62
2.00461 -2.70500 2.68244 45 48 52
2.00189 -2.73988 2.69613 34 37 66
1.92292 -2.97171 2.78605 33 30 56
1.93050 -2.99818 2.79661 78 89 98
1.91274 -3.00867 2.78171 92 93 100
1.69619 -3.75602 3.09097 70 60 51
1.71187 -3.75002 3.06792 77 61 58
1.65878 -3.77184 3.09652 37 25 41
1.63890 -3.78359 3.07983 25 27 28
0.77511 -3.30893 2.89797 28 38 53
0.78840 -3.30385 2.87843 43 48 57
0.75993 -3.31633 2.90061 78 96 113
0.75150 -3.33204 2.90665 107 127 153
0.73460 -3.34204 2.89245 113 128 149
0.10054 -4.29777 3.27532 150 167 188
0.11555 -4.29203 3.25325 154 173 198
0.07720 -4.29347 3.27320 103 113 139
0.04866 -4.27831 3.26670 34 43 84
0.02845 -4.27989 3.26696 31 49 86
0.01156 -4.28825 3.26994 38 51 85
-0.00530 -4.29667 3.27295 42 51 87
-0.00730 -4.29940 3.25410 47 56 75
-0.13259 -4.28892 3.26757 34 50 93
-0.11792 -4.28331 3.24599 30 43 84
-0.13457 -4.29162 3.24896 32 41 85
-0.15788 -4.27777 3.26272 29 50 98
-0.16575 -4.30587 3.27365 49 75 134
-0.19800 -4.27831 3.26220 106 157 224
-0.21556 -4.28415 3.26418 117 144 211
-0.23384 -4.28824 3.26546 113 143 208
-0.25232 -4.29177 3.26651 110 135 208
-0.27080 -4.29522 3.26753 111 129 210
-0.28779 -4.30216 3.26996 104 109 204
-0.30529 -4.30783 3.27187 99 99 193
-0.31910 -4.32255 3.27742 73 84 174
-0.39383 -4.28258 3.26031 41 46 92
-0.41199 -4.29333 3.24505 80 33 64
-0.41097 -4.28837 3.26227 72 49 92
-0.43210 -4.28370 3.26005 101 45 88
-0.45020 -4.29440 3.24484 103 21 38
-0.44991 -4.28749 3.26122 98 45 84
-0.47290 -4.27737 3.25681 62 52 91
-0.48667 -4.29172 3.26221 45 54 88
-0.50302 -4.29915 3.26484 23 40 105
-0.52887 -4.28037 3.25697 95 121 173
-0.52221 -4.35179 3.28524 147 177 215
-0.53961 -4.35666 3.28684 195 220 211
-0.55446 -4.36877 3.29134 175 170 159
-0.56410 -4.39604 3.30190 75 50 52
-0.59303 -4.36727 3.29004 17 5 19
-0.61115 -4.37799 3.27483 5 5 12
2.17541 -2.62874 2.63766 85 70 90
2.18874 -2.62364 2.61805 85 72 73
2.16360 -2.63852 2.64128 99 97 106
2.14587 -2.64433 2.64326 79 83 97
2.11732 -2.64279 2.64219 52 47 59
2.03662 -2.65876 2.64709 40 38 56
2.04985 -2.65370 2.62763 24 28 46
2.02617 -2.66945 2.65109 56 56 65
2.00285 -2.70747 2.66556 50 55 71
2.01617 -2.70237 2.64597 57 57 82
2.01214 -2.73250 2.67549 29 21 56
1.99514 -2.74255 2.66121 46 54 67
2.00048 -2.74263 2.67925 34 25 60
1.98346 -2.75269 2.66497 44 59 72
1.95011 -2.93642 2.75410 29 32 38
1.94824 -2.93897 2.73654 36 41 49
1.93253 -2.94681 2.73935 28 36 58
1.94805 -2.95495 2.76130 27 31 46
1.93702 -2.96654 2.76565 20 23 36
1.92761 -2.97946 2.77054 17 17 38
1.93507 -3.00589 2.78099 65 75 81
1.91085 -3.02788 2.78917 90 80 83
1.89681 -3.03325 2.80982 86 77 77
1.89492 -3.03583 2.79202 88 76 76
1.89304 -3.03841 2.77421 89 78 74
1.66793 -3.75901 3.07070 66 54 50
1.65083 -3.76855 3.07415 35 29 44
1.63098 -3.78029 3.05748 31 26 31
0.77910 -3.31839 2.88396 27 39 64
0.79242 -3.31330 2.86437 45 50 55
0.75802 -3.31863 2.88370 71 87 104
0.75424 -3.34007 2.89201 107 127 152
0.73731 -3.35008 2.87780 114 128 146
0.06945 -4.28459 3.24958 102 105 126
0.03493 -4.25704 3.23825 30 35 70
0.01550 -4.25999 3.23909 22 40 76
-0.16258 -4.27429 3.24173 27 37 85
-0.14799 -4.26871 3.22027 43 46 80
-0.16454 -4.27697 3.22323 39 46 82
-0.19036 -4.25696 3.23451 16 23 84
-0.20924 -4.25961 3.23523 12 16 95
-0.22382 -4.27216 3.23989 12 15 84
-0.24332 -4.27324 3.23999 12 14 78
-0.26170 -4.28411 3.22456 30 42 72
-0.26198 -4.27615 3.24082 8 13 96
-0.30511 -4.26756 3.23675 6 13 107
-0.32811 -4.25934 3.23316 5 16 105
-0.34702 -4.26091 3.23346 4 19 100
-0.36436 -4.26628 3.23527 19 24 97
-0.44006 -4.27050 3.23567 118 31 47
-0.48110 -4.26314 3.23212 62 32 70
-0.49412 -4.27935 3.23824 46 51 73
-0.50654 -4.29739 3.24508 22 27 87
-0.53248 -4.27824 3.23717 90 118 171
-0.52496 -4.35213 3.26615 145 173 219
-0.54068 -4.36173 3.26964 197 219 228
-0.55683 -4.37015 3.27266 176 168 157
-0.56565 -4.39980 3.28410 79 52 48
-0.59174 -4.37933 3.27567 16 4 9
-0.60990 -4.39006 3.26043 4 7 11
2.16599 -2.64379 2.62551 91 91 101
2.15143 -2.65175 2.62838 93 99 110
2.13140 -2.65601 2.62973 54 52 71
2.10671 -2.65705 2.62977 34 33 55
2.08981 -2.66704 2.61558 33 32 35
2.08569 -2.66052 2.63080 27 35 44
2.04244 -2.66649 2.63247 34 31 44
2.02353 -2.67129 2.63405 50 49 66
2.01081 -2.68041 2.63740 57 62 84
1.99272 -2.70397 2.64625 60 60 79
1.99899 -2.72682 2.65518 51 45 63
1.96926 -2.93523 2.73540 38 39 39
1.98686 -2.92482 2.75018 18 17 19
1.98500 -2.92737 2.73260 25 29 28
1.98313 -2.92992 2.71501 24 36 27
1.96740 -2.93778 2.71782 34 35 31
1.94283 -2.97515 2.75046 19 27 42
1.94095 -2.97771 2.73279 20 22 39
1.93421 -2.98874 2.75560 9 16 37
1.93028 -3.00615 2.76228 52 59 82
1.92068 -3.01913 2.76716 86 95 111
1.91130 -3.03235 2.77214 90 85 83
1.67750 -3.74670 3.04516 82 66 59
1.69312 -3.74073 3.02219 82 71 69
1.67540 -3.74957 3.02536 82 72 64
1.64447 -3.76693 3.05250 43 34 41
0.78110 -3.32544 2.86890 31 42 56
0.79443 -3.32034 2.84930 44 52 57
0.77930 -3.32789 2.85200 40 45 52
0.76424 -3.33088 2.87076 60 72 87
0.75227 -3.34231 2.87501 103 127 145
0.73534 -3.35232 2.86079 114 129 147
0.02758 -4.24877 3.21515 30 33 66
0.01028 -4.25602 3.21770 20 33 75
-0.18500 -4.27634 3.22268 43 45 74
-0.17043 -4.27076 3.20126 57 64 80
-0.20348 -4.28727 3.20716 56 63 67
-0.20624 -4.27370 3.22135 47 48 66
-0.22447 -4.27787 3.22269 44 55 58
-0.25104 -4.26230 3.21627 46 50 56
-0.29700 -4.24695 3.20965 24 41 78
-0.32043 -4.23769 3.20572 27 42 84
-0.34348 -4.22899 3.20202 31 42 91
-0.36040 -4.23513 3.20414 31 40 86
-0.37745 -4.24090 3.20612 35 39 86
-0.38887 -4.26091 3.21370 32 31 76
-0.40819 -4.26092 3.21342 30 21 61
-0.42895 -4.25701 3.21160 76 52 57
-0.46467 -4.26379 3.21370 89 56 60
-0.49458 -4.23474 3.20201 87 81 103
-0.50623 -4.25431 3.20942 111 102 119
-0.51890 -4.27135 3.21582 58 50 118
-0.53248 -4.28608 3.22133 68 96 165
-0.52627 -4.35649 3.24867 144 178 209
-0.54040 -4.37064 3.25393 200 224 226
-0.55882 -4.37259 3.25442 170 166 157
-0.56948 -4.39698 3.26370 74 52 47
-0.59277 -4.38459 3.25856 16 6 10
-0.61093 -4.39533 3.24331 6 9 14
2.17596 -2.63641 2.60495 83 76 80
2.18931 -2.63131 2.58532 84 71 76
2.17417 -2.63887 2.58802 83 75 75
2.16702 -2.64814 2.60933 88 83 93
2.13613 -2.66290 2.61459 63 69 82
2.11600 -2.66708 2.61593 43 36 45
2.07408 -2.67415 2.61810 27 29 51
2.05719 -2.68414 2.60391 46 63 60
2.04766 -2.67380 2.61762 39 36 56
2.02418 -2.67543 2.61794 55 54 74
2.01159 -2.68466 2.62132 56 68 101
2.00432 -2.69769 2.62622 52 64 88
1.99604 -2.71006 2.63086 55 64 86
1.97915 -2.72005 2.61668 27 14 43
1.99804 -2.72988 2.63849 47 56 61
1.99682 -2.74752 2.64524 32 38 50
1.96873 -2.97919 2.73372 23 27 45
1.94175 -2.99879 2.74088 13 16 43
1.93987 -3.00136 2.72314 17 17 38
1.92479 -3.00585 2.74337 36 36 67
1.92293 -3.02504 2.75071 79 90 109
1.90512 -3.03557 2.73575 91 90 99
1.91350 -3.03824 2.75565 91 89 94
1.89740 -3.04609 2.75845 87 79 81
1.88334 -3.05146 2.77912 87 76 76
1.88145 -3.05405 2.76129 86 76 80
1.87956 -3.05664 2.74346 86 74 81
1.65458 -3.75516 3.02723 75 68 54
1.67019 -3.74919 3.00428 83 76 65
1.63931 -3.76657 3.03141 55 47 42
1.61795 -3.77153 3.03303 39 25 38
1.60235 -3.77750 3.05597 29 29 32
1.60025 -3.78037 3.03619 33 29 34
1.59815 -3.78324 3.01641 33 30 35
0.76812 -3.34029 2.85660 47 59 72
0.78147 -3.33518 2.83697 39 48 51
0.75704 -3.35287 2.86129 99 123 140
0.74008 -3.36291 2.84704 114 129 143
0.09138 -4.29978 3.21579 149 170 182
0.10636 -4.29405 3.19375 144 171 193
0.05492 -4.26869 3.20339 110 120 127
0.02234 -4.24481 3.19381 36 39 61
-0.03787 -4.24873 3.19453 43 58 74
-0.05745 -4.25079 3.19507 52 60 71
-0.07211 -4.25640 3.21663 78 77 70
-0.07349 -4.26038 3.19854 54 60 69
-0.08815 -4.26599 3.22010 67 74 77
-0.09012 -4.26869 3.20151 53 57 80
-0.09210 -4.27139 3.18291 51 44 68
-0.18687 -4.27922 3.20429 52 65 69
-0.17230 -4.27364 3.18287 44 35 64
-0.22634 -4.28073 3.20435 50 65 66
-0.25422 -4.26205 3.19683 56 59 64
-0.27525 -4.25914 3.19544 37 38 67
-0.29893 -4.24959 3.19147 34 45 80
-0.34102 -4.19491 3.16995 48 77 103
-0.36335 -4.18744 3.16680 65 84 114
-0.37877 -4.19686 3.17021 67 87 114
-0.41840 -4.19341 3.16837 65 66 112
-0.43509 -4.19940 3.17045 67 63 109
-0.45439 -4.19857 3.16988 81 95 115
-0.47215 -4.20908 3.15496 88 111 132
-0.47014 -4.20684 3.17285 90 98 111
-0.48543 -4.21636 3.17630 82 89 110
-0.50068 -4.22603 3.17981 80 94 130
-0.50417 -4.26764 3.19572 96 105 134
-0.52522 -4.26181 3.19322 49 55 104
-0.53959 -4.27424 3.19780 57 70 143
-0.52553 -4.36662 3.23341 147 175 209
-0.54152 -4.37555 3.23662 212 234 231
-0.55766 -4.38410 3.23969 166 154 163
-0.57063 -4.40188 3.24634 64 41 51
-0.59117 -4.39761 3.24444 14 7 17
-0.60937 -4.40837 3.22915 6 10 14
2.16806 -2.65251 2.59314 88 76 90
2.18144 -2.64739 2.57347 84 75 72
2.15537 -2.66177 2.59651 101 95 120
2.13841 -2.66814 2.59874 81 85 100
2.12402 -2.67625 2.60167 60 50 56
2.10721 -2.68271 2.60393 47 41 51
2.08438 -2.68498 2.60454 45 54 61
2.03288 -2.68522 2.60405 52 56 66
2.03109 -2.68766 2.58720 23 20 30
2.01632 -2.69170 2.60633 44 40 70
2.00365 -2.70092 2.60969 31 27 57
1.99743 -2.71478 2.61488 20 18 54
2.00349 -2.75613 2.63066 25 21 31
1.99999 -2.77229 2.63677 35 28 38
1.98290 -2.78240 2.62241 78 79 91
1.97465 -2.98788 2.71841 28 28 37
1.95787 -2.99511 2.72097 25 25 37
1.92961 -3.01378 2.72774 17 18 42
1.92156 -3.02803 2.73307 68 78 90
1.89971 -3.05209 2.74197 87 79 85
1.88185 -3.06266 2.72697 86 74 75
1.64760 -3.75289 3.00543 79 73 64
1.66318 -3.74693 2.98251 86 77 71
1.62483 -3.75633 3.00648 64 56 54
1.60677 -3.76472 3.00947 42 26 46
1.58702 -3.77640 2.99289 31 30 34
0.76571 -3.34198 2.83938 33 51 68
0.77906 -3.33688 2.81975 44 49 51
0.76448 -3.36676 2.84878 93 118 135
0.09390 -4.31169 3.20032 146 169 187
0.10891 -4.30595 3.17823 144 170 192
0.09188 -4.31445 3.18127 146 171 190
0.02422 -4.25546 3.17816 70 80 101
-0.00279 -4.24257 3.17296 53 69 80
-0.01809 -4.25379 3.17705 54 61 65
-0.03908 -4.25303 3.17653 59 62 58
-0.05807 -4.25638 3.17759 58 53 63
-0.07262 -4.26920 3.18230 53 46 63
-0.19070 -4.27762 3.18417 42 31 60
-0.19265 -4.28029 3.16571 156 153 135
-0.20916 -4.28854 3.16866 155 152 133
-0.21165 -4.27558 3.18316 43 32 64
-0.23007 -4.28648 3.16769 151 145 138
-0.22850 -4.28292 3.18576 42 30 67
-0.24692 -4.29381 3.17029 148 141 135
-0.28018 -4.25464 3.17443 36 24 61
-0.29842 -4.26542 3.15911 145 139 133
-0.32731 -4.23555 3.16665 36 23 81
-0.35208 -4.22246 3.16140 31 15 83
-0.36796 -4.23107 3.16449 31 14 71
-0.41162 -4.21803 3.15904 83 62 88
-0.43856 -4.19789 3.15109 90 85 112
-0.45586 -4.20222 3.15254 79 98 129
-0.48565 -4.22335 3.16023 72 89 119
-0.50472 -4.22282 3.15982 71 70 94
-0.51813 -4.23744 3.16522 67 52 63
-0.52519 -4.26970 3.17740 41 34 67
-0.53216 -4.30277 3.18989 84 90 160
-0.52594 -4.37354 3.21685 166 202 232
-0.54254 -4.38079 3.21942 213 231 223
-0.56622 -4.36765 3.21416 155 136 109
-0.57533 -4.39648 3.22501 59 36 24
-0.58847 -4.41390 3.23149 12 7 15
-0.60673 -4.42470 3.21615 6 9 11
2.16814 -2.65623 2.57667 87 75 88
2.18152 -2.65111 2.55699 85 73 76
2.13797 -2.67153 2.58214 94 102 106
2.12321 -2.67939 2.58496 66 70 65
2.10884 -2.68754 2.58789 45 49 48
2.08492 -2.68906 2.58824 32 34 61
2.07115 -2.69759 2.59132 29 24 47
2.02195 -2.69939 2.59153 34 20 47
2.00200 -2.70346 2.59288 36 25 50
1.99691 -2.71814 2.59835 41 34 59
1.99647 -2.73626 2.60517 50 45 72
2.05076 -2.81311 2.63462 68 77 83
2.03345 -2.82335 2.62008 81 85 104
2.01315 -3.00165 2.70525 45 42 45
1.98782 -3.00229 2.70524 42 42 49
1.96679 -3.00623 2.70653 31 33 48
1.95181 -3.01493 2.70966 19 21 37
1.93247 -3.02015 2.71145 10 11 31
1.91493 -3.02679 2.71378 57 59 83
1.91108 -3.04451 2.72041 89 92 108
1.89896 -3.05562 2.72448 89 82 87
1.63808 -3.74794 2.98266 85 75 74
1.65363 -3.74199 2.95978 89 77 79
1.61971 -3.75598 2.98551 72 62 59
1.59955 -3.76211 2.98763 38 29 38
1.57983 -3.77377 2.97106 32 30 36
0.76940 -3.35118 2.82504 29 43 63
0.78277 -3.34606 2.80537 46 47 59
0.77476 -3.38418 2.83751 85 109 128
0.75877 -3.39092 2.83990 108 130 152
0.74531 -3.39607 2.85970 112 128 149
0.74350 -3.39855 2.84263 110 128 152
0.74169 -3.40103 2.82556 108 128 154
0.08049 -4.33448 3.18871 149 171 183
0.09554 -4.32872 3.16657 146 169 192
0.07847 -4.33725 3.16962 147 169 191
0.06139 -4.34578 3.17267 144 166 189
0.06026 -4.33651 3.18928 150 169 172
0.03520 -4.32838 3.18598 148 164 165
0.01549 -4.33114 3.18683 161 172 165
-0.01477 -4.31146 3.17914 178 191 174
-0.03364 -4.32261 3.16329 191 206 226
-0.05121 -4.27799 3.16619 177 181 171
-0.06990 -4.28904 3.15049 193 210 224
-0.07960 -4.26109 3.15956 175 177 163
-0.14783 -4.24510 3.15289 164 165 152
-0.16235 -4.25065 3.17424 48 45 68
-0.14695 -4.29233 3.17068 161 162 143
-0.16553 -4.30332 3.15508 196 214 230
-0.37354 -4.17685 3.12505 142 126 128
-0.35950 -4.17147 3.10440 202 214 220
-0.37543 -4.17943 3.10724 202 214 226
-0.38587 -4.19378 3.13131 142 125 120
-0.40146 -4.20271 3.13452 138 130 122
-0.41776 -4.20981 3.13704 122 124 125
-0.43990 -4.20188 3.13385 87 102 137
-0.45770 -4.21240 3.11890 43 66 152
-0.45576 -4.20996 3.13674 39 74 148
-0.48861 -4.22308 3.14137 23 63 140
-0.49987 -4.24351 3.14895 54 73 118
-0.51108 -4.26434 3.15669 84 95 98
-0.52409 -4.28054 3.16266 85 92 105
-0.52674 -4.32577 3.17967 111 127 153
-0.52965 -4.37115 3.19672 137 166 200
-0.54132 -4.39243 3.20462 162 190 207
-0.56602 -4.37642 3.19837 125 119 117
-0.57481 -4.40629 3.20953 49 31 30
-0.59306 -4.41708 3.19420 6 7 11
-0.58547 -4.43113 3.21878 11 6 13
-0.60379 -4.44196 3.20340 6 8 12
2.16381 -2.65699 2.55904 85 73 84
2.17718 -2.65187 2.53937 88 72 78
2.16201 -2.65945 2.54208 86 74 81
2.15176 -2.66668 2.56257 88 84 100
2.13478 -2.67673 2.54830 93 94 110
2.13966 -2.67637 2.56609 98 100 113
2.12384 -2.68353 2.56863 47 49 55
2.14244 -2.71446 2.58031 28 12 22
2.09837 -2.70212 2.57537 29 22 49
2.03342 -2.69300 2.57147 49 45 55
2.01070 -2.71338 2.57889 79 77 81
1.99379 -2.72337 2.56469 83 82 106
2.03062 -2.99890 2.68554 57 61 66
2.04472 -2.99351 2.66481 64 69 84
2.02873 -3.00149 2.66766 57 64 76
2.01545 -3.00752 2.68864 53 55 62
1.99645 -3.01315 2.69059 45 49 63
1.96772 -3.01104 2.68958 33 35 51
1.95191 -3.01910 2.69246 22 20 33
1.93163 -3.02358 2.69398 15 10 21
1.92069 -3.03554 2.69836 47 40 51
1.91459 -3.05149 2.70426 86 94 110
1.89672 -3.06206 2.68925 94 86 103
1.90532 -3.06494 2.70920 92 85 95
1.89125 -3.07453 2.71267 87 75 79
1.87713 -3.07992 2.73342 88 71 77
1.87524 -3.08252 2.71553 89 73 75
1.87334 -3.08512 2.69763 87 75 79
1.63787 -3.75279 2.96369 88 77 80
1.65343 -3.74683 2.94080 90 79 75
1.63578 -3.75565 2.94395 88 79 71
1.62063 -3.76205 2.96701 77 63 63
1.60196 -3.76977 2.96974 43 33 41
1.58221 -3.78145 2.95316 39 30 42
0.77122 -3.35809 2.80977 30 39 66
0.78461 -3.35297 2.79008 46 46 65
0.75662 -3.36641 2.81276 79 99 121
0.76733 -3.40635 2.82774 106 130 152
0.75018 -3.41648 2.81334 111 127 150
0.03811 -4.34138 3.17085 143 165 193
0.05312 -4.33564 3.14877 143 165 193
0.00990 -4.32639 3.16504 171 189 213
-0.09473 -4.27964 3.14679 195 213 227
-0.13656 -4.23238 3.12884 194 214 228
-0.39233 -4.18496 3.10918 205 215 218
-0.37830 -4.17959 3.08854 185 202 246
-0.39262 -4.23238 3.12686 171 173 180
-0.41598 -4.22178 3.12273 115 115 134
-0.43568 -4.22021 3.12199 73 89 143
-0.46985 -4.23024 3.12547 48 76 153
-0.47174 -4.23283 3.10765 46 56 113
-0.49872 -4.25429 3.13421 63 82 132
-0.50836 -4.27955 3.14356 89 105 121
-0.51896 -4.30253 3.15205 93 107 129
-0.52786 -4.33063 3.16246 105 121 146
-0.53314 -4.36941 3.17688 125 147 176
-0.54695 -4.38453 3.18242 141 160 184
-0.56419 -4.38991 3.18429 98 99 90
-0.57203 -4.42271 3.19646 34 26 16
2.15151 -2.67020 2.54599 85 79 94
2.16490 -2.66507 2.52630 86 75 79
2.12395 -2.68730 2.55215 72 79 87
2.12048 -2.70301 2.55793 62 49 44
2.09413 -2.70289 2.55773 74 70 87
2.07713 -2.71294 2.54345 84 85 100
2.08067 -2.71170 2.56090 81 83 91
2.06366 -2.72176 2.54662 81 84 102
2.03875 -2.71872 2.56325 78 86 94
2.02178 -2.72875 2.54900 79 84 102
1.96686 -3.01444 2.67207 36 36 50
1.94920 -3.02103 2.67440 26 21 33
1.93226 -3.02818 2.67694 25 15 34
1.91703 -3.03670 2.68000 44 26 47
1.91540 -3.05627 2.68722 84 87 105
1.64544 -3.79351 2.95800 81 71 62
1.66111 -3.78751 2.93494 89 81 68
1.61393 -3.78769 2.95566 57 46 48
0.78392 -3.37843 2.79948 31 41 70
0.79737 -3.37328 2.77969 47 47 60
0.77711 -3.39655 2.80614 68 85 103
0.77734 -3.42362 2.81614 105 128 148
0.76013 -3.43380 2.80169 112 128 147
0.03677 -4.34556 3.15234 136 155 186
0.03475 -4.34833 3.13330 111 124 162
0.01772 -4.35683 3.13634 63 74 133
0.01336 -4.34064 3.15038 133 165 201
-0.00564 -4.35187 3.13443 72 106 141
-0.02482 -4.30406 3.13664 139 179 222
-0.05517 -4.28341 3.12883 139 168 213
-0.08355 -4.26647 3.12240 140 169 212
-0.10825 -4.25706 3.11878 144 174 215
-0.14384 -4.22325 3.10607 147 179 219
-0.16173 -4.22812 3.10776 150 176 226
-0.39422 -4.18754 3.09138 190 204 237
-0.40088 -4.21891 3.10293 132 139 180
-0.41761 -4.22507 3.10510 98 108 143
-0.43862 -4.22009 3.10314 84 93 134
-0.45953 -4.21511 3.10117 53 67 129
-0.49107 -4.23174 3.10713 46 55 121
-0.50197 -4.25322 3.11500 71 91 123
-0.51222 -4.27680 3.12365 81 106 115
-0.52661 -4.28926 3.12817 84 96 102
-0.53019 -4.33209 3.14397 105 119 128
-0.54371 -4.34758 3.14962 105 120 149
-0.55781 -4.36160 3.15471 104 117 137
-0.57164 -4.37656 3.16015 109 108 105
-0.57234 -4.43014 3.17995 71 51 39
-0.58295 -4.45545 3.18923 25 9 4
-0.59660 -4.47204 3.19528 11 5 7
-0.61111 -4.47759 3.21663 9 8 11
-0.61502 -4.48293 3.17981 40 28 19
-0.61298 -4.48051 3.19831 9 6 13
-0.62750 -4.48607 3.21966 10 8 12
-0.62945 -4.48874 3.20125 7 7 14
2.15274 -2.67472 2.52978 86 75 89
2.16614 -2.66959 2.51007 84 73 79
2.15094 -2.67718 2.51279 85 71 86
2.13752 -2.70035 2.53909 99 102 123
2.12118 -2.70722 2.54154 94 88 101
2.10413 -2.71730 2.52721 85 86 109
2.11010 -2.71774 2.54534 85 88 101
2.09303 -2.72784 2.53100 84 84 99
1.96457 -3.01671 2.65414 51 45 54
1.94665 -3.02309 2.65640 47 39 52
1.93936 -3.03799 2.66182 55 52 66
1.91107 -3.05689 2.66862 84 88 109
1.90274 -3.07113 2.67380 89 86 102
1.88483 -3.08172 2.65876 85 76 79
1.89081 -3.08248 2.67790 86 79 87
1.87288 -3.09308 2.66285 85 75 77
1.67381 -3.82884 2.95012 83 77 61
1.68961 -3.82279 2.92689 91 81 76
1.62679 -3.80660 2.94179 64 55 48
1.60195 -3.80788 2.94215 37 28 42
1.58631 -3.81387 2.96516 35 32 41
1.58420 -3.81674 2.94532 37 30 34
1.58209 -3.81962 2.92547 38 33 39
0.78854 -3.38885 2.78535 33 44 58
0.80203 -3.38369 2.76552 49 50 60
0.78673 -3.39132 2.76825 43 47 54
0.78088 -3.40597 2.79159 58 67 86
0.27616 -4.07958 3.03597 137 159 183
0.29472 -4.06860 3.05155 138 160 186
0.29275 -4.07129 3.03301 138 159 183
0.27813 -4.07689 3.05452 138 161 187
0.26154 -4.08517 3.05748 139 162 189
0.25181 -4.07399 3.03382 136 160 185
0.23723 -4.07956 3.05526 140 161 190
0.23527 -4.08224 3.03677 137 161 185
0.05500 -4.34647 3.13271 141 163 188
0.07408 -4.33518 3.14873 144 169 195
0.07206 -4.33795 3.12966 144 167 192
0.03592 -4.35775 3.11668 73 91 126
-0.10673 -4.17952 3.07092 87 118 157
-0.09235 -4.17401 3.04977 59 97 102
-0.10867 -4.18216 3.05268 76 102 120
-0.12905 -4.17465 3.06905 90 117 168
-0.14074 -4.19282 3.07565 96 125 174
-0.16273 -4.18839 3.07393 101 135 177
-0.18250 -4.18868 3.07396 105 139 188
-0.19772 -4.19908 3.07770 110 139 200
-0.21396 -4.20719 3.08060 112 142 203
-0.21589 -4.20983 3.06244 45 88 118
-0.36073 -4.23041 3.08847 128 162 223
-0.37930 -4.23225 3.08907 141 165 201
-0.40115 -4.22564 3.08656 82 92 120
-0.41907 -4.23624 3.07151 46 46 59
-0.42718 -4.20800 3.07999 55 55 91
-0.44314 -4.21590 3.08281 68 82 116
-0.47573 -4.22987 3.08779 94 99 103
-0.48969 -4.24306 3.09256 76 81 102
-0.50670 -4.24812 3.09434 70 80 95
-0.52452 -4.25092 3.09529 48 59 73
-0.53592 -4.27136 3.10272 63 72 83
-0.53299 -4.33221 3.12500 99 107 116
-0.55606 -4.32066 3.12067 72 76 118
-0.56030 -4.36260 3.13601 90 106 139
-0.56510 -4.40374 3.15104 140 157 164
-0.58843 -4.39126 3.14638 137 136 123
-0.59176 -4.43772 3.16336 96 85 68
-0.60228 -4.46349 3.17275 56 47 38
2.15124 -2.71353 2.52596 94 98 114
2.13411 -2.72365 2.51158 95 96 115
2.14273 -2.72589 2.53042 92 90 118
2.12558 -2.73603 2.51602 86 86 110
1.98811 -3.03950 2.64371 81 82 95
1.95544 -3.03421 2.64171 88 90 104
1.94194 -3.04417 2.64529 97 95 94
1.92668 -3.05273 2.64836 92 90 87
1.90880 -3.06331 2.63334 83 73 82
1.91340 -3.06292 2.65202 87 80 96
1.89551 -3.07350 2.63699 86 75 74
1.90197 -3.07465 2.65624 86 76 87
1.88406 -3.08524 2.64120 87 76 75
1.68685 -3.84791 2.93598 88 82 71
1.70271 -3.84184 2.91266 93 82 80
1.67355 -3.86193 2.94103 71 64 54
1.63475 -3.84847 2.93606 39 32 41
1.61470 -3.86032 2.91923 38 35 40
0.30030 -4.05334 3.00700 132 157 189
0.31881 -4.04240 3.02254 136 158 184
0.31685 -4.04508 3.00405 137 156 185
0.30227 -4.05066 3.02550 136 159 186
0.28636 -4.06619 3.01163 120 148 177
0.27419 -4.08227 3.01742 110 141 172
0.24985 -4.07667 3.01533 108 141 176
0.23695 -4.09151 3.02068 119 150 186
0.22235 -4.09709 3.04215 138 161 182
0.22312 -4.10476 3.02545 131 159 190
0.20850 -4.11035 3.04695 137 161 182
0.20653 -4.11304 3.02841 138 160 186
0.07148 -4.34369 3.11167 144 166 194
0.09058 -4.33240 3.12771 144 166 190
0.08855 -4.33516 3.10863 143 165 190
0.08653 -4.33793 3.08955 142 167 187
0.05185 -4.34691 3.11279 129 151 181
0.03278 -4.35818 3.09678 38 58 95
-0.10284 -4.23848 3.07311 60 93 115
-0.14036 -4.20055 3.05926 51 94 112
-0.15721 -4.20755 3.06176 50 95 115
-0.17581 -4.21059 3.06282 47 95 122
-0.19074 -4.22186 3.06686 47 89 124
-0.20899 -4.23265 3.05154 57 92 95
-0.25543 -4.25583 3.07901 48 92 117
-0.24104 -4.25032 3.05786 63 92 94
-0.25349 -4.25318 3.09726 122 152 203
-0.25736 -4.25847 3.06077 62 91 92
-0.26981 -4.26133 3.10017 125 162 217
-0.27369 -4.26662 3.06368 60 86 91
-0.31037 -4.26575 3.08247 44 75 149
-0.29217 -4.25499 3.09776 135 174 231
-0.29603 -4.26026 3.06138 53 81 93
-0.31230 -4.26839 3.06429 37 62 123
-0.32857 -4.27651 3.06719 41 67 119
-0.36117 -4.23667 3.07181 63 93 146
-0.38314 -4.22999 3.06933 79 99 132
-0.41219 -4.20504 3.06022 58 67 70
-0.44886 -4.20854 3.06140 56 64 94
-0.46191 -4.22394 3.06694 86 99 112
-0.47634 -4.23583 3.07122 102 103 105
-0.49506 -4.23632 3.07135 75 79 89
-0.50926 -4.24891 3.07588 62 73 81
-0.52601 -4.25459 3.07789 58 65 76
-0.54381 -4.26512 3.06294 75 85 91
-0.53439 -4.28342 3.08832 74 83 90
-0.53757 -4.32736 3.10424 94 105 110
-0.55840 -4.32201 3.10225 76 90 116
-0.56168 -4.36678 3.11847 97 123 161
-0.55906 -4.42954 3.14123 153 184 206
-0.57151 -4.44933 3.14837 182 196 194
-0.58282 -4.47277 3.15684 177 179 162
-0.59853 -4.48330 3.16062 167 167 150
-0.61698 -4.49421 3.14513 188 196 195
-0.60797 -4.63317 3.21491 116 106 84
-0.62289 -4.63888 3.23685 18 5 5
-0.62690 -4.64436 3.19902 176 178 148
2.14705 -2.69624 2.50175 84 78 90
2.16049 -2.69109 2.48199 84 74 71
2.13000 -2.70632 2.48743 91 85 97
1.97359 -2.89095 2.57152 74 70 93
1.99101 -2.88065 2.58614 76 73 94
1.98916 -2.88317 2.56874 73 70 98
1.97544 -2.88842 2.58892 72 71 91
1.95987 -2.89620 2.59170 66 68 88
1.95618 -2.90124 2.55689 90 99 106
1.97140 -2.90897 2.57799 71 70 92
1.95393 -2.91930 2.56332 96 97 105
1.98779 -3.04336 2.62624 87 84 95
1.96984 -3.05397 2.61117 84 72 72
1.95500 -3.03796 2.62428 84 76 91
1.93712 -3.04852 2.60927 86 73 66
1.94394 -3.04990 2.62856 86 76 84
1.92605 -3.06048 2.61353 84 75 73
1.92678 -3.05694 2.63107 83 74 80
1.90889 -3.06752 2.61605 85 77 75
1.71527 -3.88343 2.92760 93 83 79
1.73125 -3.87731 2.90408 95 83 82
1.71311 -3.88637 2.90732 96 84 80
1.69811 -3.89354 2.93121 79 68 65
0.79282 -3.43036 2.76428 29 40 69
0.80641 -3.42516 2.74429 46 49 48
0.79469 -3.45976 2.77483 89 111 144
0.31532 -4.04852 2.98583 133 157 179
0.33383 -4.03758 3.00137 135 155 188
0.33187 -4.04026 2.98287 132 155 182
0.29848 -4.05627 2.98860 105 131 171
0.29730 -4.09162 3.00128 66 74 135
0.27709 -4.09361 3.00198 43 47 106
0.26097 -4.10281 3.00527 37 49 111
0.22353 -4.11178 3.00847 107 140 186
0.21294 -4.13115 3.01541 131 158 186
0.19827 -4.13676 3.03698 140 160 184
0.19630 -4.13946 3.01838 138 159 184
0.19432 -4.14216 2.99978 138 160 183
0.06772 -4.34288 3.09131 143 166 184
0.08275 -4.33713 3.06920 143 166 182
0.04869 -4.34730 3.09288 109 131 156
-0.11225 -4.18126 3.03316 115 148 145
-0.09594 -4.17311 3.03025 53 98 111
-0.10688 -4.23661 3.05303 99 119 99
-0.14931 -4.18778 3.03547 54 81 68
-0.16094 -4.20622 3.04208 49 84 91
-0.17920 -4.20997 3.04342 53 89 96
-0.19304 -4.22368 3.04833 56 91 97
-0.40078 -4.19303 3.03717 46 80 86
-0.38676 -4.18766 3.01654 56 79 95
-0.40267 -4.19561 3.01938 56 79 85
-0.41859 -4.20356 3.02222 62 78 82
-0.41660 -4.20122 3.04010 52 75 72
-0.43394 -4.20552 3.04163 59 64 72
-0.45173 -4.21603 3.02669 58 62 85
-0.45088 -4.21077 3.04350 59 71 91
-0.48046 -4.23250 3.05128 96 99 105
-0.49919 -4.23286 3.05140 76 68 77
-0.51371 -4.24453 3.05558 60 58 76
-0.52730 -4.25881 3.06069 65 70 83
-0.54511 -4.26935 3.04574 78 93 96
-0.55203 -4.29470 3.07356 66 70 85
-0.56283 -4.31745 3.08171 51 69 98
-0.55980 -4.38035 3.10430 87 116 162
-0.56101 -4.43220 3.12291 145 181 222
-0.57253 -4.45472 3.13098 169 198 219
-0.58334 -4.47972 3.13995 177 191 201
-0.59413 -4.50517 3.14908 185 194 199
-0.61265 -4.51612 3.13353 188 198 203
-0.59802 -5.44644 3.48696 22 11 5
-0.61508 -5.45297 3.51205 14 16 14
-0.59888 -5.52405 3.51482 18 8 7
-0.61614 -5.53065 3.54020 15 15 22
2.10709 -2.89711 2.55527 68 73 91
2.12474 -2.88668 2.57010 76 77 108
2.12287 -2.88923 2.55246 68 73 101
2.10896 -2.89456 2.57291 75 74 97
2.09318 -2.90243 2.57573 74 73 89
2.08085 -2.89721 2.55534 72 71 74
2.06698 -2.90252 2.57574 75 73 92
2.04289 -2.88844 2.55226 77 73 93
2.02909 -2.89372 2.57255 68 71 96
2.02537 -2.89880 2.53755 97 97 114
2.00132 -2.87675 2.54814 73 74 104
1.98279 -2.88227 2.55012 80 82 106
1.96322 -2.88697 2.55181 86 91 101
1.98588 -3.04596 2.60831 83 74 79
2.00002 -3.04055 2.58751 87 76 82
1.98398 -3.04856 2.59037 86 76 69
1.96794 -3.05657 2.59324 87 75 70
1.72445 -3.92714 2.92180 86 72 69
1.74056 -3.92098 2.89811 98 85 82
1.67440 -3.90183 2.91286 53 46 53
1.65412 -3.91382 2.89583 42 37 40
0.79419 -3.43685 2.74846 28 36 65
0.80779 -3.43164 2.72845 46 50 52
0.79582 -3.46601 2.75882 83 103 128
0.32993 -4.04298 2.96439 133 159 176
0.34844 -4.03203 2.97993 132 154 180
0.34648 -4.03471 2.96143 131 154 177
0.34452 -4.03740 2.94293 132 154 174
0.31232 -4.04940 2.96669 121 138 157
0.31386 -4.08932 2.98088 42 55 80
0.29523 -4.10034 2.96522 17 18 32
0.28647 -4.07869 2.97713 11 18 62
0.26996 -4.08711 2.98014 17 17 58
0.25440 -4.09726 2.98376 17 20 64
0.21205 -4.09709 2.98374 73 106 145
0.21250 -4.13668 2.99781 123 152 179
0.19387 -4.14769 2.98217 136 161 184
0.06412 -4.34240 3.07109 141 157 166
0.03989 -4.33598 3.06883 97 104 122
0.03032 -4.36004 3.07739 30 41 73
0.01530 -4.36579 3.09949 35 59 67
0.00153 -4.34366 3.07160 23 51 74
-0.03418 -4.31200 3.06039 31 73 107
-0.11833 -4.17496 3.01175 104 145 174
-0.13411 -4.18416 3.01504 174 186 155
-0.15355 -4.18533 3.01548 83 77 52
-0.16573 -4.20250 3.02159 43 69 81
-0.18132 -4.21221 3.02506 46 79 89
-0.19651 -4.22285 3.02886 45 74 92
-0.21406 -4.22811 3.03075 47 80 91
-0.22842 -4.23361 3.05187 59 93 93
-0.22681 -4.24445 3.03657 54 84 96
-0.24097 -4.25766 3.04128 61 83 98
-0.25731 -4.26582 3.04419 64 84 102
-0.46883 -4.22082 3.02841 55 71 99
-0.47071 -4.22340 3.01065 49 68 99
-0.48465 -4.22894 3.03131 60 68 101
-0.50131 -4.23481 3.03342 65 46 69
-0.51745 -4.24204 3.03600 64 43 73
-0.52729 -4.26661 3.04475 71 76 87
-0.55180 -4.30327 3.05780 59 67 79
-0.56291 -4.32525 3.06563 36 60 85
-0.55806 -4.39355 3.08990 80 121 149
-0.56153 -4.43899 3.10606 124 160 205
-0.57451 -4.45730 3.11258 112 139 205
-0.58896 -4.47145 3.11762 121 142 197
-0.59740 -4.50390 3.12917 165 181 203
-0.61591 -4.51484 3.11363 190 198 205
-0.57206 -5.39339 3.44533 128 121 100
-0.55055 -5.38067 3.46339 40 29 25
-0.55283 -5.38379 3.44190 143 141 130
-0.55511 -5.38691 3.42041 190 195 197
-0.57434 -5.39651 3.42384 185 187 185
-0.61809 -5.30703 3.41468 113 107 85
-0.63149 -5.33645 3.42515 94 81 67
-0.61467 -5.47764 3.47532 64 50 37
2.09627 -2.87360 2.52848 67 73 104
2.07872 -2.88398 2.51375 98 94 111
2.09374 -2.89118 2.53468 74 79 110
2.07249 -2.89493 2.53605 83 90 106
2.03383 -2.88558 2.53287 88 97 120
1.98615 -2.88874 2.53412 94 94 95
1.96874 -2.89904 2.51949 87 78 81
1.95995 -2.88839 2.53407 91 85 93
1.94258 -2.89867 2.51948 86 79 77
1.95301 -2.90275 2.53914 86 83 89
1.93560 -2.91304 2.52452 87 79 73
1.70346 -3.90982 2.89429 91 78 72
1.71949 -3.90368 2.87071 99 86 89
1.68328 -3.91675 2.89678 62 55 54
0.78465 -3.48414 2.74699 102 128 150
0.76725 -3.49443 2.73238 110 126 147
0.33222 -4.05299 2.94846 138 158 172
0.34684 -4.04740 2.92697 131 153 172
0.32665 -4.08039 2.95812 82 96 121
0.30334 -4.07704 2.95700 25 22 32
0.26998 -4.09335 2.96284 23 28 32
0.25378 -4.10238 2.96606 30 33 56
0.23851 -4.11308 2.96987 22 42 78
0.20793 -4.09581 2.96387 73 100 136
0.21390 -4.14561 2.98138 121 150 178
0.19524 -4.15664 2.96572 135 159 185
0.08010 -4.33860 3.04968 143 164 179
0.09917 -4.32732 3.06569 140 164 188
0.09715 -4.33008 3.04663 140 163 185
0.09512 -4.33285 3.02757 142 162 182
0.06149 -4.34391 3.05160 135 148 153
0.03872 -4.34049 3.05046 86 84 94
0.01971 -4.35173 3.03449 19 7 21
0.02807 -4.36232 3.05817 25 23 56
-0.00174 -4.34375 3.05172 18 35 60
-0.02693 -4.33453 3.04854 19 39 56
-0.07766 -4.26975 3.02588 31 65 106
-0.13607 -4.18674 2.99682 143 188 201
-0.15400 -4.19123 2.99845 167 170 144
-0.17312 -4.19297 2.99912 68 53 46
-0.18540 -4.21000 3.00515 37 52 76
-0.20052 -4.22077 3.00898 34 47 82
-0.21484 -4.23341 3.01347 39 50 80
-0.22447 -4.25702 3.02180 48 63 88
-0.23853 -4.27057 3.02661 44 59 93
-0.25347 -4.28214 3.03073 63 80 122
-0.26792 -4.28767 3.05197 61 77 101
-0.26986 -4.29033 3.03365 69 73 122
-0.48645 -4.23174 3.01363 57 67 100
-0.47244 -4.22638 2.99303 65 73 98
-0.50381 -4.23573 3.01508 70 39 60
-0.51950 -4.24418 3.01810 77 43 68
-0.52746 -4.27393 3.02859 82 80 86
-0.54063 -4.28967 3.03417 80 91 88
-0.54818 -4.32143 3.04537 54 58 72
-0.55849 -4.34590 3.05401 26 42 80
-0.55238 -4.41813 3.07942 70 110 141
-0.55878 -4.45539 3.09255 108 143 181
-0.58145 -4.44520 3.08902 94 116 186
-0.58944 -4.47851 3.10077 116 136 193
-0.59538 -4.51864 3.11491 166 182 202
-0.61394 -4.52961 3.09933 190 196 205
-0.61265 -5.41620 3.43087 166 168 154
-0.63416 -5.42892 3.41281 184 193 193
-0.64846 -5.36463 3.41282 152 153 133
-0.66974 -5.37721 3.39496 181 190 190
-0.65680 -5.41411 3.43026 135 141 115
-0.67823 -5.42678 3.41227 179 184 181
2.10569 -2.80781 2.48708 75 69 84
2.12303 -2.79756 2.50165 65 72 84
2.10753 -2.80530 2.50441 67 70 75
2.10385 -2.81033 2.46975 87 93 111
2.09202 -2.81304 2.50718 72 70 92
2.08835 -2.81807 2.47252 92 93 93
2.11101 -2.84973 2.50167 82 78 102
2.10916 -2.85226 2.48419 90 89 92
2.10853 -2.86717 2.50775 89 89 111
2.07819 -2.90311 2.52042 92 90 101
2.01580 -2.89551 2.51805 88 79 81
1.99831 -2.90585 2.50337 84 78 77
1.99079 -2.89619 2.51840 86 79 82
1.97335 -2.90650 2.50375 85 78 75
1.69315 -3.90398 2.87093 95 83 81
1.70915 -3.89786 2.84741 99 87 89
1.65845 -3.92384 2.87801 43 36 38
1.64244 -3.92997 2.90155 44 41 43
1.64029 -3.93291 2.88125 41 42 47
1.63814 -3.93585 2.86096 42 40 50
0.80042 -3.45424 2.71822 31 45 61
0.81408 -3.44901 2.69815 48 50 54
0.78944 -3.49507 2.73250 103 126 158
0.77200 -3.50538 2.71786 110 126 145
0.32898 -4.05348 2.92917 135 153 167
0.34359 -4.04789 2.90769 133 155 170
0.32695 -4.08705 2.94088 46 65 96
0.30831 -4.09808 2.92522 18 20 40
0.30381 -4.08401 2.93992 14 20 26
0.28522 -4.09500 2.92431 20 26 44
0.28755 -4.09295 2.94311 18 23 35
0.26782 -4.09570 2.94416 25 30 46
0.25037 -4.10247 2.94659 34 36 66
0.20954 -4.10504 2.94767 78 102 138
0.21267 -4.14970 2.96322 123 149 178
0.07836 -4.34195 3.03082 146 165 182
0.05991 -4.34759 3.03287 134 149 156
0.03987 -4.34985 3.03375 81 80 81
-0.02674 -4.29763 3.01585 5 7 29
-0.02873 -4.30035 2.99711 4 7 11
-0.04550 -4.30872 3.00010 7 7 15
-0.05147 -4.28891 3.01292 6 8 27
-0.07886 -4.27411 3.00789 11 16 52
-0.12741 -4.21254 2.98665 58 76 149
-0.14752 -4.21244 2.98670 162 178 221
-0.18813 -4.16641 2.97085 139 127 133
-0.19242 -4.20119 2.98299 44 33 47
-0.20836 -4.20994 2.98611 23 36 78
-0.22648 -4.21373 2.98751 35 30 78
-0.23486 -4.24005 2.99672 46 55 86
-0.24786 -4.25589 3.00230 57 58 101
-0.27045 -4.24916 3.00005 79 96 143
-0.28863 -4.25991 2.98478 90 103 152
-0.29614 -4.23466 2.99512 85 96 151
-0.31040 -4.24012 3.01609 61 58 128
-0.31424 -4.24536 2.97992 98 94 152
-0.48743 -4.23674 2.99670 59 67 102
-0.47341 -4.23138 2.97609 75 71 92
-0.48931 -4.23932 2.97893 69 66 95
-0.50507 -4.23998 2.99791 62 42 75
-0.51682 -4.25921 3.00466 76 52 81
-0.52465 -4.28952 3.01526 87 88 101
-0.54023 -4.29867 3.01852 78 84 92
-0.53679 -4.36160 3.04044 49 38 60
-0.56970 -4.37631 3.04571 43 65 113
-0.56523 -4.44487 3.06958 83 114 169
-0.58033 -4.45692 3.07385 88 115 186
-0.58738 -4.49322 3.08653 121 145 190
2.11152 -2.79698 2.46510 81 80 111
2.12883 -2.78675 2.47964 61 67 82
2.12699 -2.78926 2.46234 71 68 97
2.12516 -2.79177 2.44504 96 90 102
2.09981 -2.86468 2.48853 92 82 97
2.11361 -2.85940 2.46823 86 75 81
2.09795 -2.86721 2.47103 86 73 79
2.08229 -2.87503 2.47382 86 74 85
2.07077 -2.90152 2.50142 85 76 87
2.05318 -2.91192 2.48665 87 75 78
2.04361 -2.90078 2.50134 86 77 78
2.02606 -2.91115 2.48661 87 77 74
1.67476 -3.91805 2.85459 82 67 62
1.65334 -3.92355 2.85662 49 37 45
1.63304 -3.93555 2.83958 48 39 42
0.80550 -3.46540 2.70385 35 48 43
0.81918 -3.46017 2.68373 49 52 56
0.80366 -3.46792 2.68650 41 48 46
0.79533 -3.50744 2.71842 100 123 151
0.77785 -3.51778 2.70374 110 127 145
0.33515 -4.07021 2.91544 120 138 147
0.32110 -4.08299 2.91994 38 38 48
0.30248 -4.09400 2.90431 15 22 38
0.26240 -4.09221 2.92349 26 30 56
0.24263 -4.09473 2.92448 43 46 71
0.22529 -4.10159 2.92695 33 51 91
0.20776 -4.10805 2.92929 76 104 148
0.20796 -4.14735 2.94285 112 146 180
0.16811 -4.15167 2.94459 124 153 185
0.15346 -4.15728 2.96613 138 159 182
0.15552 -4.16763 2.95017 125 154 187
0.14085 -4.17325 2.97175 139 160 183
0.13887 -4.17594 2.95314 127 155 187
0.08732 -4.28119 2.98977 132 161 183
0.08489 -4.31894 3.00281 133 162 184
0.07672 -4.34549 3.01202 136 165 182
0.05814 -4.35086 3.01399 129 150 154
0.03785 -4.35261 3.01472 78 78 73
0.00309 -4.32370 3.00497 18 6 5
-0.09035 -4.25615 2.98225 9 9 33
-0.12447 -4.22589 2.97202 14 16 85
-0.17453 -4.15959 2.94946 78 79 144
-0.17687 -4.19846 2.96288 163 147 197
-0.19719 -4.19738 2.96264 69 52 94
-0.21342 -4.20543 2.96552 17 29 82
-0.23251 -4.20690 2.96614 30 33 63
-0.24652 -4.22004 2.97076 45 49 84
-0.26608 -4.22024 2.97095 59 55 105
-0.29476 -4.19862 2.96367 84 98 144
-0.31274 -4.20925 2.94858 86 95 131
-0.50623 -4.24453 2.98083 69 52 84
-0.49222 -4.23917 2.96023 70 72 94
-0.51677 -4.26710 2.98868 79 61 89
-0.53460 -4.27764 2.97371 96 97 103
-0.52765 -4.28905 2.99632 96 93 98
-0.54334 -4.29787 2.99947 81 83 87
-0.53644 -4.37065 3.02453 48 38 45
-0.55233 -4.37971 3.02775 21 13 36
-0.56793 -4.38962 3.03127 37 49 97
-0.56317 -4.45929 3.05528 75 100 165
-0.58006 -4.46617 3.05776 89 117 188
-0.58385 -4.51237 3.07372 127 151 194
-0.59380 -4.54078 3.08358 179 193 201
-0.61242 -4.55179 3.06795 196 199 205
-0.94551 -4.94229 3.22429 146 166 144
-0.96488 -4.95374 3.20803 138 165 161
-0.98437 -5.02635 3.25354 81 87 87
-0.99980 -5.03226 3.27623 28 30 31
-1.03334 -4.97973 3.23776 57 52 49
-1.04858 -4.98557 3.26018 38 40 37
-1.05450 -4.97031 3.23464 40 34 38
-1.06969 -4.97612 3.25698 32 45 46
-1.07173 -4.97892 3.23772 26 28 36
2.10997 -2.79970 2.44787 90 82 92
2.10814 -2.80221 2.43058 84 72 70
2.09266 -2.80993 2.43334 85 75 68
2.10005 -2.81142 2.45196 86 76 88
2.08271 -2.82167 2.43740 85 74 60
1.68904 -3.93889 2.84027 88 74 72
1.70511 -3.93274 2.81663 103 90 81
1.66349 -3.93998 2.84085 57 43 48
1.64313 -3.95202 2.82375 52 39 37
0.79048 -3.47864 2.69027 42 56 71
0.80418 -3.47340 2.67013 40 50 52
0.80074 -3.51922 2.70405 95 119 147
0.35264 -4.06949 2.89554 133 155 164
0.37126 -4.05848 2.91117 128 150 170
0.36928 -4.06118 2.89257 129 150 173
0.36731 -4.06388 2.87397 130 149 172
0.34329 -4.09041 2.90276 73 82 110
0.31958 -4.08649 2.90161 21 20 32
0.30096 -4.09750 2.88598 17 27 42
0.28378 -4.09865 2.90605 20 27 40
0.25536 -4.08583 2.90189 31 36 56
0.22982 -4.07783 2.89937 50 62 68
0.21493 -4.08895 2.90329 34 43 86
0.19802 -4.09643 2.90597 45 62 105
0.18887 -4.11828 2.91351 59 78 125
0.17064 -4.16287 2.92888 67 88 139
0.15485 -4.17283 2.93241 72 92 144
0.13595 -4.17683 2.93392 79 97 147
0.12129 -4.18244 2.95549 129 156 187
0.10981 -4.16668 2.93067 87 105 152
0.10086 -4.18989 2.93866 90 106 154
0.08575 -4.20118 2.94264 94 108 156
0.07151 -4.21426 2.94722 101 119 157
0.05873 -4.23038 2.95283 98 120 154
0.06187 -4.27901 2.96941 88 111 152
0.04802 -4.29353 2.97448 87 112 152
0.03259 -4.30490 2.97849 84 98 135
0.01729 -4.31658 2.98260 57 52 78
-0.00277 -4.31829 2.98334 20 13 9
-0.03910 -4.28520 2.97233 14 16 20
-0.06364 -4.27667 2.96962 14 15 25
-0.09460 -4.25385 2.96207 16 14 35
-0.12395 -4.23396 2.95551 10 14 44
-0.16053 -4.19748 2.94335 17 30 58
-0.18652 -4.18382 2.93889 95 101 146
-0.21557 -4.16280 2.93194 94 74 145
-0.22573 -4.18433 2.93938 34 16 68
-0.24310 -4.18952 2.94129 26 24 59
-0.25989 -4.19598 2.94363 40 40 69
-0.27615 -4.20366 2.94638 57 46 92
-0.31555 -4.15629 2.93052 79 95 135
-0.50485 -4.25593 2.96606 75 63 90
-0.49082 -4.25056 2.94541 73 73 91
-0.51301 -4.28514 2.97610 84 75 97
-0.53090 -4.29573 2.96107 100 103 105
-0.54074 -4.31307 2.98585 80 80 82
-0.53627 -4.37922 3.00841 44 36 33
-0.55426 -4.38234 3.00962 20 13 23
-0.56615 -4.40301 3.01677 38 46 91
-0.56601 -4.45933 3.03600 68 93 162
-0.57566 -4.48771 3.04577 90 118 191
-0.58413 -4.52015 3.05692 139 161 203
-0.59607 -4.54258 3.06467 187 199 208
-0.61469 -4.55358 3.04904 197 201 211
-0.93609 -4.91203 3.19356 145 179 164
-0.97648 -4.98743 3.21963 136 158 158
-0.99514 -4.99047 3.22082 124 147 152
-1.00234 -5.04524 3.23958 117 129 126
-1.05278 -4.99073 3.22136 81 87 77
1.68976 -3.94499 2.82092 93 81 77
1.70585 -3.93884 2.79727 105 89 79
1.67075 -3.95327 2.82390 66 52 51
0.79082 -3.48392 2.67381 32 45 63
0.80453 -3.47867 2.65366 45 50 42
0.79808 -3.52074 2.68619 89 113 132
0.78439 -3.53110 2.68983 109 127 147
0.77057 -3.53639 2.71015 113 127 152
0.76871 -3.53893 2.69262 110 125 150
0.76685 -3.54147 2.67510 110 126 152
0.35322 -4.07657 2.87840 129 146 151
0.33884 -4.08884 2.88268 39 46 73
0.32019 -4.09987 2.86702 14 18 35
0.31587 -4.08615 2.88200 11 19 46
0.27860 -4.09563 2.88556 24 30 47
0.24565 -4.07459 2.87877 36 40 66
0.22162 -4.06919 2.87718 44 65 70
0.20253 -4.07256 2.87851 25 27 52
0.18416 -4.08342 2.86308 12 11 24
0.17944 -4.06849 2.87735 8 8 36
0.16566 -4.08148 2.88188 5 6 41
0.16067 -4.11106 2.89193 8 10 53
0.14279 -4.11662 2.89398 13 23 67
0.13122 -4.13420 2.90003 18 32 83
0.11277 -4.14511 2.88453 46 64 77
0.11969 -4.15200 2.90616 29 45 97
0.10835 -4.17034 2.91247 41 63 104
0.09773 -4.19031 2.91933 47 66 105
0.06130 -4.20051 2.92313 72 89 131
0.05664 -4.23286 2.93411 62 69 114
0.05578 -4.27340 2.94782 25 22 67
0.04120 -4.28635 2.95234 10 16 59
0.02450 -4.29499 2.95542 7 15 48
0.00569 -4.30612 2.93962 22 37 46
0.00607 -4.30002 2.95730 11 25 49
-0.01273 -4.31114 2.94151 19 36 45
-0.02490 -4.27846 2.95031 19 36 34
-0.04358 -4.28950 2.93463 29 35 49
-0.05409 -4.26013 2.94440 27 38 36
-0.08912 -4.22869 2.93411 24 30 46
-0.11720 -4.21160 2.92861 28 35 58
-0.14448 -4.19578 2.92353 24 37 71
-0.17183 -4.17932 2.91823 24 50 91
-0.20465 -4.15010 2.90867 29 60 116
-0.24802 -4.14034 2.90580 31 19 57
-0.26336 -4.14973 2.90912 25 34 54
-0.29597 -4.11884 2.89900 40 71 105
-0.31377 -4.12208 2.90027 60 83 128
-0.33027 -4.12829 2.90252 76 94 141
-0.34795 -4.13874 2.88769 74 79 107
-0.35141 -4.12333 2.90105 76 90 118
-0.36529 -4.12864 2.92147 104 80 105
-0.36716 -4.13119 2.90386 91 88 95
-0.50438 -4.26491 2.95040 79 75 94
-0.51108 -4.29823 2.96172 87 88 101
-0.53665 -4.38625 2.99173 42 32 57
-0.55434 -4.39025 2.99325 24 24 61
-0.56640 -4.46657 3.01916 68 101 168
-0.57864 -4.48733 3.02630 94 123 190
-0.58100 -4.53818 3.04351 154 173 208
-0.59935 -4.54130 3.04474 193 203 212
-0.61795 -4.55229 3.02913 197 201 211
-0.92244 -4.82141 3.14257 111 139 156
-0.90345 -4.81018 3.15851 159 183 173
-0.90747 -4.81568 3.12056 70 81 139
-0.92445 -4.82416 3.12359 63 78 117
-0.94143 -4.83264 3.12662 59 82 109
-0.92958 -4.87047 3.15922 102 141 147
-0.94872 -4.88179 3.14314 52 78 99
-0.96227 -4.89407 3.16752 87 125 148
-0.98144 -4.90541 3.15142 55 78 108
-0.97532 -5.00441 3.20494 88 119 151
-1.00655 -5.03841 3.21673 89 113 134
-1.02613 -5.04998 3.20030 55 71 99
-1.03114 -5.01441 3.20886 89 109 121
-1.27470 -4.62026 3.07800 34 38 37
-1.25696 -4.60977 3.09290 18 17 22
-1.25885 -4.61234 3.07517 31 44 51
-1.26073 -4.61491 3.05744 27 38 73
-1.28868 -4.62561 3.09856 13 6 7
-1.29056 -4.62818 3.08083 37 30 34
-1.34222 -4.83707 3.15194 14 10 17
-1.32387 -4.82622 3.16735 6 3 6
-1.32581 -4.82888 3.14901 19 11 22
-1.34027 -4.83441 3.17028 4 3 5
-1.35667 -4.84260 3.17320 4 2 5
-1.36243 -4.82140 3.14684 9 6 10
-1.37682 -4.82691 3.16801 3 4 9
-1.38079 -4.81656 3.14539 8 5 5
-1.39514 -4.82205 3.16650 4 3 6
-1.40086 -4.79992 3.13996 9 3 3
-1.41514 -4.80539 3.16096 4 3 7
-1.41706 -4.80802 3.14285 7 3 5
1.69960 -3.96106 2.80477 98 85 78
1.71574 -3.95488 2.78104 107 89 81
1.70449 -3.99569 2.81630 76 62 57
1.68083 -3.99908 2.81770 55 41 39
1.66462 -4.00528 2.84154 47 43 46
1.66244 -4.00826 2.82099 47 45 47
1.66025 -4.01124 2.80043 45 45 50
0.79426 -3.49312 2.65861 29 42 57
0.80799 -3.48787 2.63842 48 50 51
0.78632 -3.51065 2.66457 82 98 121
0.78259 -3.53371 2.67232 106 127 150
0.76505 -3.54408 2.65760 110 126 150
0.36857 -4.07208 2.85717 126 150 179
0.38720 -4.06106 2.87282 126 148 172
0.38523 -4.06376 2.85420 125 146 172
0.38325 -4.06647 2.83557 123 146 171
0.37183 -4.11470 2.87139 113 125 141
0.33440 -4.08726 2.86264 34 23 37
0.29871 -4.09970 2.86721 17 26 46
