ply
format ascii 1.0
element face 0
property list uchar int vertex_indices
element vertex 1330
property float x
property float y
property float z
property uchar diffuse_red
property uchar diffuse_green
property uchar diffuse_blue
end_header
0.97955 -3.89214 0.68732 49 49 84
0.95150 -3.91082 0.71060 40 43 91
0.96619 -3.90451 0.68927 42 47 80
0.96566 -3.95634 0.70634 110 121 156
0.97837 -4.00063 0.70238 170 181 198
0.95975 -4.01183 0.68612 182 187 197
0.94673 -4.05024 0.70629 171 175 176
0.96177 -4.04377 0.68446 182 184 198
0.98689 -4.13014 0.69602 103 98 97
0.98441 -4.15758 0.69545 43 37 48
0.96528 -4.16909 0.67875 51 50 55
0.97901 -4.18161 0.69554 39 45 56
0.96544 -4.29031 0.69398 58 55 70
0.95947 -4.31476 0.69415 69 66 80
0.95266 -4.33833 0.69452 90 89 89
0.96227 -4.38393 0.69108 114 121 119
0.94647 -4.39606 0.69350 143 148 156
0.93449 -4.41337 0.69504 149 145 159
0.91465 -4.42531 0.67771 156 161 159
2.28340 -3.16937 0.47711 162 138 136
2.29799 -3.16310 0.45594 132 124 123
2.24638 -3.16342 0.48415 144 114 117
2.24493 -3.18250 0.48365 133 107 120
2.17656 -3.15399 0.49735 155 148 152
2.13757 -3.14611 0.50483 181 185 176
2.11973 -3.15685 0.48924 100 97 109
1.25416 -3.13534 0.66745 197 199 211
1.26730 -3.12969 0.64838 196 200 218
1.25255 -3.13743 0.65077 197 201 218
1.26681 -3.16752 0.66383 171 170 172
1.25376 -3.17694 0.66584 68 66 110
1.20320 -3.28181 0.67089 57 60 102
1.21665 -3.27604 0.65138 56 61 102
1.18647 -3.29188 0.65628 90 91 117
1.18868 -3.29027 0.67322 88 90 126
1.18034 -3.30461 0.67417 77 89 121
1.18086 -3.32752 0.67315 60 61 85
1.16187 -3.33182 0.67646 70 61 103
1.16506 -3.35758 0.67484 92 97 116
1.14815 -3.36776 0.66007 98 106 134
1.16316 -3.37862 0.67434 101 112 138
1.15963 -3.39822 0.67419 111 115 149
1.16298 -3.42478 0.67250 115 132 153
1.15290 -3.43820 0.67381 121 136 156
1.15237 -3.46127 0.67298 122 124 153
1.14709 -3.47975 0.67320 111 114 139
1.13742 -3.49391 0.67441 73 76 113
1.12013 -3.50431 0.65931 55 65 107
1.11633 -3.52065 0.67720 70 84 109
1.11462 -3.52288 0.65952 57 66 106
1.10456 -3.53286 0.67887 78 85 121
1.10785 -3.56084 0.67713 61 67 108
1.09040 -3.57134 0.66190 83 86 117
1.06049 -3.68728 0.68072 43 53 86
1.07477 -3.68115 0.66000 50 55 84
1.05875 -3.68956 0.66261 51 55 80
1.04273 -3.69798 0.66521 49 57 76
1.04997 -3.70174 0.68207 44 56 83
1.03217 -3.71245 0.66653 55 61 83
1.05224 -3.73047 0.68050 48 62 85
1.03435 -3.74123 0.66487 57 63 85
1.05043 -3.75491 0.67984 50 63 86
1.03247 -3.76572 0.66416 53 62 88
1.05035 -3.80846 0.67770 75 80 111
1.04551 -3.83015 0.67771 97 104 134
1.03219 -3.84229 0.67966 95 97 141
1.02222 -3.85836 0.68085 76 86 123
1.00810 -3.86970 0.68298 63 69 102
0.99853 -3.88641 0.68406 55 55 87
0.98024 -3.89742 0.66809 48 48 85
0.96024 -3.92577 0.68950 23 34 84
0.97498 -3.91943 0.66810 47 46 81
0.99045 -3.99073 0.68134 81 99 146
0.97973 -4.00687 0.68265 158 172 194
0.95654 -4.06706 0.68448 179 184 190
0.97163 -4.06057 0.66257 179 183 197
0.96183 -4.10367 0.68203 120 126 130
0.98508 -4.16324 0.67536 56 56 65
0.96594 -4.17476 0.65864 58 49 49
0.97557 -4.21321 0.67509 55 59 64
0.96008 -4.21986 0.69757 50 57 60
0.95818 -4.22234 0.67791 58 63 65
0.95629 -4.22481 0.65825 60 64 70
0.96563 -4.26356 0.67488 62 64 68
0.96152 -4.29020 0.67456 70 67 79
0.95868 -4.31876 0.67393 79 80 89
0.95708 -4.34923 0.67299 97 101 111
0.94095 -4.36070 0.67549 124 127 147
0.92127 -4.37254 0.65830 156 161 160
0.92562 -4.37326 0.67780 149 147 158
0.90592 -4.38511 0.66059 162 171 158
2.27408 -3.16641 0.46022 134 125 114
2.28865 -3.16016 0.43908 147 144 142
2.28960 -3.19747 0.45600 109 91 83
2.27964 -3.21073 0.45726 82 61 66
1.87916 -3.06015 0.53803 187 166 164
1.86539 -3.06607 0.55803 193 167 157
1.86370 -3.06827 0.54054 192 166 160
1.86202 -3.07047 0.52306 190 166 161
1.24352 -3.15028 0.65189 192 193 200
1.25668 -3.14463 0.63278 197 200 217
1.27491 -3.19952 0.64392 109 112 144
1.18362 -3.31145 0.65596 76 84 109
1.16683 -3.32155 0.64130 69 77 97
1.18103 -3.33142 0.65557 58 65 87
1.16651 -3.34005 0.65788 69 70 110
1.17312 -3.36920 0.65538 95 97 122
1.16702 -3.40932 0.65476 98 97 129
1.16167 -3.42733 0.65497 103 120 138
1.15778 -3.44694 0.65484 106 123 149
1.15921 -3.47204 0.65348 96 108 135
1.16440 -3.50116 0.65124 69 79 108
1.14705 -3.51160 0.63609 56 60 99
1.14673 -3.50731 0.65425 59 65 107
1.12939 -3.51775 0.63911 56 62 98
1.11475 -3.54743 0.65843 60 64 105
1.12874 -3.54141 0.63812 58 62 104
1.11304 -3.54966 0.64067 62 61 103
1.09733 -3.55790 0.64322 61 77 107
1.11816 -3.57562 0.65657 66 77 113
1.03994 -3.80102 0.66123 69 72 98
1.05448 -3.79478 0.64014 57 60 88
1.04455 -3.83342 0.65896 99 105 126
1.03138 -3.84575 0.66087 101 108 134
1.02161 -3.86206 0.66197 77 86 117
1.01006 -3.87641 0.66348 59 66 99
0.99178 -3.88741 0.64752 49 50 87
1.00025 -3.89287 0.66458 52 54 89
0.98194 -3.90389 0.64859 48 47 84
0.96629 -3.93752 0.66893 32 37 79
0.98107 -3.93117 0.64748 50 47 84
0.97542 -3.97721 0.66550 62 74 119
0.98474 -4.01757 0.66202 138 156 178
0.98497 -4.04727 0.66068 177 187 195
0.96620 -4.05856 0.64429 178 183 193
0.96016 -4.07624 0.66401 178 186 198
0.95802 -4.10366 0.66321 137 147 153
0.98960 -4.17375 0.65431 78 74 76
0.97177 -4.21326 0.65589 57 61 66
0.95251 -4.22485 0.63906 58 63 78
0.95660 -4.25684 0.65680 68 69 76
0.95862 -4.29142 0.65491 80 80 89
0.96040 -4.32605 0.65308 96 103 113
0.94851 -4.34298 0.65454 126 133 146
0.93388 -4.35638 0.65667 148 156 162
0.91423 -4.36821 0.63950 151 158 155
-1.99963 -4.03544 1.21422 69 73 74
-2.01344 -4.04375 1.20215 33 34 53
2.29637 -3.14559 0.43832 132 131 133
2.31446 -3.13470 0.45413 140 124 114
2.29814 -3.14327 0.45678 133 123 122
2.29459 -3.14791 0.41987 174 174 170
2.30002 -3.18819 0.43564 159 156 146
2.26909 -3.18660 0.44150 139 138 117
2.26314 -3.22300 0.44091 48 43 49
2.24057 -3.22728 0.44493 32 33 49
2.22231 -3.23827 0.42898 53 48 43
2.22405 -3.23588 0.44762 33 32 49
2.20579 -3.24687 0.43167 53 48 42
2.21676 -3.25121 0.44826 45 38 51
1.89509 -3.07541 0.51665 173 158 156
1.28169 -3.20921 0.62508 163 164 173
1.21357 -3.27684 0.63465 57 58 96
1.23029 -3.26678 0.64926 62 62 103
1.22865 -3.26892 0.63220 63 60 100
1.22700 -3.27107 0.61515 59 62 95
1.19771 -3.30623 0.63624 89 95 116
1.19139 -3.32259 0.63665 77 78 106
1.17477 -3.35179 0.63839 75 74 111
1.18580 -3.38531 0.63476 105 103 128
1.17473 -3.39755 0.63626 105 110 133
1.18054 -3.44990 0.63272 82 85 113
1.16512 -3.45815 0.63522 99 110 129
1.17056 -3.48735 0.63283 84 90 127
1.16870 -3.50944 0.63215 62 61 100
1.15132 -3.51990 0.61697 55 57 93
1.11228 -3.59839 0.63853 60 63 107
1.12640 -3.59233 0.61804 55 62 101
1.11056 -3.60065 0.62062 58 61 103
1.09644 -3.60671 0.64110 53 50 100
1.10222 -3.66355 0.63736 61 58 95
1.11998 -3.65286 0.65286 61 54 105
1.11823 -3.65514 0.63476 56 55 103
1.10397 -3.66127 0.65546 57 56 97
1.08796 -3.66968 0.65806 53 55 91
1.08621 -3.67195 0.63996 53 55 89
1.04470 -3.81074 0.64122 65 67 95
1.05926 -3.80449 0.62009 58 57 90
1.04972 -3.84369 0.63874 86 101 116
1.03149 -3.85028 0.64184 87 99 113
1.01853 -3.86292 0.64367 67 72 103
1.00029 -3.87390 0.62774 49 53 89
1.00928 -3.87994 0.64460 53 57 94
0.99100 -3.89094 0.62864 47 50 87
0.96882 -3.94507 0.64912 43 42 85
0.98362 -3.93871 0.62764 50 49 86
0.96701 -3.94743 0.63034 52 48 87
0.95364 -3.95551 0.65146 49 49 103
0.97726 -4.01310 0.64435 114 125 160
0.99151 -4.05994 0.63949 170 182 190
0.97270 -4.07126 0.62306 178 186 196
0.97174 -4.09532 0.64153 177 184 198
0.96989 -4.09775 0.62227 174 183 197
0.95679 -4.10687 0.64379 158 162 171
0.99196 -4.18155 0.63371 102 94 99
0.97785 -4.19469 0.63573 58 53 58
0.95864 -4.20625 0.61895 52 49 70
0.97255 -4.21914 0.63558 55 61 75
0.95291 -4.25700 0.63748 70 73 79
0.95593 -4.29290 0.63523 100 100 102
0.94876 -4.31580 0.63550 127 130 132
0.92922 -4.32756 0.61843 157 151 143
0.93257 -4.32695 0.63801 150 148 147
0.91301 -4.33871 0.62093 151 145 150
2.30648 -3.13629 0.41821 152 149 149
2.32456 -3.12541 0.43400 129 123 123
2.32278 -3.12773 0.41556 140 134 138
2.30470 -3.13860 0.39977 202 202 195
2.28840 -3.14716 0.40242 218 219 213
2.33929 -3.19909 0.40887 195 194 189
2.33989 -3.21980 0.40772 207 207 197
2.30994 -3.21907 0.41341 201 203 175
2.27406 -3.21400 0.42043 145 145 118
2.28786 -3.24431 0.41631 83 78 60
2.25583 -3.24189 0.42248 56 52 38
1.86151 -3.07354 0.50531 187 166 161
1.84773 -3.07946 0.52531 190 167 163
1.84604 -3.08166 0.50782 190 167 159
1.84436 -3.08386 0.49034 189 166 161
1.24436 -3.22187 0.61434 57 50 89
1.23102 -3.22760 0.63369 58 66 96
1.22939 -3.22973 0.61677 57 66 98
1.22776 -3.23186 0.59984 56 62 97
1.21599 -3.28279 0.61664 54 54 87
1.22945 -3.27701 0.59711 56 62 95
1.21727 -3.30614 0.61523 90 101 125
1.20151 -3.31355 0.61783 101 109 123
1.19990 -3.33443 0.61709 72 65 94
1.19190 -3.34936 0.61785 62 70 89
1.18661 -3.36700 0.61797 81 79 106
1.19330 -3.39641 0.61523 109 114 142
1.17769 -3.40427 0.61778 109 115 140
1.17453 -3.42440 0.61737 92 105 127
1.17948 -3.45273 0.61502 73 80 99
1.17652 -3.47344 0.61454 85 88 109
1.15925 -3.48383 0.59945 57 69 90
1.17778 -3.49854 0.61304 74 81 110
1.17079 -3.51553 0.61351 59 61 97
1.11392 -3.62932 0.61854 59 62 100
1.12812 -3.62323 0.59795 61 68 96
1.11298 -3.65367 0.61750 73 73 100
1.10963 -3.67566 0.61703 76 76 99
1.10962 -3.70144 0.61574 61 60 84
1.09526 -3.70761 0.63660 52 52 78
1.09350 -3.70991 0.61836 54 53 78
1.05170 -3.82304 0.62058 69 66 100
1.04993 -3.84832 0.61965 80 92 123
1.03305 -3.85647 0.62243 75 82 119
1.02724 -3.87742 0.62248 58 60 99
1.00894 -3.88843 0.60650 50 55 85
0.96256 -3.97083 0.63000 34 36 98
0.97741 -3.96445 0.60845 50 50 88
0.96530 -4.00318 0.62787 84 98 144
1.00115 -4.07642 0.61743 162 176 187
0.98228 -4.08778 0.60095 180 187 200
0.96667 -4.12398 0.62156 164 174 183
0.98191 -4.11743 0.59944 173 184 200
1.00154 -4.19846 0.61125 112 112 125
0.97558 -4.19667 0.61624 57 51 71
0.95664 -4.23508 0.61789 59 58 71
0.95218 -4.26100 0.61743 78 80 75
0.95539 -4.29719 0.61501 120 123 118
0.93590 -4.30893 0.59799 151 157 157
0.93340 -4.30062 0.61899 150 148 149
-1.99007 -4.03073 1.18414 51 50 60
-2.00201 -4.04214 1.18582 32 33 46
-2.01584 -4.05046 1.17374 24 21 32
2.34119 -3.06563 0.39672 134 126 130
2.35910 -3.05486 0.41236 149 128 111
2.35734 -3.05715 0.39409 137 124 123
2.34295 -3.06334 0.41498 146 129 115
2.32680 -3.07182 0.41760 139 126 122
2.32504 -3.07411 0.39934 132 128 134
2.30924 -3.10233 0.40084 155 152 151
2.32721 -3.09152 0.41654 133 123 128
2.32545 -3.09382 0.39821 140 134 136
2.31101 -3.10003 0.41917 131 127 130
2.30748 -3.10464 0.38252 207 207 195
2.34859 -3.14898 0.39087 179 177 175
2.34911 -3.20957 0.38754 225 226 224
2.36388 -3.20323 0.36611 234 235 235
2.34731 -3.21193 0.36880 231 232 233
2.33074 -3.22063 0.37149 229 229 221
2.33779 -3.22196 0.38903 228 230 227
2.31940 -3.23303 0.37297 230 230 226
2.32006 -3.22986 0.39199 228 229 220
2.29740 -3.23424 0.39607 200 201 188
2.29200 -3.25093 0.39621 128 125 115
1.25552 -3.19283 0.59664 199 199 210
1.26879 -3.18712 0.57737 199 199 211
1.25389 -3.19495 0.57979 199 200 211
1.21868 -3.28900 0.59852 52 52 87
1.23215 -3.28321 0.57897 56 61 93
1.22304 -3.31530 0.59629 102 105 138
1.21196 -3.32719 0.59777 113 120 132
1.20848 -3.34638 0.59741 68 65 90
1.19155 -3.35656 0.58263 57 64 82
1.20043 -3.36133 0.59814 56 67 84
1.19385 -3.37779 0.59852 82 85 106
1.19085 -3.39785 0.59802 93 103 145
1.18098 -3.41133 0.59918 95 98 136
1.18274 -3.43636 0.59751 85 92 118
1.16557 -3.44669 0.58252 75 72 98
1.17862 -3.45577 0.59726 76 81 104
1.16140 -3.46613 0.58222 71 68 92
1.17273 -3.47356 0.59743 70 68 102
1.17721 -3.52599 0.59379 67 70 96
1.16906 -3.54196 0.59449 66 71 96
1.15502 -3.54800 0.61486 55 55 89
1.15330 -3.55024 0.59704 61 56 90
1.11984 -3.63971 0.59865 67 69 92
1.12144 -3.66685 0.59689 97 105 99
1.10965 -3.67985 0.59844 102 110 114
1.11513 -3.71160 0.59571 80 79 81
1.11204 -3.73432 0.59509 64 61 76
1.09759 -3.74053 0.61606 57 56 84
1.09405 -3.74515 0.57938 68 77 114
1.10699 -3.75510 0.59494 64 63 91
1.09249 -3.76132 0.61598 53 58 88
1.09072 -3.76364 0.59758 60 58 93
1.07352 -3.82491 0.59759 64 61 89
1.09173 -3.81396 0.61349 54 59 92
1.08994 -3.81629 0.59492 51 56 85
1.05532 -3.83587 0.58169 75 79 103
1.05647 -3.83280 0.60042 75 80 103
1.04434 -3.84632 0.60201 75 82 115
1.03795 -3.86650 0.60215 66 67 110
1.01967 -3.87750 0.58619 49 55 91
1.03630 -3.89236 0.60108 54 57 96
1.01795 -3.90340 0.58505 47 54 91
0.96954 -3.98384 0.60892 34 38 96
0.98443 -3.97744 0.58731 49 45 90
0.97806 -4.02332 0.60519 85 96 141
1.00129 -4.08129 0.59768 163 172 188
0.98240 -4.09265 0.58118 177 187 198
0.97284 -4.13648 0.60015 167 179 189
0.98812 -4.12991 0.57798 170 183 198
0.99757 -4.19830 0.59215 128 137 143
0.97799 -4.20460 0.59554 62 64 79
0.96577 -4.22025 0.59703 50 48 62
0.95570 -4.23879 0.59796 81 87 79
0.96412 -4.28146 0.59408 122 126 99
0.93298 -4.27290 0.60047 151 154 140
0.91360 -4.28456 0.58355 158 162 163
0.84725 -4.28826 0.61597 159 151 143
0.86464 -4.27913 0.61315 153 149 146
0.83176 -4.29492 0.63846 154 155 146
-1.99130 -4.03365 1.16997 30 26 43
-2.00512 -4.04196 1.15790 21 19 25
-2.00337 -4.04392 1.17172 20 21 33
-2.01720 -4.05224 1.15964 23 18 24
2.35621 -3.05987 0.37569 135 127 137
2.37412 -3.04909 0.39133 141 125 115
2.37236 -3.05139 0.37306 132 124 131
2.37060 -3.05368 0.35480 139 135 146
2.34140 -3.06925 0.37800 144 136 149
2.33182 -3.08217 0.37911 158 153 156
2.31388 -3.09297 0.36344 226 225 217
2.36154 -3.12184 0.37116 181 178 167
2.37200 -3.16863 0.36651 225 226 219
2.37020 -3.17098 0.34787 239 240 240
2.36742 -3.18552 0.36643 234 235 231
2.30840 -3.24572 0.37436 225 225 222
2.31506 -3.27112 0.37165 174 173 169
2.36460 -3.32766 0.35894 108 107 96
1.25388 -3.21629 0.57858 190 189 193
1.26721 -3.21056 0.55924 197 200 216
1.26956 -3.25215 0.57354 91 87 128
1.25600 -3.26147 0.57562 56 58 91
1.24256 -3.26725 0.59514 60 66 97
1.24091 -3.26940 0.57807 58 65 99
1.23927 -3.27154 0.56101 55 63 100
1.21866 -3.29267 0.58103 53 54 86
1.23213 -3.28688 0.56147 55 61 98
1.22629 -3.32209 0.57790 84 92 138
1.20941 -3.33224 0.56317 110 112 128
1.21263 -3.33157 0.57999 113 119 125
1.21080 -3.35236 0.57916 72 72 100
1.19612 -3.38379 0.58021 70 71 96
1.17910 -3.39403 0.56535 68 71 89
1.19113 -3.40195 0.58014 71 75 108
1.17406 -3.41222 0.56524 76 71 105
1.19198 -3.42596 0.57862 77 75 118
1.17484 -3.43628 0.56365 70 71 88
1.19246 -3.44983 0.57718 73 75 105
1.17979 -3.50846 0.57630 62 70 92
1.18238 -3.53520 0.57429 93 105 122
1.17618 -3.55323 0.57446 82 99 112
1.16573 -3.56702 0.57568 66 63 89
1.15164 -3.57308 0.59614 59 61 94
1.14992 -3.57533 0.57825 60 63 88
1.14819 -3.57758 0.56037 60 60 74
1.13341 -3.63291 0.57817 56 65 90
1.15110 -3.62226 0.59362 61 69 97
1.14936 -3.62453 0.57558 58 68 95
1.14763 -3.62680 0.55753 57 59 83
1.13167 -3.63518 0.56012 50 57 83
1.12358 -3.64780 0.57921 71 78 96
1.12045 -3.66995 0.57856 109 121 122
1.10266 -3.68065 0.56303 114 123 135
1.10778 -3.68200 0.58032 116 116 127
1.10503 -3.70486 0.57955 96 99 115
1.12091 -3.74824 0.57405 71 73 104
1.08655 -3.81683 0.57677 55 64 78
1.06835 -3.82778 0.56088 73 82 110
1.04757 -3.88201 0.58057 55 58 92
1.02924 -3.89305 0.56456 53 53 91
0.98030 -4.00144 0.58674 53 54 102
0.99282 -4.04594 0.58182 109 129 161
0.97406 -4.05723 0.56544 178 188 205
0.99570 -4.07913 0.57939 168 185 200
0.97684 -4.09048 0.56291 174 185 201
0.97387 -4.14254 0.58000 165 180 192
0.98916 -4.13597 0.55781 167 183 197
0.99096 -4.19481 0.57376 142 148 151
0.97308 -4.20322 0.57672 85 76 75
0.96029 -4.21813 0.57833 71 60 59
0.95195 -4.23888 0.57876 120 118 116
0.94231 -4.25809 0.57953 153 154 148
0.92361 -4.26561 0.58269 159 159 160
0.85795 -4.27519 0.59477 159 159 172
0.87531 -4.26608 0.59195 155 162 170
0.83288 -4.27392 0.59965 165 168 166
-1.99155 -4.04576 1.15508 21 20 32
-2.00540 -4.05410 1.14299 21 21 21
2.36774 -3.07103 0.35432 156 151 161
2.38217 -3.06483 0.33337 171 172 171
2.38215 -3.10010 0.34979 177 175 188
2.38889 -3.12423 0.34704 204 203 202
2.37072 -3.13516 0.33118 239 240 240
2.38176 -3.15895 0.34635 237 237 233
2.36446 -3.18707 0.34802 237 237 238
2.35879 -3.20330 0.34814 233 231 224
2.34468 -3.21370 0.35026 229 223 200
2.34357 -3.23330 0.34930 228 218 175
2.32857 -3.24317 0.35162 229 223 207
2.32415 -3.26061 0.35143 233 231 229
2.30234 -3.26567 0.35536 204 208 200
2.30106 -3.28551 0.35442 153 154 141
1.26603 -3.23094 0.55825 201 201 209
1.27941 -3.22520 0.53883 196 201 217
1.25605 -3.24344 0.55943 144 150 164
1.25751 -3.26652 0.55777 62 54 96
1.21567 -3.29356 0.56427 55 55 92
1.22914 -3.28778 0.54472 58 62 103
1.21402 -3.29571 0.54717 55 57 94
1.21969 -3.31959 0.56193 67 82 127
1.20021 -3.34599 0.56413 93 93 113
1.20492 -3.37322 0.56159 62 68 77
1.19835 -3.38975 0.56187 68 73 88
1.17513 -3.46008 0.56217 76 73 98
1.17863 -3.48729 0.55986 87 80 105
1.20306 -3.53587 0.55223 109 122 137
1.19163 -3.54858 0.55368 126 134 154
1.18036 -3.56151 0.55509 86 96 114
1.16282 -3.57207 0.53977 59 66 88
1.17568 -3.58127 0.55482 63 63 83
1.15808 -3.59186 0.53945 59 61 82
1.11887 -3.64692 0.56190 62 62 92
1.13310 -3.64080 0.54125 46 54 82
1.12622 -3.68028 0.55848 101 116 130
1.10448 -3.70846 0.56101 105 107 138
1.12268 -3.75443 0.55474 78 83 116
1.11738 -3.77506 0.55453 65 69 104
1.08914 -3.82408 0.55707 68 75 98
1.06344 -3.84948 0.56054 67 70 107
1.04519 -3.86047 0.54459 54 55 98
1.00526 -4.00706 0.56239 54 57 89
1.02391 -3.99584 0.57868 49 52 91
1.02208 -3.99823 0.55966 46 50 87
0.99824 -4.02777 0.56252 108 115 138
1.00634 -4.06710 0.55860 165 175 193
0.98750 -4.07843 0.54214 176 184 198
0.97814 -4.15270 0.55894 163 180 193
0.99346 -4.14612 0.53671 165 181 200
0.97942 -4.18507 0.55676 144 158 163
0.97397 -4.20922 0.55637 105 105 93
0.95357 -4.21441 0.56002 104 95 83
0.94794 -4.23862 0.55966 143 140 155
0.92866 -4.25023 0.54282 171 176 170
0.93115 -4.24853 0.56232 161 165 165
0.91186 -4.26013 0.54548 174 178 171
0.91502 -4.25932 0.56480 167 171 151
0.89533 -4.26542 0.56825 169 169 147
0.82911 -4.27384 0.58058 165 171 184
0.80991 -4.28539 0.56382 186 190 194
2.40767 -3.10121 0.32609 202 201 195
2.42223 -3.09495 0.30496 196 202 201
2.40589 -3.10353 0.30762 233 235 232
2.41185 -3.12358 0.32387 223 225 225
2.39365 -3.13453 0.30798 240 240 244
2.40094 -3.13591 0.32522 235 236 236
2.38661 -3.16585 0.32614 240 239 240
2.38482 -3.16819 0.30749 239 228 204
2.37318 -3.17661 0.32809 239 235 225
2.36366 -3.19011 0.32910 236 227 192
2.41463 -3.24584 0.31562 232 214 154
2.40648 -3.26068 0.31628 226 198 112
2.38696 -3.26756 0.31966 226 199 111
2.36836 -3.27876 0.30341 231 211 129
2.33851 -3.25388 0.33000 229 217 175
2.33574 -3.27256 0.32936 237 236 229
2.31060 -3.27528 0.33410 227 229 227
2.32490 -3.32748 0.32802 135 126 112
1.25328 -3.24453 0.54272 181 186 198
1.26042 -3.27287 0.53954 74 74 127
1.21548 -3.31933 0.54540 74 80 109
1.22901 -3.31352 0.52576 58 61 90
1.22410 -3.34997 0.54178 114 116 139
1.21529 -3.36420 0.54261 128 130 123
1.20076 -3.37300 0.54489 94 102 100
1.20290 -3.39798 0.54290 91 93 100
1.19631 -3.41466 0.54314 92 91 105
1.19331 -3.43499 0.54244 100 92 107
1.18424 -3.44946 0.54331 100 91 90
1.21866 -3.50734 0.53293 113 117 133
1.20990 -3.52259 0.53368 135 147 145
1.20596 -3.54278 0.53318 148 157 153
1.18558 -3.54643 0.53694 98 103 136
1.16808 -3.55696 0.52165 65 67 94
1.19005 -3.57543 0.53423 65 71 98
1.17245 -3.58602 0.51886 66 66 89
1.12215 -3.65454 0.54252 60 59 95
1.12155 -3.67943 0.54107 96 103 132
1.11577 -3.69897 0.54097 113 125 142
1.10495 -3.71317 0.54219 110 130 150
1.08706 -3.72394 0.52657 113 120 144
1.10030 -3.73421 0.54178 98 118 137
1.12067 -3.78296 0.53472 82 87 104
1.10435 -3.81843 0.53568 72 76 103
1.08663 -3.85282 0.53698 67 69 106
1.06833 -3.86383 0.52099 57 55 90
1.07322 -3.86501 0.53883 60 58 99
1.05491 -3.87603 0.52283 54 55 92
1.03027 -3.98373 0.53974 60 60 95
1.04889 -3.97252 0.55600 52 54 93
1.04706 -3.97491 0.53702 56 55 93
1.03210 -3.98134 0.55873 51 55 90
1.02053 -4.00097 0.54056 60 69 105
1.02513 -4.03560 0.53748 93 103 141
1.01253 -4.04973 0.53906 148 157 185
1.00457 -4.06961 0.53936 172 182 198
0.97345 -4.15160 0.54028 156 174 195
0.97126 -4.17958 0.53894 145 153 174
0.96553 -4.20333 0.53857 147 143 142
0.94931 -4.21382 0.54108 161 159 146
0.93307 -4.22431 0.54359 167 171 180
0.91385 -4.23587 0.52681 155 161 153
0.88184 -4.25258 0.55182 179 182 180
0.87995 -4.25504 0.53223 178 174 190
0.86263 -4.26414 0.53504 182 179 191
0.85749 -4.25233 0.55660 187 177 185
0.83832 -4.26386 0.53985 185 187 190
0.83774 -4.25810 0.56010 184 183 188
0.81858 -4.26963 0.54336 190 188 186
0.81689 -4.26235 0.56390 186 185 188
2.41575 -3.12974 0.30394 241 241 241
2.41396 -3.13208 0.28536 239 240 244
2.39753 -3.14070 0.28803 238 239 244
2.39528 -3.15543 0.30627 238 239 235
2.39348 -3.15777 0.28765 237 235 221
2.41749 -3.21075 0.29823 239 218 157
2.41568 -3.21312 0.27939 242 207 93
2.41135 -3.26777 0.29567 225 188 56
2.37997 -3.26630 0.30195 224 193 78
2.31837 -3.26381 0.31426 240 233 204
2.29948 -3.29175 0.31614 208 203 206
2.34056 -3.34261 0.30467 173 169 149
1.27622 -3.26921 0.51938 197 197 211
1.28971 -3.26342 0.49981 197 199 214
1.25515 -3.29364 0.52192 61 51 86
1.21855 -3.32597 0.52700 70 62 102
1.23210 -3.32014 0.50733 59 66 85
1.21880 -3.34868 0.52544 109 117 142
1.21071 -3.36358 0.52605 141 145 147
1.20353 -3.37946 0.52641 137 150 145
1.21632 -3.41484 0.52155 132 125 140
1.21221 -3.43405 0.52109 135 131 144
1.22801 -3.47301 0.51539 137 142 153
1.21067 -3.48344 0.50025 151 159 163
1.22942 -3.49811 0.51345 148 153 137
1.21638 -3.50902 0.51530 161 173 178
1.20934 -3.52599 0.51556 151 160 160
1.20231 -3.54308 0.51582 124 124 129
1.20436 -3.56953 0.51366 73 73 102
1.18676 -3.58012 0.49829 69 67 93
1.14334 -3.65576 0.51998 43 52 93
1.16112 -3.64507 0.53550 54 58 76
1.15937 -3.64735 0.51738 55 60 84
1.15762 -3.64963 0.49926 59 58 89
1.13365 -3.67093 0.52089 78 77 111
1.11585 -3.68164 0.50534 95 103 140
1.13490 -3.69792 0.51886 101 108 139
1.12407 -3.71212 0.52005 110 114 140
1.11227 -3.72534 0.52150 111 120 144
1.10124 -3.76583 0.52100 100 108 130
1.10979 -3.80193 0.51692 92 94 113
1.10318 -3.82146 0.51693 81 92 106
1.09929 -3.84421 0.51619 68 72 103
1.08101 -3.85521 0.50022 56 56 95
1.09255 -3.86391 0.51621 60 57 98
1.07421 -3.87494 0.50020 55 53 95
1.06751 -3.94652 0.51568 59 52 91
1.08425 -3.93773 0.51296 53 54 95
1.06934 -3.94414 0.53460 53 52 88
1.05260 -3.95293 0.53732 54 54 87
1.06371 -3.97047 0.51484 64 54 92
1.05222 -3.98555 0.51611 73 61 101
1.05090 -4.01282 0.51456 92 89 130
1.04061 -4.02960 0.51548 114 133 160
1.02583 -4.04107 0.51764 111 128 175
1.00806 -4.04896 0.52062 117 127 179
1.00100 -4.06993 0.52062 148 161 188
0.98969 -4.08583 0.52180 166 180 197
0.97453 -4.09234 0.54380 173 183 201
0.97082 -4.09718 0.50532 167 174 178
0.98256 -4.10702 0.52180 166 182 199
0.98000 -4.13409 0.52051 163 173 191
0.97416 -4.15729 0.52013 156 160 172
0.97113 -4.18426 0.51894 154 157 160
0.95797 -4.19856 0.52059 173 171 167
0.93880 -4.21009 0.50385 191 191 188
0.94490 -4.21305 0.52221 187 181 178
0.92968 -4.22484 0.52442 168 167 163
2.50752 -3.25596 0.25815 239 215 146
2.48877 -3.26725 0.24177 240 211 98
2.48498 -3.28156 0.26086 242 209 62
2.46618 -3.29288 0.24444 227 195 76
2.34363 -3.26485 0.29013 227 202 90
2.31475 -3.26490 0.29587 240 226 171
2.35307 -3.35549 0.28196 198 188 162
2.31933 -3.35209 0.28890 156 152 116
2.32339 -3.37644 0.28640 108 98 74
2.30826 -3.38295 0.30836 68 55 57
2.29782 -3.37898 0.29131 83 67 59
2.28272 -3.38547 0.31323 57 53 55
2.27902 -3.39030 0.27490 98 77 73
2.28285 -3.38936 0.29357 64 51 59
2.26774 -3.39585 0.31550 61 61 69
2.26404 -3.40068 0.27715 76 57 62
1.29426 -3.28943 0.49710 196 199 216
1.30781 -3.28361 0.47743 196 198 208
1.29260 -3.29160 0.47990 194 196 216
1.26769 -3.28693 0.50256 178 180 185
1.26250 -3.30417 0.50239 72 75 111
1.24205 -3.30725 0.50625 54 59 98
1.22521 -3.31738 0.49154 54 69 90
1.22151 -3.33251 0.50858 56 63 98
1.21949 -3.35309 0.50755 92 114 136
1.21032 -3.36699 0.50841 134 134 150
1.21764 -3.39689 0.50488 146 156 159
1.21926 -3.42154 0.50284 146 153 164
1.21942 -3.44497 0.50118 147 135 142
1.23116 -3.48002 0.49641 140 142 158
1.21873 -3.51531 0.49643 139 148 175
1.21582 -3.53647 0.49554 109 113 142
1.20466 -3.54944 0.49686 88 92 127
1.18712 -3.56000 0.48155 63 64 94
1.21066 -3.57996 0.49355 71 65 100
1.19302 -3.59058 0.47815 64 65 88
1.14966 -3.66659 0.49966 56 57 100
1.14861 -3.69104 0.49817 83 85 125
1.13073 -3.70180 0.48256 95 103 127
1.13042 -3.72319 0.49956 95 94 124
1.12866 -3.72549 0.48125 90 96 124
1.11247 -3.73400 0.48388 91 93 124
1.12360 -3.74190 0.49962 98 103 128
1.11268 -3.75624 0.50079 101 112 135
1.10684 -3.77628 0.50056 97 109 134
1.10664 -3.80274 0.49877 94 99 121
1.11289 -3.83666 0.49517 76 81 107
1.09461 -3.84767 0.47920 53 60 97
1.10113 -3.85064 0.49653 60 65 95
1.07363 -3.90197 0.49844 55 50 97
1.07016 -3.92591 0.49747 65 59 107
1.08777 -3.97464 0.49058 87 82 125
1.08704 -4.00240 0.48880 97 104 130
1.06699 -4.00757 0.49243 102 116 130
1.05187 -4.01856 0.49467 113 126 152
1.03375 -4.02599 0.49776 93 99 148
1.01140 -4.02829 0.50204 56 55 123
0.99599 -4.03894 0.50436 77 82 143
0.98376 -4.05350 0.50579 135 152 184
0.97899 -4.07734 0.50508 161 177 189
0.96995 -4.12629 0.50348 178 186 182
0.96887 -4.15543 0.50167 189 191 183
0.96768 -4.18472 0.49987 186 177 169
0.94854 -4.19624 0.48316 189 188 188
0.95570 -4.20053 0.50115 188 178 173
0.93654 -4.21206 0.48442 185 194 181
0.92800 -4.22756 0.50479 183 185 178
0.92611 -4.23002 0.48521 180 182 170
0.90879 -4.23911 0.48802 179 183 165
0.90301 -4.22664 0.50982 174 179 170
0.88574 -4.23571 0.51262 181 180 171
0.88385 -4.23817 0.49309 180 187 171
-1.94386 -3.94365 1.09561 39 33 34
-1.95745 -3.95183 1.08374 11 8 13
2.43911 -3.15259 0.26007 233 238 243
2.45562 -3.14391 0.25738 196 205 221
2.42259 -3.16126 0.26275 237 238 242
2.42079 -3.16361 0.24407 238 239 243
2.34333 -3.26831 0.27086 212 190 100
2.31059 -3.30721 0.27460 215 217 204
2.29829 -3.38311 0.27155 119 98 90
1.28191 -3.30376 0.48116 198 197 200
1.29548 -3.29793 0.46147 196 196 216
1.26414 -3.30940 0.48432 108 129 143
1.25290 -3.32112 0.48572 55 53 92
1.23601 -3.33129 0.47096 55 64 96
1.23049 -3.34476 0.48850 51 65 93
1.22882 -3.34693 0.47123 57 62 90
1.20718 -3.34511 0.49314 85 87 126
1.21996 -3.38004 0.48804 134 141 157
1.23141 -3.41403 0.48328 144 158 161
1.21426 -3.42435 0.46830 160 167 191
1.23917 -3.44477 0.47949 160 169 185
1.22397 -3.45330 0.48192 166 170 179
1.23708 -3.48976 0.47664 151 150 174
1.23163 -3.50817 0.47639 132 130 164
1.22415 -3.57318 0.47317 61 65 102
1.20651 -3.58380 0.45776 59 65 89
1.16663 -3.66324 0.47816 69 53 95
1.18445 -3.65251 0.49372 59 59 80
1.18270 -3.65480 0.47555 64 55 81
1.15409 -3.67543 0.47979 75 78 102
1.15358 -3.70051 0.47807 96 102 114
1.13566 -3.71130 0.46242 95 104 127
1.12158 -3.77027 0.47941 95 99 128
1.12357 -3.79904 0.47692 90 90 128
1.12096 -3.82299 0.47571 71 73 106
1.11546 -3.84390 0.47529 59 64 98
1.09720 -3.87799 0.47647 54 54 101
1.08381 -3.89033 0.47826 63 58 103
1.09021 -3.92550 0.47442 76 79 122
1.09791 -3.96256 0.47019 111 130 157
1.08242 -3.97293 0.47254 149 166 171
1.07850 -3.99693 0.47158 147 154 149
1.06477 -4.00953 0.47342 109 112 129
1.03751 -4.00605 0.47914 62 61 115
1.01946 -4.01346 0.48222 49 54 114
1.02050 -4.04391 0.47980 87 101 139
0.99233 -4.03912 0.48580 138 153 171
0.98076 -4.05448 0.48700 159 167 183
0.97250 -4.07403 0.48724 168 165 175
0.95371 -4.08534 0.47083 193 203 192
0.96762 -4.09792 0.48648 187 185 179
0.94876 -4.10927 0.47001 192 195 195
0.96362 -4.12313 0.48545 197 201 195
0.94469 -4.13452 0.46892 199 201 196
0.96393 -4.15401 0.48314 200 200 198
0.95800 -4.17727 0.48264 197 190 194
0.93891 -4.18876 0.46597 188 187 181
2.48177 -3.16502 0.23163 150 159 179
2.50020 -3.15394 0.24772 99 108 137
2.49839 -3.15630 0.22893 60 56 83
2.49658 -3.15866 0.21015 42 47 54
2.46724 -3.17515 0.23380 220 228 237
2.35292 -3.25816 0.25062 214 188 59
2.36961 -3.24940 0.24791 230 198 69
2.36779 -3.25178 0.22904 240 205 60
2.33077 -3.26303 0.25473 199 171 66
2.29815 -3.28103 0.25996 214 213 187
2.27966 -3.29216 0.24382 216 212 213
2.34678 -3.40131 0.24100 175 165 168
2.32784 -3.41270 0.22446 164 155 153
2.32566 -3.40727 0.24482 167 158 161
1.28327 -3.30873 0.46312 197 199 211
1.29685 -3.30289 0.44340 196 194 208
1.28161 -3.31090 0.44588 196 199 215
1.26910 -3.31773 0.46530 174 173 176
1.26872 -3.33968 0.46371 68 63 98
1.23727 -3.37763 0.46719 64 58 98
1.25097 -3.37175 0.44731 61 62 93
1.23560 -3.37982 0.44981 47 59 84
1.22080 -3.38464 0.46999 109 126 153
1.23747 -3.42373 0.46365 143 156 185
1.23339 -3.46642 0.46124 160 159 183
1.24312 -3.49965 0.45675 159 155 178
1.23812 -3.51857 0.45632 128 130 157
1.24830 -3.55282 0.45166 75 76 110
1.23878 -3.56755 0.45247 62 59 93
1.18106 -3.65720 0.45734 69 54 78
1.19889 -3.64647 0.47291 64 61 81
1.19714 -3.64876 0.45473 62 60 82
1.17959 -3.68105 0.45583 90 80 103
1.16169 -3.69182 0.44020 108 108 136
1.17801 -3.70498 0.45433 107 117 131
1.16004 -3.71579 0.43864 100 105 139
1.16129 -3.71295 0.45711 111 111 128
1.13602 -3.76392 0.45835 87 90 116
1.15232 -3.75536 0.45570 89 98 125
1.13025 -3.78407 0.45799 86 94 111
1.11212 -3.79499 0.44215 60 55 104
1.13073 -3.81128 0.45583 78 77 110
1.12841 -3.83562 0.45445 62 62 95
1.12064 -3.85407 0.45462 54 59 91
1.10743 -3.86651 0.45635 62 65 99
1.12069 -3.90910 0.45043 77 88 131
1.10684 -3.92112 0.45232 109 125 153
1.09264 -3.93278 0.45431 147 163 162
1.09026 -3.95819 0.45286 154 161 165
1.07838 -3.97274 0.45416 136 138 154
1.07222 -3.99411 0.45378 121 120 142
1.06173 -4.01051 0.45466 109 109 134
1.04902 -4.02437 0.45618 108 109 131
1.01971 -4.01836 0.46256 136 146 152
1.00102 -4.02961 0.44624 168 171 173
0.99073 -4.04181 0.46664 171 174 169
0.97201 -4.05308 0.45030 192 196 184
0.97805 -4.05583 0.46815 176 179 172
0.95931 -4.06710 0.45178 190 196 184
0.96853 -4.07382 0.46870 186 192 179
0.94975 -4.08512 0.45231 180 194 186
0.96113 -4.18609 0.46168 200 206 190
0.97649 -4.17949 0.43939 206 212 203
0.94201 -4.19759 0.44499 192 191 188
-1.92503 -3.91053 1.06631 73 64 62
2.45931 -3.15351 0.21815 92 94 121
2.47405 -3.14717 0.19676 59 50 58
2.49728 -3.19904 0.20681 187 196 214
2.47768 -3.20587 0.21026 234 238 243
2.46278 -3.21227 0.23188 240 241 243
2.46096 -3.21465 0.21298 241 241 244
2.34571 -3.25671 0.23316 233 202 55
2.36056 -3.25033 0.21161 241 205 64
2.31184 -3.44432 0.22522 184 188 174
1.27704 -3.32885 0.44539 202 201 202
1.29066 -3.32300 0.42562 198 200 213
1.27594 -3.35020 0.44393 101 104 126
1.26697 -3.36428 0.44464 58 52 92
1.24993 -3.37454 0.42976 59 61 99
1.23339 -3.40056 0.44862 58 70 113
1.24713 -3.39466 0.42867 57 63 92
1.23171 -3.40276 0.43118 51 58 94
1.22732 -3.41773 0.44850 119 130 171
1.25272 -3.48930 0.43766 144 147 168
1.24982 -3.51021 0.43659 143 138 160
1.23235 -3.52073 0.42133 137 136 153
1.24091 -3.52530 0.43722 122 136 152
1.24488 -3.55338 0.43419 82 89 117
1.23635 -3.56912 0.43468 69 70 86
1.22750 -3.58462 0.43526 60 65 86
1.21721 -3.59875 0.43624 57 67 92
1.20299 -3.60486 0.45688 59 63 82
1.21080 -3.61696 0.43611 59 63 84
1.19654 -3.62308 0.45680 57 58 77
1.20197 -3.63279 0.43665 59 62 83
1.19654 -3.65225 0.43622 68 73 99
1.19649 -3.67752 0.43423 81 80 111
1.17858 -3.68829 0.41859 103 108 127
1.19038 -3.69660 0.43397 108 108 122
1.15375 -3.73500 0.43840 93 103 133
1.14997 -3.75705 0.43743 90 99 129
1.13189 -3.76793 0.42164 68 60 89
1.14873 -3.78207 0.43570 81 76 107
1.14330 -3.80270 0.43518 68 62 103
1.12071 -3.83139 0.43751 59 61 102
1.11546 -3.85264 0.43690 67 80 114
1.11338 -3.87763 0.43535 103 115 141
1.10122 -3.89138 0.43674 142 160 170
1.09626 -3.91346 0.43601 156 169 169
1.08758 -3.93142 0.43636 140 141 153
1.07769 -3.94811 0.43705 121 117 147
1.07673 -3.97535 0.43510 122 120 143
1.06461 -3.98971 0.43643 133 141 153
1.04561 -3.99597 0.43981 147 163 174
1.02927 -4.00539 0.44240 163 168 180
1.00921 -4.01033 0.44610 171 172 179
0.98231 -4.03619 0.44954 177 180 177
0.98048 -4.03859 0.43049 175 175 170
-1.92795 -3.89977 1.05384 58 51 49
2.49418 -3.18053 0.18987 57 48 83
2.50903 -3.17415 0.16832 64 53 66
2.49236 -3.18290 0.17103 50 46 76
2.47570 -3.19165 0.17373 80 81 126
2.48991 -3.19767 0.18934 137 142 177
2.49235 -3.21948 0.18704 217 224 239
2.47375 -3.23067 0.17080 235 241 247
2.48287 -3.23328 0.18786 242 245 247
2.46607 -3.24210 0.19059 246 247 247
2.46424 -3.24449 0.17159 246 248 249
2.46558 -3.28283 0.18733 234 215 157
2.34797 -3.26197 0.21323 243 208 53
2.28388 -3.25739 0.22679 229 207 102
2.27966 -3.27503 0.22621 236 226 187
2.33917 -3.42497 0.20162 183 177 141
2.26584 -3.45725 0.21405 174 173 161
2.24873 -3.46623 0.21682 131 119 138
2.24687 -3.46866 0.19748 116 110 134
1.28219 -3.33739 0.42618 201 203 211
1.29584 -3.33153 0.40637 199 199 213
1.28052 -3.33957 0.40886 198 200 215
1.26058 -3.33951 0.43045 169 164 169
1.27781 -3.37830 0.42371 71 53 97
1.24421 -3.43796 0.42571 68 71 106
1.24251 -3.44017 0.40814 52 61 82
1.24333 -3.46045 0.42404 109 116 159
1.25819 -3.49860 0.41784 117 131 172
1.25148 -3.51579 0.41781 125 121 159
1.22482 -3.53725 0.42152 109 124 136
1.20731 -3.54779 0.40623 118 132 150
1.22372 -3.56038 0.41984 90 102 104
1.20614 -3.57096 0.40449 114 130 149
1.21851 -3.57952 0.41934 78 86 115
1.21667 -3.60225 0.41785 73 87 111
1.19896 -3.61290 0.40239 110 119 121
1.21513 -3.62549 0.41625 76 86 97
1.21994 -3.65550 0.41279 86 101 99
1.20668 -3.66695 0.41457 97 100 110
1.19844 -3.68371 0.41489 102 102 129
1.17857 -3.71396 0.41648 96 102 131
1.16885 -3.72943 0.41721 88 100 140
1.15082 -3.74028 0.40147 67 67 108
1.16467 -3.75100 0.41629 80 83 128
1.16021 -3.77242 0.41544 73 71 108
1.14327 -3.80698 0.41608 59 57 94
1.12925 -3.81828 0.41803 66 72 110
1.12700 -3.84275 0.41648 93 101 146
1.12950 -3.87278 0.41350 135 153 178
1.11763 -3.88685 0.41478 156 169 175
1.09920 -3.89794 0.39868 121 121 145
1.10330 -3.89818 0.41679 148 151 157
1.08860 -3.90913 0.41891 127 127 148
1.08051 -3.92774 0.41904 122 122 143
1.06982 -3.94346 0.41995 134 138 157
1.05129 -3.95461 0.40377 159 174 187
1.06378 -3.96472 0.41944 150 162 179
1.04519 -3.97591 0.40321 165 172 180
1.05245 -3.97992 0.42052 164 175 186
1.04003 -3.99392 0.42192 162 161 181
1.02543 -4.00538 0.42398 164 166 180
1.00678 -4.01660 0.40769 189 189 192
1.00700 -4.01227 0.42720 178 186 187
0.98836 -4.02349 0.41092 187 181 186
0.98664 -4.01679 0.43102 181 184 176
0.96801 -4.02799 0.41476 185 179 176
0.96667 -4.05116 0.43229 179 177 187
0.95377 -4.06492 0.43381 193 193 199
0.93689 -4.07378 0.43655 195 204 202
0.93505 -4.07618 0.41747 199 204 191
-1.91581 -3.90526 1.03702 95 88 81
-1.90495 -3.90060 1.02127 103 101 89
-1.92801 -3.91148 1.03902 53 44 39
2.49671 -3.22608 0.16643 175 185 212
2.45888 -3.26124 0.17127 245 247 245
2.45704 -3.26364 0.15223 245 247 248
2.45353 -3.27811 0.17093 245 238 210
2.38391 -3.27049 0.18602 241 208 87
2.34987 -3.26699 0.19338 240 213 97
2.29995 -3.29340 0.20147 240 241 233
2.28144 -3.30454 0.18530 241 244 243
2.29752 -3.33361 0.19853 225 216 217
2.30445 -3.35994 0.19484 232 227 229
2.28572 -3.37120 0.17849 248 247 247
2.32792 -3.44221 0.18294 175 160 157
2.31474 -3.45422 0.18464 164 154 167
2.31127 -3.47364 0.18370 192 191 194
2.28273 -3.47402 0.18958 186 183 176
2.26368 -3.48548 0.17295 111 102 79
1.28339 -3.36472 0.40611 195 198 201
1.29711 -3.35883 0.38621 196 200 215
1.28172 -3.36691 0.38871 200 205 216
1.28006 -3.38422 0.40514 100 99 132
1.26784 -3.39540 0.40671 60 56 93
1.25239 -3.40351 0.40922 61 66 102
1.25442 -3.42850 0.40666 61 67 97
1.25273 -3.43071 0.38911 63 70 108
1.24285 -3.46386 0.40604 51 59 104
1.24115 -3.46608 0.38839 57 65 89
1.25167 -3.49611 0.40145 65 72 122
1.24826 -3.51655 0.40041 104 111 152
1.23948 -3.53179 0.40093 126 126 155
1.22856 -3.54498 0.40206 125 135 164
1.23176 -3.62176 0.39483 112 126 134
1.21488 -3.65437 0.39554 108 115 121
1.20469 -3.66900 0.39640 101 111 125
1.19752 -3.68689 0.39636 93 103 127
1.18821 -3.70265 0.39694 86 97 115
1.17025 -3.71346 0.38125 63 66 97
1.18013 -3.71981 0.39714 78 79 108
1.17166 -3.73666 0.39746 72 69 108
1.15462 -3.77061 0.39809 60 65 104
1.15281 -3.79510 0.39637 71 76 109
1.14935 -3.81799 0.39513 84 96 133
1.14638 -3.84161 0.39372 124 142 165
1.14151 -3.86332 0.39287 150 171 175
1.12748 -3.87490 0.39479 146 155 167
1.10721 -3.87946 0.39860 128 130 158
1.07535 -3.92624 0.40121 142 158 175
1.05687 -3.93736 0.38507 155 165 177
1.07530 -3.95434 0.39881 154 174 191
1.03554 -3.99315 0.40374 182 183 181
1.01692 -4.00436 0.38747 207 212 198
1.02145 -4.00520 0.40563 192 190 184
0.94756 -4.06191 0.41609 199 195 189
0.92887 -4.07316 0.39977 188 194 192
-1.91589 -3.91662 1.02217 88 85 75
-1.92941 -3.91259 1.02532 48 41 37
2.51317 -3.22067 0.14431 57 57 84
2.52997 -3.21185 0.14158 68 58 66
2.52814 -3.21424 0.12259 71 63 62
2.51548 -3.24252 0.14189 122 133 158
2.50538 -3.25602 0.14280 209 221 230
2.48665 -3.26729 0.12645 231 237 242
2.48465 -3.26224 0.14658 242 248 249
2.46593 -3.27350 0.13024 246 246 248
2.44989 -3.27925 0.15234 243 246 238
2.44806 -3.28165 0.13326 245 246 245
2.35738 -3.25539 0.17379 240 226 186
2.34260 -3.26549 0.17598 239 235 207
2.32411 -3.27661 0.15984 243 245 246
2.32867 -3.27621 0.17794 238 240 234
2.31017 -3.28734 0.16179 242 243 245
2.31278 -3.28554 0.18044 241 241 244
2.29428 -3.29667 0.16428 242 242 243
2.30872 -3.34556 0.17596 237 238 239
2.32373 -3.33911 0.15417 241 240 243
2.30688 -3.34796 0.15690 243 242 245
2.29003 -3.35681 0.15964 247 245 246
2.30713 -3.36568 0.17450 241 241 242
2.28839 -3.37696 0.15813 249 248 246
2.28808 -3.39445 0.17593 246 246 238
2.32069 -3.44062 0.16502 212 214 203
2.31792 -3.46048 0.16383 171 170 178
2.29886 -3.47195 0.14719 98 86 119
2.23868 -3.44417 0.18184 151 148 137
2.21980 -3.45553 0.16536 150 143 110
1.28309 -3.41374 0.38427 70 56 78
1.27799 -3.43190 0.38372 59 63 105
1.26072 -3.44229 0.36865 63 67 96
1.24640 -3.49484 0.38474 54 59 86
1.26039 -3.48883 0.36444 69 68 96
1.24469 -3.49707 0.36699 64 68 97
1.22900 -3.50531 0.36954 58 65 98
1.23462 -3.50696 0.38612 61 69 106
1.21720 -3.51745 0.37091 56 63 101
1.22957 -3.52586 0.38550 75 84 120
1.21575 -3.53608 0.38748 85 89 135
1.22665 -3.57134 0.38208 83 85 131
1.22014 -3.58923 0.38185 83 86 136
1.21835 -3.63698 0.37798 72 78 104
1.20055 -3.64769 0.36243 59 65 99
1.21546 -3.65908 0.37662 65 71 104
1.19759 -3.66984 0.36102 60 65 105
1.20913 -3.67778 0.37629 62 65 107
1.19121 -3.68856 0.36064 62 67 106
1.19642 -3.68989 0.37787 58 60 110
1.18845 -3.70708 0.37801 57 63 105
1.16867 -3.73767 0.37943 62 67 99
1.16839 -3.76349 0.37720 71 74 108
1.16946 -3.79102 0.37453 84 98 132
1.15923 -3.80644 0.37530 118 140 161
1.14582 -3.81841 0.37704 151 171 180
1.14476 -3.84417 0.37497 153 163 179
1.13203 -3.85710 0.37648 131 139 150
1.11403 -3.86416 0.37962 113 118 138
1.10222 -3.87821 0.38084 115 125 146
1.09796 -3.90095 0.37971 135 149 164
1.07953 -3.91205 0.36362 154 165 188
1.08156 -3.93790 0.37986 162 173 183
1.06258 -3.97237 0.38077 167 174 178
1.04399 -3.98356 0.36453 205 212 206
1.04924 -3.98523 0.38241 187 188 187
1.03381 -3.99565 0.38472 205 207 194
-1.90583 -3.90575 1.00710 98 100 86
-1.89231 -3.89761 1.01891 96 96 96
-1.89364 -3.89935 1.00512 93 99 96
-1.89496 -3.90108 0.99133 106 106 89
-1.90716 -3.90748 0.99331 107 104 79
-1.91684 -3.92127 1.00802 70 67 64
-1.93039 -3.92942 0.99619 33 32 33
-1.92949 -3.92429 1.01040 43 36 37
-1.94303 -3.93244 0.99857 19 19 16
2.52076 -3.22945 0.12274 70 62 72
2.53576 -3.22301 0.10098 71 67 62
2.50682 -3.24027 0.12468 83 81 94
2.51150 -3.26389 0.12153 167 176 185
2.42073 -3.28315 0.13888 242 243 240
2.43573 -3.27671 0.11711 245 244 246
2.41889 -3.28554 0.11984 242 243 245
2.40206 -3.29438 0.12258 244 243 246
2.39353 -3.28465 0.14447 243 241 239
2.37490 -3.29586 0.12820 245 245 246
2.35318 -3.27669 0.15370 244 245 245
2.33465 -3.28785 0.13752 244 245 245
2.28863 -3.39866 0.15609 249 249 245
2.29615 -3.42599 0.15199 227 227 223
2.32932 -3.47298 0.14068 150 143 169
2.31021 -3.48448 0.12399 123 105 128
1.29135 -3.40251 0.36585 196 199 199
1.30516 -3.39658 0.34581 196 200 222
1.29221 -3.42628 0.36349 91 83 121
1.28837 -3.44573 0.36251 59 57 94
1.27105 -3.45615 0.34738 59 64 96
1.23465 -3.55908 0.36340 58 63 99
1.24878 -3.55300 0.34289 65 70 101
1.23292 -3.56133 0.34547 66 71 102
1.21707 -3.56966 0.34804 66 68 101
1.23445 -3.58326 0.36122 63 57 97
1.21679 -3.59389 0.34579 66 66 104
1.23612 -3.60956 0.35844 60 57 107
1.21838 -3.62024 0.34295 66 63 106
1.23195 -3.63010 0.35743 62 58 104
1.21415 -3.64082 0.34189 65 64 105
1.18687 -3.70958 0.35962 64 65 107
1.18181 -3.72999 0.35881 71 72 113
1.17596 -3.74973 0.35823 81 93 129
1.15787 -3.76061 0.34244 149 171 179
1.19234 -3.79367 0.35073 117 131 161
1.17256 -3.79869 0.35444 146 167 177
1.15882 -3.81028 0.35627 148 168 170
1.15115 -3.82862 0.35620 132 146 155
1.14201 -3.84547 0.35657 119 122 148
1.12727 -3.85615 0.35870 121 120 137
1.11856 -3.87364 0.35893 132 140 151
1.08115 -3.94191 0.36053 169 176 191
1.07933 -3.94429 0.34163 189 197 183
1.06262 -3.95306 0.34435 191 189 179
1.07493 -3.96292 0.35991 188 193 188
1.06392 -3.97847 0.36080 196 202 194
1.02853 -3.99394 0.36683 202 206 196
1.02670 -3.99633 0.34785 197 196 194
1.00769 -3.99788 0.37086 183 184 176
0.99094 -4.00668 0.37358 170 176 165
0.98911 -4.00906 0.35463 188 191 176
2.53242 -3.24102 0.09997 77 70 75
2.51719 -3.25100 0.10225 73 79 87
2.53111 -3.28106 0.09644 127 131 142
2.50220 -3.28173 0.10251 208 214 225
2.48341 -3.29304 0.08610 232 234 245
2.30332 -3.39184 0.13427 246 246 245
2.32028 -3.38293 0.13152 247 247 247
2.34520 -3.46677 0.11824 193 189 198
2.26867 -3.47487 0.13373 166 162 159
2.24965 -3.48631 0.11712 190 190 194
2.22120 -3.46046 0.14518 185 188 180
2.20602 -3.46699 0.16721 144 141 107
2.20231 -3.47183 0.12868 190 179 187
1.29870 -3.41330 0.34559 204 206 208
1.31254 -3.40736 0.32550 196 198 224
1.26997 -3.40886 0.35211 143 148 158
1.20801 -3.68488 0.33900 69 65 114
1.22417 -3.67639 0.33637 71 66 108
1.19437 -3.69604 0.34083 64 63 118
1.19042 -3.71753 0.33962 74 82 129
1.17242 -3.72837 0.32390 145 162 172
1.21100 -3.76541 0.33070 106 118 157
1.19683 -3.77643 0.33266 137 160 182
1.17378 -3.80431 0.33490 133 150 159
1.17198 -3.80665 0.31629 114 123 146
1.16146 -3.81750 0.33626 120 128 147
1.15206 -3.83397 0.33669 117 124 147
1.13728 -3.84456 0.33882 124 139 167
1.13031 -3.86392 0.33846 143 157 177
1.11515 -3.87420 0.34070 159 170 185
1.09678 -3.88525 0.32466 180 183 181
1.10301 -3.88791 0.34197 161 174 193
1.08461 -3.89898 0.32591 182 177 175
1.06533 -3.98467 0.34076 191 185 175
1.08030 -3.97824 0.31903 184 188 195
1.06350 -3.98706 0.32176 179 180 188
1.04423 -3.98840 0.34489 195 192 190
1.00648 -4.00100 0.35170 195 196 178
1.00466 -4.00338 0.33275 197 199 189
0.98790 -4.01218 0.33547 185 191 187
2.55551 -3.24000 0.07589 78 70 71
2.57425 -3.22872 0.09226 69 61 61
2.57241 -3.23112 0.07314 73 62 70
2.57057 -3.23353 0.05403 78 67 70
2.53676 -3.25128 0.05952 89 85 84
2.53963 -3.24958 0.07834 85 77 78
2.53357 -3.26588 0.07804 106 101 98
2.53648 -3.28845 0.07519 133 135 145
2.50751 -3.28910 0.08133 187 190 211
2.32852 -3.39282 0.10944 234 238 242
2.32049 -3.45200 0.10533 128 99 141
2.30146 -3.46345 0.08872 182 183 178
2.28769 -3.44914 0.11264 123 118 143
2.26873 -3.46055 0.09608 186 189 188
2.26922 -3.45707 0.11581 167 160 169
2.25027 -3.46847 0.09926 188 189 190
2.23402 -3.45212 0.12383 192 189 188
2.21513 -3.46349 0.10734 185 185 189
1.31171 -3.42950 0.32349 198 201 208
1.32561 -3.42353 0.30332 194 200 219
1.31001 -3.43172 0.30585 195 202 209
1.29611 -3.43769 0.32603 184 191 190
1.30230 -3.46687 0.32183 72 80 119
1.21556 -3.67155 0.32026 68 67 114
1.23169 -3.66307 0.31764 64 65 111
1.20779 -3.68881 0.32022 77 79 126
1.22241 -3.72983 0.31306 88 108 153
1.22205 -3.75535 0.31062 123 148 175
1.19366 -3.77727 0.31454 137 151 172
1.19187 -3.77960 0.29599 108 123 148
1.18690 -3.79635 0.31411 123 130 159
1.15999 -3.82019 0.31753 121 135 158
1.13848 -3.82327 0.32183 134 154 178
1.11557 -3.85176 0.32393 167 174 192
1.11216 -3.87522 0.32235 173 175 188
1.03164 -3.97803 0.32947 181 176 194
1.04655 -3.97163 0.30783 191 194 187
1.02982 -3.98041 0.31055 193 182 177
1.01309 -3.98920 0.31327 195 176 183
1.01506 -3.98699 0.33214 196 193 200
2.56157 -3.24776 0.05452 83 74 80
2.57665 -3.24128 0.03263 79 71 72
2.54367 -3.27648 0.05546 112 113 108
2.53363 -3.29018 0.05624 145 148 143
2.51051 -3.29488 0.06075 180 177 183
2.47788 -3.29288 0.06799 220 220 229
2.46279 -3.29936 0.08989 243 244 247
2.46109 -3.30187 0.07070 241 243 248
2.44600 -3.30836 0.09260 241 242 244
2.44415 -3.31076 0.07345 242 244 246
2.44231 -3.31317 0.05430 245 247 248
2.38031 -3.37038 0.08117 241 241 243
2.39917 -3.35903 0.09764 244 245 247
2.39732 -3.36145 0.07841 244 244 246
2.38216 -3.36796 0.10040 243 244 245
2.35911 -3.37625 0.08515 234 233 239
2.35561 -3.39511 0.08399 207 213 228
2.39094 -3.44289 0.07151 175 154 192
2.32648 -3.43846 0.08586 130 94 141
2.34473 -3.47415 0.07830 158 148 154
2.32560 -3.48566 0.06160 187 190 182
1.58372 -3.54757 0.23503 191 186 202
1.60183 -3.53667 0.25084 193 190 210
1.60005 -3.53899 0.23238 201 193 202
1.58550 -3.54525 0.25350 192 189 199
1.56917 -3.55382 0.25615 188 196 202
1.56561 -3.55847 0.21922 200 204 211
1.30073 -3.44596 0.30641 200 203 201
1.31465 -3.43998 0.28620 194 199 208
1.30548 -3.47382 0.30255 112 134 153
1.30590 -3.49772 0.30003 65 57 96
1.29184 -3.50376 0.32044 65 67 100
1.29012 -3.50601 0.30260 63 64 98
1.28840 -3.50825 0.28475 63 65 102
1.23871 -3.67446 0.29657 69 73 110
1.25665 -3.66367 0.31224 62 66 111
1.25489 -3.66597 0.29394 60 67 106
1.22917 -3.68988 0.29706 82 95 128
1.22917 -3.71541 0.29447 115 137 163
1.21777 -3.72912 0.29554 137 164 180
1.21578 -3.75291 0.29355 137 157 176
1.20495 -3.76743 0.29441 123 133 153
1.18673 -3.80044 0.29499 114 128 164
1.17054 -3.80937 0.29757 129 148 175
1.15762 -3.82190 0.29909 144 167 189
1.13935 -3.83290 0.28313 175 179 198
1.14686 -3.83688 0.29989 153 175 193
1.13740 -3.85340 0.30025 167 181 196
1.11777 -3.85860 0.30395 181 188 205
1.11308 -3.88065 0.30273 189 195 198
1.09470 -3.89170 0.28668 192 199 198
1.10668 -3.90093 0.30205 192 189 187
1.09006 -3.90965 0.30475 192 183 187
1.08825 -3.91202 0.28595 187 188 193
2.56392 -3.25301 0.03417 83 77 81
2.57902 -3.24652 0.01225 79 72 80
2.56207 -3.25542 0.01500 82 75 83
2.54799 -3.26260 0.03663 93 92 83
2.54458 -3.28079 0.03546 124 127 117
2.52652 -3.28897 0.03853 160 165 153
2.50578 -3.29529 0.04238 176 185 180
2.48185 -3.29935 0.04715 197 205 211
2.46413 -3.30771 0.05013 229 235 242
2.44533 -3.31902 0.03371 240 243 249
2.41496 -3.35674 0.05568 243 244 246
2.43383 -3.34538 0.07216 242 242 246
2.43198 -3.34780 0.05292 243 245 247
2.41681 -3.35431 0.07492 245 245 247
2.39785 -3.36560 0.05847 236 238 242
2.39813 -3.40863 0.05390 189 155 182
2.39733 -3.42968 0.05187 137 106 168
2.37667 -3.43614 0.05568 119 110 169
2.30277 -3.44632 0.07069 193 191 176
2.28381 -3.45773 0.05412 187 183 193
1.58211 -3.55005 0.21651 196 205 219
1.56400 -3.56095 0.20070 197 201 215
1.30854 -3.45731 0.28572 196 197 208
1.32250 -3.45131 0.26546 195 200 210
1.30683 -3.45954 0.26800 194 196 213
1.29805 -3.47053 0.28661 176 179 181
1.31766 -3.51306 0.27789 80 68 104
1.25474 -3.64487 0.27775 65 66 102
1.27261 -3.63412 0.29336 61 67 105
1.27086 -3.63641 0.27514 66 66 106
1.25650 -3.64258 0.29597 64 69 100
1.24666 -3.66160 0.27776 73 84 101
1.22875 -3.67238 0.26212 134 152 163
1.23974 -3.67966 0.27737 107 122 139
1.23726 -3.70248 0.27552 133 157 169
1.22741 -3.71775 0.27606 139 156 168
1.21592 -3.73135 0.27713 121 136 157
1.20366 -3.74421 0.27845 113 122 143
1.20042 -3.76681 0.27678 115 124 146
1.19009 -3.78194 0.27744 121 142 170
1.17797 -3.79521 0.27869 139 166 186
1.16823 -3.81114 0.27914 155 177 194
1.14998 -3.82212 0.26320 181 193 200
1.15362 -3.82182 0.28119 161 187 204
1.13537 -3.83280 0.26525 183 188 192
1.13836 -3.85883 0.28063 187 189 191
1.12001 -3.86987 0.26461 203 206 201
1.11890 -3.86425 0.28429 205 208 198
1.10057 -3.87528 0.26829 208 210 205
1.11200 -3.88382 0.28374 208 213 207
-1.91444 -4.00112 0.92951 47 37 36
-1.90201 -3.99460 0.92749 86 81 78
-1.92687 -4.00765 0.93153 41 34 31
-1.92823 -4.00942 0.91747 52 50 32
2.54993 -3.26759 0.01635 106 104 95
2.54322 -3.28354 0.01610 146 147 133
2.52437 -3.29488 -0.00036 175 177 160
2.52217 -3.28966 0.02005 169 173 159
2.50334 -3.30100 0.00360 175 177 169
2.50408 -3.29781 0.02313 177 179 178
