ply
format ascii 1.0
element face 0
property list uchar int vertex_indices
element vertex 1363
property float x
property float y
property float z
property uchar diffuse_red
property uchar diffuse_green
property uchar diffuse_blue
end_header
1.86176 -3.02881 2.67490 16 8 12
1.85480 -3.04076 2.67855 23 11 33
1.86067 -3.06835 2.68659 42 40 67
1.85686 -3.08443 2.69141 81 87 103
1.83712 -3.08110 2.69077 80 64 75
1.82295 -3.08736 2.67907 70 56 53
1.56371 -3.79200 2.90544 75 63 49
1.57562 -3.78606 2.88772 81 65 57
1.55050 -3.79998 2.90803 58 48 41
1.53729 -3.80798 2.91063 33 13 35
1.52111 -3.81513 2.89726 17 17 22
0.72464 -3.40186 2.80514 32 39 44
0.73635 -3.39640 2.80332 35 39 47
0.73458 -3.39690 2.79035 37 38 51
0.71292 -3.40732 2.80696 38 54 68
0.70325 -3.41799 2.81028 95 117 143
0.68973 -3.42396 2.79911 108 120 147
0.00248 -4.39252 3.11032 92 103 102
0.01821 -4.38557 3.12332 88 87 103
0.01614 -4.38615 3.10820 83 86 101
-0.02245 -4.31667 3.08838 40 45 54
-0.03556 -4.32512 3.09110 20 19 36
-0.04931 -4.32875 3.09242 12 13 30
-0.06242 -4.33726 3.09516 28 55 71
-0.07978 -4.31160 3.08790 129 167 191
-0.09031 -4.34090 3.09673 158 172 201
-0.10233 -4.35869 3.10219 149 163 192
-0.11779 -4.36551 3.08943 121 137 174
-0.11459 -4.37516 3.10727 149 160 194
-0.26916 -4.35894 3.10522 161 170 186
-0.40859 -4.25729 3.07768 149 154 161
-0.42218 -4.24249 3.07356 148 150 157
-0.43615 -4.21476 3.06562 145 147 150
-0.44898 -4.21263 3.06522 143 146 147
-0.46177 -4.20984 3.06462 137 138 138
-0.47476 -4.19904 3.06166 113 113 117
-0.48729 -4.20098 3.06246 91 93 93
-0.49984 -4.20124 3.06276 73 78 91
-0.51412 -4.20755 3.05096 48 53 114
-0.51238 -4.20043 3.06274 57 60 112
-0.52664 -4.20672 3.05096 28 49 131
-0.52483 -4.20229 3.06351 40 53 127
-0.53907 -4.20858 3.05174 23 52 128
-0.53707 -4.21603 3.06778 35 59 130
-0.54923 -4.23980 3.07501 39 68 131
-0.56142 -4.27177 3.08466 36 66 130
-0.58609 -4.38255 3.11780 87 104 128
-0.59890 -4.38682 3.11928 103 111 120
-0.61177 -4.41996 3.12929 68 64 58
-0.62480 -4.45240 3.13910 19 18 13
-0.63974 -4.45900 3.12676 10 11 17
2.04610 -2.66668 2.55201 71 68 75
2.05574 -2.66187 2.53767 69 53 65
1.91063 -3.00893 2.65449 41 34 57
1.89778 -3.01383 2.65617 39 27 52
1.88743 -3.02169 2.65866 32 25 42
1.87910 -3.03197 2.66182 35 33 50
1.86503 -3.03818 2.65020 74 71 77
1.88544 -3.05986 2.66984 52 52 61
1.87127 -3.06612 2.65812 75 69 82
1.87680 -3.07000 2.67296 65 64 72
1.86580 -3.07736 2.67532 73 73 84
1.85417 -3.08397 2.67747 82 80 91
1.83996 -3.09024 2.66574 73 60 64
1.83790 -3.08488 2.67805 77 64 69
1.82371 -3.09114 2.66633 71 55 54
1.56442 -3.79747 2.89127 77 64 50
1.57634 -3.79152 2.87353 81 65 60
1.55056 -3.80436 2.89355 63 52 45
1.53654 -3.81098 2.89575 29 15 40
1.52034 -3.81814 2.88237 20 19 19
0.72582 -3.40976 2.79427 36 37 52
0.73577 -3.40479 2.77946 33 40 49
0.71407 -3.41523 2.79610 41 54 72
0.70398 -3.42492 2.79912 93 117 142
0.69044 -3.43090 2.78793 109 120 146
0.01410 -4.38701 3.09316 109 112 113
0.00141 -4.40035 3.09730 96 102 98
-0.02308 -4.32756 3.07653 48 47 61
-0.03654 -4.33366 3.07857 20 10 24
-0.04997 -4.33992 3.08065 9 12 42
-0.06377 -4.34329 3.08190 38 69 82
-0.08262 -4.30546 3.07123 108 145 179
-0.09228 -4.34193 3.08206 124 143 183
-0.10425 -4.36034 3.08766 120 140 179
-0.43825 -4.21052 3.05037 163 173 193
-0.45121 -4.20407 3.04874 163 173 191
-0.46367 -4.21036 3.05081 148 149 163
-0.47670 -4.19776 3.04738 107 104 116
-0.48922 -4.20009 3.04831 82 84 94
-0.50351 -4.20641 3.03650 69 80 102
-0.50176 -4.20028 3.04860 67 72 93
-0.55134 -4.22264 3.05608 22 51 127
-0.55322 -4.22317 3.04237 27 49 122
-0.56561 -4.22894 3.04429 33 51 118
-0.56364 -4.23738 3.06062 20 48 127
-0.57579 -4.28542 3.07487 43 64 121
-0.60085 -4.38861 3.10547 93 109 122
-0.61372 -4.41725 3.11407 61 61 59
-0.62688 -4.47207 3.13033 18 16 13
-0.64189 -4.47870 3.11793 15 12 13
2.04726 -2.66998 2.54018 73 62 72
2.05690 -2.66516 2.52583 71 53 57
2.03878 -2.67812 2.54271 81 77 89
2.02566 -2.68391 2.53188 82 81 100
1.95246 -3.02026 2.64321 44 42 69
1.96661 -3.01401 2.65489 48 49 60
1.96474 -3.01453 2.64130 48 46 63
1.95432 -3.01973 2.65680 43 46 64
1.93376 -3.01857 2.64311 40 41 68
1.92065 -3.02328 2.64474 53 46 74
1.90654 -3.02951 2.63308 73 70 85
1.91452 -3.03616 2.64858 60 58 79
1.90901 -3.04987 2.65265 63 65 80
1.86448 -3.07856 2.66185 75 65 73
1.86260 -3.07908 2.64820 69 55 61
1.85027 -3.08483 2.65012 70 55 58
1.84988 -3.08155 2.66302 75 63 64
1.83569 -3.08782 2.65129 71 58 65
1.56594 -3.80434 2.87744 80 65 56
1.57788 -3.79837 2.85967 82 65 65
1.55185 -3.81090 2.87963 67 54 49
1.53749 -3.81697 2.88168 26 17 41
1.52127 -3.82413 2.86828 30 22 30
0.72694 -3.41756 2.78333 35 39 53
0.73692 -3.41258 2.76848 32 39 47
0.71518 -3.42304 2.78515 43 55 77
0.71017 -3.44584 2.79183 97 118 142
0.69655 -3.45186 2.78058 108 119 145
0.03683 -4.45741 3.09766 163 186 159
0.01593 -4.41495 3.08585 131 131 132
-0.00291 -4.38480 3.07755 98 95 95
-0.02199 -4.35118 3.06824 66 62 67
-0.03799 -4.33868 3.06497 22 8 15
-0.05144 -4.34494 3.06706 7 12 38
-0.06512 -4.34932 3.06861 26 47 68
-0.07902 -4.35188 3.06963 79 106 141
-0.08957 -4.38226 3.07862 80 100 137
-0.10189 -4.39879 3.08364 78 106 145
-0.13103 -4.39255 3.08245 86 112 143
-0.20450 -4.35878 3.07424 104 128 162
-0.20651 -4.35935 3.05954 66 94 113
-0.22056 -4.33392 3.06740 107 128 171
-0.23064 -4.37591 3.07972 114 136 172
-0.24567 -4.36131 3.07582 117 136 169
-0.26092 -4.34225 3.07064 119 136 175
-0.27425 -4.34602 3.07201 123 136 181
-0.28641 -4.36544 3.07786 127 141 182
-0.29809 -4.39279 3.08599 125 141 182
-0.42692 -4.22207 3.03943 143 157 184
-0.44016 -4.21069 3.03642 145 155 189
-0.45287 -4.21092 3.03675 148 155 183
-0.46566 -4.20779 3.03611 119 122 149
-0.47857 -4.19889 3.03381 86 86 105
-0.49124 -4.19540 3.03307 75 82 98
-0.51634 -4.19187 3.03258 52 59 119
-0.52869 -4.19763 3.03449 35 49 131
-0.54109 -4.20015 3.03548 28 48 122
-0.57781 -4.26709 3.05555 48 57 104
-0.59017 -4.31810 3.07053 65 76 102
-0.60279 -4.34483 3.07850 69 75 92
-0.61740 -4.35128 3.06643 53 37 42
-0.61579 -4.45491 3.11052 45 37 45
-0.62890 -4.48006 3.11805 19 12 12
2.04779 -2.67267 2.52818 72 56 64
2.05745 -2.66786 2.51381 71 54 54
2.04606 -2.67316 2.51558 68 53 64
2.03468 -2.67847 2.51735 74 69 83
2.04083 -2.68232 2.53108 79 71 87
2.02769 -2.68812 2.52023 81 82 100
2.01348 -3.05281 2.63734 54 47 75
2.02595 -3.04700 2.63540 49 47 69
2.01538 -3.05228 2.65113 50 48 68
1.99912 -3.05916 2.62547 73 71 89
1.98266 -3.03765 2.63370 57 52 82
1.96840 -3.04395 2.62192 74 71 89
1.97006 -3.04317 2.63556 61 61 87
1.94455 -3.03373 2.63344 63 70 90
1.93047 -3.03742 2.63480 73 72 92
1.90616 -3.04925 2.63872 69 66 88
1.89198 -3.05551 2.62701 61 48 62
1.89378 -3.05490 2.64061 66 58 73
1.87961 -3.06116 2.62890 66 50 58
1.88454 -3.06430 2.64350 68 55 64
1.87034 -3.07057 2.63177 68 53 57
1.56951 -3.81474 2.86452 82 67 62
1.58148 -3.80876 2.84670 84 69 67
1.55539 -3.82132 2.86671 71 58 53
1.53821 -3.82257 2.86746 31 20 44
1.52197 -3.82975 2.85404 21 19 32
0.72642 -3.42123 2.77118 36 38 46
0.73641 -3.41625 2.75631 34 41 54
0.71957 -3.43924 2.77647 46 59 81
0.71175 -3.45501 2.78114 97 119 144
0.69809 -3.46105 2.76986 106 120 143
0.25035 -4.10581 2.97703 117 132 163
0.26550 -4.09912 2.98955 123 135 166
0.26351 -4.09968 2.97499 122 135 165
0.25235 -4.10525 2.99159 123 136 168
0.23919 -4.11138 2.99363 121 136 167
0.23719 -4.11195 2.97907 103 122 156
0.13648 -4.72169 3.15519 109 121 132
0.15356 -4.71415 3.16930 55 63 81
0.15131 -4.71478 3.15288 89 97 105
0.13873 -4.72106 3.17160 54 62 82
0.12390 -4.72797 3.17390 63 61 83
0.12165 -4.72861 3.15749 113 121 154
0.05214 -4.47514 3.08677 128 152 183
0.06824 -4.46802 3.10007 91 100 113
0.06612 -4.46862 3.08460 114 127 173
0.06400 -4.46922 3.06913 67 64 139
0.05002 -4.47573 3.07130 59 75 144
0.03675 -4.47197 3.08621 126 142 163
0.00697 -4.36725 3.05702 78 87 120
-0.00661 -4.37366 3.05915 80 89 103
-0.02143 -4.37103 3.05873 81 76 74
-0.03862 -4.34991 3.05309 22 8 10
-0.05210 -4.35619 3.05519 7 11 26
-0.06548 -4.36333 3.05752 11 24 46
-0.08209 -4.34400 3.05238 68 92 119
-0.09764 -4.33221 3.04937 61 81 96
-0.11198 -4.32981 3.04900 46 78 97
-0.12745 -4.31684 3.04565 43 79 97
-0.14273 -4.32359 3.03304 49 77 83
-0.14351 -4.29731 3.04044 47 78 94
-0.15870 -4.30401 3.02790 51 79 80
-0.15986 -4.27345 3.03400 50 82 91
-0.17494 -4.28011 3.02155 52 79 85
-0.17377 -4.27153 3.03377 52 83 99
-0.18882 -4.27818 3.02134 56 79 88
-0.22315 -4.32796 3.05096 67 96 125
-0.21199 -4.32239 3.03436 46 78 87
-0.22515 -4.32852 3.03640 41 75 87
-0.24719 -4.36772 3.06284 73 101 138
-0.28668 -4.38961 3.06996 88 113 148
-0.30195 -4.39636 3.05735 50 80 101
-0.29978 -4.39799 3.07265 88 113 149
-0.31506 -4.40474 3.06003 49 84 107
-0.41557 -4.23231 3.02799 115 134 164
-0.41748 -4.23285 3.01404 79 101 145
-0.43004 -4.19371 3.01731 117 133 162
-0.44274 -4.19379 3.01762 119 132 163
-0.45512 -4.20172 3.02016 119 128 151
-0.46758 -4.20751 3.02209 80 90 108
-0.48033 -4.20372 3.02129 53 61 85
-0.49294 -4.20270 3.02128 56 67 91
-0.50560 -4.19812 3.02026 62 73 99
-0.51812 -4.19748 3.02036 58 63 116
-0.53057 -4.19801 3.02079 52 52 115
-0.54280 -4.21158 3.02493 41 43 94
-0.55507 -4.22604 3.02933 36 42 95
-0.56732 -4.25033 3.03653 45 56 101
-0.57966 -4.27613 3.04416 62 70 99
-0.59207 -4.32405 3.05810 69 75 95
-0.63093 -4.48721 3.10549 38 18 17
-0.63291 -4.48777 3.09103 90 78 75
-0.64403 -4.49690 3.10855 29 15 17
-0.65512 -4.50244 3.12506 14 15 19
2.03908 -3.06449 2.62602 63 60 87
2.05353 -3.05811 2.63795 51 51 73
2.05162 -3.05864 2.62407 60 53 82
2.04972 -3.05918 2.61020 76 70 95
2.03718 -3.06502 2.61214 75 71 91
1.94758 -3.03995 2.62129 73 69 91
1.93086 -3.04058 2.62187 73 63 82
1.91667 -3.04685 2.61015 68 51 58
1.91860 -3.04639 2.62380 69 57 64
1.90441 -3.05265 2.61208 69 51 56
1.90400 -3.04943 2.62501 65 52 61
1.88983 -3.05569 2.61330 67 51 54
1.56645 -3.81378 2.84848 85 70 74
1.57842 -3.80780 2.83067 85 70 75
1.56431 -3.81438 2.83286 86 72 76
1.55234 -3.82036 2.85067 75 59 60
1.54026 -3.83050 2.85382 31 20 36
1.52399 -3.83769 2.84037 20 19 30
0.72901 -3.43274 2.76114 35 39 52
0.73903 -3.42774 2.74623 34 41 50
0.72336 -3.45394 2.76725 44 61 84
0.71452 -3.46725 2.77121 94 118 145
0.70081 -3.47331 2.75989 106 120 141
0.27371 -4.08974 2.95717 121 135 165
0.28885 -4.08305 2.96968 123 134 165
0.28685 -4.08361 2.95513 122 135 165
0.28485 -4.08418 2.94059 122 135 165
0.27570 -4.08918 2.97172 122 134 165
0.26146 -4.10002 2.96036 114 123 155
0.24891 -4.10904 2.96320 82 87 126
0.23440 -4.10868 2.96345 46 61 100
0.22325 -4.11425 2.98004 92 108 150
0.22312 -4.12394 2.96802 33 46 98
0.21195 -4.12951 2.98465 86 103 143
0.21102 -4.13544 2.97155 34 47 97
0.19984 -4.14102 2.98820 88 107 139
0.19838 -4.14435 2.97436 46 61 106
0.18718 -4.14994 2.99102 89 106 131
0.18518 -4.15050 2.97641 61 77 112
0.18317 -4.15106 2.96181 46 55 91
0.26528 -5.21326 3.27398 114 126 140
0.25131 -5.22023 3.29477 62 70 102
0.15552 -4.85639 3.17604 160 175 169
0.13794 -4.86416 3.16152 107 99 107
0.00568 -4.37329 3.04349 28 48 101
-0.01005 -4.36434 3.04135 68 84 105
-0.02452 -4.36392 3.04157 88 90 81
-0.04146 -4.34445 3.03649 24 11 6
-0.05493 -4.35073 3.03858 9 12 16
-0.06907 -4.35159 3.03916 11 23 37
-0.08408 -4.34499 3.03766 61 92 107
-0.09979 -4.33172 3.03430 61 82 83
-0.11400 -4.33038 3.03426 50 80 82
-0.12935 -4.33716 3.02159 37 67 74
-0.24015 -4.31319 3.03244 37 72 91
-0.24214 -4.31375 3.01794 41 70 78
-0.25523 -4.31985 3.01998 41 70 75
-0.25111 -4.34517 3.04171 34 69 89
-0.26628 -4.35187 3.02918 39 70 73
-0.43126 -4.21070 3.00813 81 101 148
-0.42063 -4.20540 2.99232 33 59 92
-0.44418 -4.20613 3.00715 82 101 150
-0.45672 -4.21060 3.00871 79 94 131
-0.46940 -4.21044 3.00897 48 60 66
-0.48376 -4.21679 2.99710 30 35 46
-0.48210 -4.20840 3.00870 24 38 48
-0.49468 -4.20916 3.00921 33 44 66
-0.50739 -4.20287 3.00774 50 55 84
-0.52002 -4.19689 3.00636 67 77 110
-0.53243 -4.19967 3.00744 75 83 117
-0.54475 -4.20696 3.00979 68 66 94
-0.55689 -4.23264 3.01732 55 54 85
-0.56916 -4.25707 3.02449 54 66 87
-0.58151 -4.28680 3.03317 67 80 95
-0.59403 -4.30184 3.03771 63 69 94
-0.64632 -4.52745 3.10253 75 64 68
-0.64832 -4.52802 3.08796 143 139 135
-0.66148 -4.53415 3.09000 130 122 109
2.01910 -3.06456 2.61248 75 71 89
1.98846 -3.04966 2.60911 72 67 78
1.97415 -3.05598 2.59728 69 54 62
1.96997 -3.04845 2.60924 70 60 73
1.95569 -3.05476 2.59745 69 55 60
1.94483 -3.03945 2.60738 68 56 70
1.93062 -3.04573 2.59564 67 54 58
1.92479 -3.03620 2.60698 67 53 66
1.91063 -3.04246 2.59528 71 53 53
1.54995 -3.82055 2.83494 78 63 57
1.56192 -3.81457 2.81713 87 74 67
1.54046 -3.83520 2.83926 35 25 41
0.73594 -3.45524 2.75396 39 42 54
0.74603 -3.45020 2.73895 35 40 44
0.72909 -3.47362 2.75926 50 64 81
0.71627 -3.47691 2.76050 95 120 141
0.70252 -3.48298 2.74915 104 120 146
0.27209 -4.09202 2.94310 114 126 158
0.25966 -4.10152 2.94606 84 83 122
0.24472 -4.09921 2.94580 38 30 75
0.23280 -4.11113 2.94942 15 20 58
0.21765 -4.11782 2.93691 15 22 44
0.22082 -4.12301 2.95304 13 21 57
0.20831 -4.13245 2.95598 16 25 60
0.19585 -4.14227 2.95903 27 36 74
0.18066 -4.14898 2.94648 51 58 81
-0.01023 -4.37854 3.03008 63 76 98
0.00131 -4.37278 3.01290 39 50 88
-0.02680 -4.36287 3.02614 94 99 93
-0.04415 -4.34017 3.02026 28 17 9
-0.05964 -4.34701 3.00746 12 17 37
-0.05788 -4.34420 3.02173 11 15 19
-0.07221 -4.34335 3.02186 12 20 37
-0.08765 -4.33288 3.01934 42 71 82
-0.10256 -4.32600 3.01780 45 69 75
-0.11723 -4.32046 3.01663 40 69 73
-0.14930 -4.28192 3.00672 39 68 76
-0.15130 -4.28248 2.99219 27 51 60
-0.16243 -4.28804 3.00875 44 72 80
-0.23360 -4.25609 3.00167 40 69 78
-0.22066 -4.25006 2.99966 44 71 81
-0.43283 -4.21925 2.99649 33 59 103
-0.42219 -4.21394 2.98066 43 61 82
-0.43474 -4.21978 2.98260 34 54 100
-0.44580 -4.21385 2.99532 37 60 116
-0.45845 -4.21593 2.99622 39 58 106
-0.47115 -4.21548 2.99642 36 42 63
-0.50910 -4.21085 2.99609 46 49 79
-0.52184 -4.19994 2.99338 63 68 95
-0.53426 -4.20266 2.99446 80 87 101
-0.54850 -4.20895 2.98270 82 81 82
-0.54660 -4.20981 2.99676 88 88 87
-0.55870 -4.24045 3.00560 72 73 71
-0.57106 -4.25673 3.01045 52 54 54
-0.58345 -4.27927 3.01704 52 48 55
-0.59594 -4.30514 3.02456 48 51 76
-0.60865 -4.39999 3.05130 85 102 116
-0.63514 -4.52109 3.08570 154 153 144
-0.65031 -4.52779 3.07317 160 158 162
2.06768 -2.73218 2.50567 79 76 94
2.05785 -2.73709 2.52030 76 77 98
2.05609 -2.73758 2.50747 77 78 93
2.05433 -2.73808 2.49465 78 80 95
2.05752 -2.75605 2.51252 66 64 85
2.05575 -2.75655 2.49963 68 64 85
2.04764 -2.76098 2.52722 61 62 85
2.04373 -2.75932 2.51379 59 57 80
2.03209 -2.76475 2.51560 56 55 72
2.03033 -2.76524 2.50272 54 53 68
2.04695 -3.07875 2.60158 74 58 75
2.03244 -3.08516 2.58960 72 54 62
2.02372 -3.07252 2.60050 70 57 71
2.00927 -3.07890 2.58856 72 56 58
1.99336 -3.05796 2.59731 69 56 64
1.97901 -3.06430 2.58546 73 57 60
1.55146 -3.82749 2.82097 80 65 54
1.56345 -3.82151 2.80313 87 74 66
1.54189 -3.84209 2.82524 39 27 46
1.52883 -3.85063 2.82794 24 20 32
1.51680 -3.85663 2.84583 21 18 22
1.51465 -3.85723 2.83014 24 20 25
1.51250 -3.85784 2.81446 29 23 25
0.74058 -3.47199 2.74509 40 41 49
0.75071 -3.46694 2.73001 33 42 49
0.73776 -3.50084 2.75311 55 68 85
0.71768 -3.48574 2.74950 97 121 145
0.70391 -3.49183 2.73811 102 118 143
0.28416 -4.09062 2.92763 123 134 161
0.29932 -4.08392 2.94015 121 135 161
0.29732 -4.08448 2.92558 121 134 160
0.29532 -4.08505 2.91102 121 133 158
0.27114 -4.09743 2.92985 103 113 141
0.25533 -4.09117 2.92856 45 48 82
0.24324 -4.10222 2.93193 17 9 39
0.23122 -4.11374 2.93542 14 16 46
0.20692 -4.13607 2.94222 18 29 48
0.19428 -4.14502 2.94502 29 38 63
0.17908 -4.15173 2.93247 59 68 84
-0.01277 -4.37569 3.01408 53 68 93
-0.00124 -4.36993 2.99692 33 44 84
-0.03146 -4.34405 3.00588 90 98 103
-0.04689 -4.33539 3.00392 30 20 22
-0.06236 -4.34223 2.99114 8 12 37
-0.07493 -4.33836 3.00549 14 19 44
-0.08988 -4.33182 3.00410 24 41 60
-0.10436 -4.32845 3.00357 27 45 63
-0.12102 -4.30550 2.99770 29 48 59
-0.13831 -4.27508 2.98980 26 49 57
-0.18630 -4.20797 2.97263 47 68 94
-0.19721 -4.21341 2.98886 61 85 98
-0.19916 -4.21396 2.97463 64 95 119
-0.21191 -4.22108 2.97693 71 79 89
-0.20996 -4.22053 2.99117 58 77 86
-0.22673 -4.22762 2.96470 42 44 45
-0.22492 -4.22547 2.97849 40 56 66
-0.23664 -4.24437 2.98401 34 56 70
-0.44811 -4.20353 2.97849 31 51 114
-0.43753 -4.19825 2.96274 25 44 106
-0.45001 -4.20406 2.96468 24 40 112
-0.46249 -4.20988 2.96662 37 47 90
-0.46044 -4.21390 2.98168 37 51 97
-0.47290 -4.22082 2.98392 43 49 66
-0.48563 -4.21821 2.98355 43 42 47
-0.50000 -4.22456 2.97168 47 47 62
-0.49819 -4.22067 2.98456 41 44 58
-0.51076 -4.22150 2.98513 45 51 79
-0.52349 -4.21249 2.98300 60 67 89
-0.53607 -4.20746 2.98195 78 81 92
-0.55032 -4.21375 2.97018 67 71 79
-0.56036 -4.26427 2.99824 64 62 70
-0.57275 -4.28646 3.00468 50 47 56
-0.58530 -4.29366 3.00700 54 44 57
-0.59784 -4.31753 3.01390 70 65 78
-0.62394 -4.50853 3.06716 151 162 177
-0.63908 -4.51522 3.05465 159 158 176
2.06595 -2.71587 2.48828 69 57 68
2.07573 -2.71098 2.47372 68 53 54
2.07210 -2.73880 2.49434 78 74 88
2.05871 -2.74471 2.48328 77 83 102
2.05766 -2.77570 2.50478 58 53 74
2.04417 -2.78165 2.49364 51 51 66
1.56250 -3.85104 2.81118 82 67 57
1.57456 -3.84502 2.79323 89 74 72
1.54683 -3.85513 2.81274 45 33 46
1.53318 -3.86275 2.81520 27 23 32
1.51681 -3.86999 2.80167 31 25 24
0.74607 -3.49097 2.73668 38 40 55
0.75626 -3.48588 2.72151 35 40 49
0.74143 -3.51539 2.74345 55 69 85
0.71500 -3.48401 2.73567 95 119 143
0.70123 -3.49009 2.72430 105 114 145
0.28284 -4.09429 2.91389 120 132 153
0.29402 -4.08871 2.89727 120 133 155
0.26866 -4.09575 2.91469 95 104 124
0.25433 -4.09638 2.91527 28 34 61
0.23919 -4.10307 2.90277 11 11 17
0.24244 -4.10845 2.91889 12 10 25
0.22728 -4.11515 2.90637 13 17 26
0.22924 -4.11436 2.92088 13 17 36
0.21701 -4.12508 2.92414 15 22 37
0.20374 -4.13073 2.92605 19 30 45
0.19089 -4.13849 2.92853 34 44 63
0.17571 -4.14519 2.91599 64 79 99
0.11422 -4.74142 3.09458 131 106 121
-0.01473 -4.37702 2.99923 44 59 91
-0.03282 -4.34974 2.99234 74 83 106
-0.04954 -4.33125 2.98779 24 12 24
-0.06500 -4.33808 2.97503 4 6 22
-0.07745 -4.33505 2.98962 10 13 36
-0.09135 -4.33703 2.99056 10 17 38
-0.10573 -4.33463 2.99032 12 17 43
-0.12268 -4.30914 2.98388 17 19 43
-0.13794 -4.31588 2.97127 15 16 31
-0.14047 -4.27410 2.97486 15 21 42
-0.15569 -4.26056 2.97162 12 21 43
-0.17331 -4.22269 2.96183 20 25 60
-0.19035 -4.18766 2.95280 38 55 86
-0.20413 -4.18350 2.95206 53 82 116
-0.21883 -4.18999 2.93992 78 105 131
-0.21664 -4.19206 2.95475 84 95 104
-0.24039 -4.22446 2.96423 29 45 62
-0.25517 -4.23098 2.95202 37 45 68
-0.25256 -4.23825 2.96832 37 53 66
-0.28621 -4.32221 2.99210 44 58 84
-0.27117 -4.31556 3.00453 36 62 67
-0.27315 -4.31612 2.99008 39 54 74
-0.28423 -4.32165 3.00656 39 60 64
-0.29729 -4.32773 3.00858 42 59 75
-0.29927 -4.32829 2.99413 49 53 87
-0.47479 -4.22138 2.97010 51 56 61
-0.46419 -4.21609 2.95432 44 48 83
-0.48743 -4.22236 2.97072 58 54 52
-0.51258 -4.22544 2.97228 38 48 75
-0.51447 -4.22597 2.95849 30 36 64
-0.52517 -4.22417 2.97229 52 65 86
-0.53777 -4.21930 2.97133 68 79 92
-0.55206 -4.22561 2.95953 50 48 78
-0.56212 -4.27908 2.98827 53 49 61
-0.57463 -4.29150 2.99201 53 53 50
-0.58721 -4.29239 2.99261 69 78 77
-0.60167 -4.29877 2.98066 134 141 152
-0.59971 -4.38298 3.01759 101 110 127
-0.61281 -4.51254 3.05317 140 147 162
-0.62799 -4.51924 3.04064 159 161 174
2.07756 -2.72956 2.47865 68 54 61
2.08740 -2.72465 2.46401 70 54 53
2.07580 -2.73005 2.46581 68 54 62
2.07251 -2.74146 2.48199 74 71 86
2.05912 -2.74738 2.47093 78 82 102
2.06009 -2.78046 2.49284 56 52 71
2.07004 -2.77550 2.47804 71 71 93
2.05831 -2.78096 2.47986 56 51 72
2.07267 -2.86412 2.51491 57 54 76
2.06250 -2.86919 2.53005 51 54 72
2.05885 -2.87022 2.50350 71 71 84
1.56467 -3.85919 2.79733 84 65 63
1.57676 -3.85316 2.77935 91 75 75
1.54923 -3.86374 2.79902 48 38 40
1.53651 -3.87309 2.80191 27 24 20
1.52009 -3.88034 2.78835 26 25 22
0.74461 -3.49241 2.72361 39 41 57
0.75481 -3.48732 2.70844 35 40 47
0.73537 -3.50512 2.72731 56 75 86
0.71558 -3.49071 2.72403 95 119 147
0.70179 -3.49681 2.71264 101 116 142
0.28158 -4.09819 2.90018 118 130 144
0.26814 -4.10316 2.90193 90 94 100
0.25347 -4.10229 2.90213 25 25 34
0.23832 -4.10899 2.88962 10 14 23
0.21502 -4.12569 2.90957 16 22 32
0.22619 -4.12011 2.89295 12 19 24
0.20177 -4.13145 2.91152 24 31 47
0.18919 -4.14063 2.91436 41 47 67
0.11083 -4.73466 3.07618 130 115 136
-0.00020 -4.39270 2.98774 25 37 80
-0.01674 -4.37803 2.98430 34 48 79
-0.03307 -4.36389 2.98099 46 61 77
-0.05299 -4.32092 2.97006 16 5 17
-0.06841 -4.32773 2.95733 3 4 10
-0.08066 -4.32601 2.97226 4 7 19
-0.08269 -4.32659 2.95748 3 5 7
-0.09605 -4.33281 2.95955 3 4 9
-0.09507 -4.32346 2.97201 4 7 18
-0.10978 -4.31782 2.97094 6 8 27
-0.12510 -4.32458 2.95829 26 35 34
-0.12527 -4.30460 2.96786 22 23 31
-0.17585 -4.21759 2.94603 19 22 55
-0.19478 -4.16334 2.93204 32 48 76
-0.20897 -4.15396 2.92995 32 57 101
-0.23354 -4.17424 2.93613 64 62 74
-0.24300 -4.21737 2.94800 40 39 63
-0.25776 -4.22388 2.93581 47 40 66
-0.26678 -4.25218 2.95806 36 46 74
-0.27741 -4.28731 2.96781 41 49 86
-0.28748 -4.33243 2.98022 52 66 114
-0.30011 -4.34502 2.98398 59 57 108
-0.31123 -4.35057 3.00053 53 53 83
-0.31280 -4.35735 2.98768 65 48 102
-0.32394 -4.36291 3.00424 55 55 76
-0.32599 -4.36254 2.98947 70 47 90
-0.33712 -4.36810 3.00603 59 55 73
-0.33912 -4.36866 2.99150 73 44 83
-0.38900 -4.18513 2.94375 55 45 85
-0.37459 -4.17876 2.95565 58 58 75
-0.37649 -4.17930 2.94180 70 46 83
-0.38710 -4.18459 2.95759 50 60 79
-0.39961 -4.19042 2.95953 44 60 82
-0.41594 -4.15482 2.93642 37 42 86
-0.42644 -4.16006 2.95205 37 53 85
-0.42832 -4.16059 2.93834 30 41 98
-0.47671 -4.22142 2.95613 62 68 55
-0.48918 -4.22823 2.95834 77 80 49
-0.50184 -4.22739 2.95849 55 56 60
-0.51621 -4.23373 2.94662 38 38 69
-0.52682 -4.23790 2.96207 41 48 77
-0.53928 -4.24440 2.96419 53 57 92
-0.56400 -4.28202 2.97503 54 36 47
-0.57649 -4.29941 2.98008 78 68 61
-0.58881 -4.39243 3.00542 106 113 109
-0.61486 -4.52922 3.04292 154 158 171
-0.61687 -4.52978 3.02829 155 158 174
-0.63009 -4.53594 3.03034 160 160 168
2.06257 -2.73384 2.46723 72 67 85
2.06221 -2.80236 2.48541 52 50 70
2.06595 -2.82381 2.49097 56 53 80
2.05229 -2.82985 2.47969 75 70 88
2.08317 -2.85938 2.49986 62 59 87
2.07216 -2.86599 2.50196 69 65 88
2.08155 -2.98757 2.53389 70 53 64
2.06730 -2.99386 2.52211 69 53 53
1.57096 -3.87455 2.78520 84 69 65
1.58310 -3.86849 2.76715 91 73 68
1.55426 -3.87700 2.78638 51 47 35
1.54121 -3.88586 2.78914 29 23 21
1.52473 -3.89313 2.77554 26 26 26
0.74548 -3.49975 2.71204 40 38 54
0.75570 -3.49465 2.69684 35 40 40
0.73490 -3.50911 2.71485 57 76 82
0.71649 -3.49829 2.71257 96 120 147
0.70267 -3.50440 2.70115 101 119 138
0.29355 -4.09617 2.88447 113 134 154
0.30875 -4.08946 2.89702 121 133 157
0.30675 -4.09002 2.88242 119 134 158
0.28029 -4.10202 2.88644 103 124 138
0.26526 -4.09966 2.88629 79 84 87
0.25115 -4.10133 2.88718 23 18 23
0.23600 -4.10802 2.87467 11 14 33
0.21198 -4.12109 2.89366 17 24 35
0.22313 -4.11553 2.87706 10 19 32
0.19843 -4.12524 2.89519 26 32 51
0.18440 -4.12687 2.89607 44 51 75
0.17446 -4.14969 2.90243 65 85 113
0.16327 -4.15527 2.91907 74 88 108
0.16127 -4.15583 2.90448 69 89 111
0.15927 -4.15640 2.88988 62 83 100
0.12124 -4.71447 3.05383 111 103 129
0.10865 -4.73579 3.05988 130 132 140
0.09155 -4.74334 3.04576 75 72 90
-0.00573 -4.36853 2.96616 22 32 74
-0.02182 -4.35645 2.96347 23 35 60
-0.03741 -4.36333 2.95059 10 13 27
-0.03706 -4.34987 2.96220 22 39 33
-0.05260 -4.35673 2.94937 6 2 8
-0.05569 -4.31636 2.95391 9 4 14
-0.07108 -4.32316 2.94120 3 3 7
-0.11259 -4.31161 2.95446 7 6 25
-0.10133 -4.30599 2.93771 4 4 7
-0.14618 -4.25949 2.94171 18 16 30
-0.17886 -4.20799 2.92909 22 28 54
-0.19663 -4.16467 2.91817 27 43 65
-0.20999 -4.16398 2.91841 20 37 76
-0.22385 -4.15739 2.91711 45 73 116
-0.23636 -4.16487 2.91949 82 95 113
-0.24736 -4.18998 2.92649 65 54 68
-0.27039 -4.23204 2.93837 37 41 74
-0.27234 -4.23259 2.92419 40 37 68
-0.28125 -4.26345 2.94704 42 50 90
-0.28869 -4.34360 2.96852 61 80 129
-0.30380 -4.35028 2.95604 72 83 137
-0.30176 -4.35041 2.97074 71 81 127
-0.31505 -4.35408 2.97214 78 75 115
-0.33016 -4.36076 2.95966 77 59 105
-0.32842 -4.35623 2.97313 79 60 101
-0.34312 -4.33620 2.96829 79 45 93
-0.35417 -4.34171 2.98473 77 44 83
-0.35615 -4.34227 2.97031 83 40 92
-0.35813 -4.34283 2.95590 75 37 90
-0.39122 -4.17937 2.92824 54 34 83
-0.40561 -4.18573 2.91636 35 26 71
-0.40461 -4.16660 2.92528 42 31 81
-0.41774 -4.15710 2.92318 36 31 87
-0.43074 -4.14841 2.92129 37 38 108
-0.44121 -4.15363 2.93687 24 40 112
-0.44308 -4.15416 2.92320 34 40 114
-0.47899 -4.20903 2.93889 71 78 60
-0.46843 -4.20376 2.92317 58 57 77
-0.48088 -4.20956 2.92510 72 79 66
-0.49139 -4.21714 2.94143 81 90 49
-0.50381 -4.22482 2.94386 56 55 60
-0.52868 -4.24050 2.94881 49 49 81
-0.54106 -4.25321 2.95257 51 49 98
-0.55546 -4.25957 2.94067 44 30 68
-0.55349 -4.26509 2.95611 44 35 80
-0.56598 -4.27488 2.95910 59 32 51
-0.57835 -4.30829 2.96835 95 76 78
-0.59289 -4.31470 2.95635 130 133 138
-0.59067 -4.42747 3.00034 121 122 125
-0.60365 -4.52201 3.02581 137 142 156
2.07398 -2.74743 2.45739 70 62 82
2.06753 -2.75806 2.46039 79 79 100
2.05408 -2.76400 2.44929 79 80 96
2.06215 -2.76985 2.46366 77 76 98
2.04868 -2.77580 2.45252 75 75 95
2.06303 -2.78806 2.46839 65 63 82
2.04949 -2.79404 2.45721 75 72 84
2.06394 -2.80646 2.47318 64 63 79
2.06613 -2.82635 2.47831 71 67 84
2.07250 -2.86876 2.48920 76 70 84
2.06802 -2.88224 2.49288 73 67 75
2.05415 -2.88837 2.48142 68 57 64
2.07025 -2.90291 2.49821 72 62 74
2.05631 -2.90907 2.48669 67 56 63
2.06341 -2.91414 2.50138 69 57 70
2.04944 -2.92031 2.48984 67 56 60
1.57710 -3.88966 2.77289 84 70 55
1.58928 -3.88358 2.75476 90 76 75
1.56195 -3.89497 2.77478 54 50 27
1.54790 -3.90221 2.77714 28 22 18
1.53136 -3.90952 2.76348 32 25 33
0.74650 -3.50750 2.70050 39 39 43
0.75674 -3.50239 2.68527 32 39 45
0.73534 -3.51546 2.70296 61 79 79
0.71886 -3.50968 2.70199 96 121 145
0.70500 -3.51580 2.69054 100 118 137
0.30527 -4.09289 2.86840 116 127 155
0.32047 -4.08617 2.88096 120 133 158
0.31847 -4.08673 2.86635 120 133 158
0.29098 -4.09418 2.86922 90 102 132
0.27643 -4.09409 2.86968 56 76 102
0.26346 -4.10112 2.87195 39 50 67
0.24829 -4.10782 2.85942 14 13 34
0.24956 -4.10380 2.87311 18 14 32
0.23440 -4.11049 2.86059 12 14 31
0.20956 -4.11956 2.87857 15 25 41
0.22071 -4.11400 2.86198 11 19 35
0.19534 -4.12028 2.87923 26 36 55
0.18069 -4.11856 2.87927 45 55 80
0.16559 -4.12523 2.86680 69 86 109
0.17144 -4.14492 2.88648 66 87 115
0.15627 -4.15162 2.87394 51 62 81
0.10613 -4.73470 3.04301 120 132 143
0.08904 -4.74225 3.02890 59 58 79
-0.02656 -4.33722 2.94339 15 28 51
-0.04207 -4.34407 2.93058 11 11 28
-0.13210 -4.28064 2.93210 15 29 42
-0.12095 -4.27507 2.91550 7 7 22
-0.13410 -4.28120 2.91754 10 11 29
-0.14725 -4.28733 2.91958 9 9 15
-0.14888 -4.25349 2.92555 12 11 25
-0.16391 -4.26013 2.91313 10 12 29
-0.16444 -4.23570 2.92141 10 12 30
-0.18083 -4.20838 2.91481 18 29 47
-0.19565 -4.21493 2.90256 15 23 58
-0.21038 -4.18051 2.90850 19 32 52
-0.22416 -4.17532 2.90760 9 24 63
-0.24005 -4.14562 2.90035 48 77 118
-0.25241 -4.15434 2.90304 72 84 104
-0.26091 -4.20983 2.91785 59 48 70
-0.28549 -4.23424 2.92506 37 42 80
-0.29242 -4.32037 2.94783 59 74 132
-0.31840 -4.33439 2.95237 78 80 120
-0.32038 -4.33495 2.93792 61 65 114
-0.39334 -4.17549 2.91327 48 30 80
-0.41987 -4.15208 2.90803 39 31 85
-0.44568 -4.13592 2.90465 46 49 120
-0.45611 -4.14112 2.92016 39 44 95
-0.45797 -4.14164 2.90656 46 48 91
-0.49334 -4.21547 2.92706 69 76 51
-0.48277 -4.21019 2.91134 75 76 55
-0.50769 -4.22181 2.91521 40 38 64
-0.50562 -4.22871 2.93094 51 44 62
-0.51809 -4.23526 2.93306 45 42 75
-0.53247 -4.24161 2.92119 57 61 83
-0.53043 -4.24941 2.93718 51 55 84
-0.54283 -4.26269 2.94107 48 48 91
-0.56783 -4.28212 2.94699 68 49 47
-0.58229 -4.28851 2.93504 121 121 117
-0.58018 -4.32656 2.95903 107 101 88
-0.59477 -4.33300 2.94697 138 138 153
2.06250 -2.73826 2.44234 69 58 73
2.07234 -2.73335 2.42770 69 54 51
2.05495 -2.74773 2.44505 77 74 88
2.06823 -2.84872 2.47068 73 63 72
2.05447 -2.85479 2.45932 67 56 49
2.06521 -2.86358 2.47463 70 60 62
2.05140 -2.86967 2.46323 66 56 51
2.05784 -2.87400 2.47758 68 59 59
2.04401 -2.88011 2.46616 68 56 60
1.58577 -3.90925 2.76152 83 75 66
1.59801 -3.90314 2.74330 90 79 74
1.57057 -3.91462 2.76344 62 54 41
1.55811 -3.92484 2.76651 40 20 36
1.54147 -3.93219 2.75277 37 26 29
0.74685 -3.51357 2.68851 29 41 53
0.75711 -3.50845 2.67325 32 41 39
0.73539 -3.52082 2.69078 66 77 86
0.72186 -3.52273 2.69174 99 119 145
0.70794 -3.52887 2.68025 101 118 132
0.31711 -4.09013 2.85245 119 132 155
0.33233 -4.08341 2.86502 121 132 153
0.33032 -4.08397 2.85040 119 131 153
0.32832 -4.08454 2.83578 118 129 157
0.30350 -4.09450 2.85406 108 115 135
0.28910 -4.09531 2.85477 61 58 86
0.27505 -4.09749 2.85582 20 22 48
0.25987 -4.10419 2.84328 14 14 36
0.26191 -4.10378 2.85790 15 19 45
0.24673 -4.11048 2.84537 13 15 33
0.20551 -4.10992 2.86145 15 26 45
0.19058 -4.10684 2.86118 27 38 61
0.17725 -4.11164 2.86288 48 58 83
0.14047 -4.14342 2.87238 32 31 52
0.14247 -4.14286 2.88690 49 59 71
0.12934 -4.14898 2.88894 59 74 87
0.12735 -4.14954 2.87441 25 33 57
0.09727 -4.22286 2.89441 48 62 81
0.11259 -4.21610 2.90706 100 112 111
0.11057 -4.21666 2.89234 44 59 79
0.09929 -4.22229 2.90913 103 112 109
0.08599 -4.22849 2.91119 101 112 107
0.08059 -4.20866 2.89132 55 69 83
0.06735 -4.21483 2.89337 55 76 88
0.06534 -4.21540 2.87873 16 33 49
-0.18216 -4.21505 2.90212 14 24 45
-0.18412 -4.21560 2.88786 21 25 59
-0.21204 -4.18402 2.89515 15 19 49
-0.22534 -4.18405 2.89562 11 10 38
-0.23862 -4.18381 2.89602 19 41 80
-0.25293 -4.17120 2.89326 53 76 107
-0.26751 -4.17764 2.88121 48 64 80
-0.26374 -4.19962 2.90098 59 66 81
-0.27646 -4.20560 2.90297 44 43 66
-0.28929 -4.21032 2.90463 30 38 68
-0.29677 -4.28842 2.92507 48 69 122
-0.30771 -4.32332 2.93447 63 77 129
-0.33997 -4.23765 2.91346 61 47 98
-0.34190 -4.23820 2.89936 40 35 96
-0.36638 -4.23311 2.91321 67 39 86
-0.39570 -4.16700 2.89715 43 30 80
-0.40905 -4.15379 2.89420 34 24 68
-0.42254 -4.13479 2.88976 48 49 95
-0.43589 -4.11560 2.88526 56 75 141
-0.44765 -4.13382 2.89038 53 54 115
-0.46180 -4.14006 2.87870 56 47 77
-0.45944 -4.15350 2.89588 53 44 84
-0.47146 -4.16855 2.90019 62 57 67
-0.51995 -4.23750 2.91969 48 49 78
-0.52185 -4.23803 2.90587 49 52 80
-0.53434 -4.24385 2.90781 61 59 83
-0.54471 -4.26475 2.92759 58 49 88
-0.55723 -4.27251 2.93004 58 36 79
-0.56965 -4.29341 2.93587 85 71 79
-0.58415 -4.29981 2.92389 128 132 145
2.06649 -2.74449 2.43075 68 55 60
2.07635 -2.73957 2.41607 71 55 44
2.06472 -2.74499 2.41788 69 55 50
2.05450 -2.74956 2.43248 72 64 70
2.04739 -2.75954 2.43528 73 70 78
2.04602 -2.77541 2.43938 73 66 80
2.03255 -2.78136 2.42825 69 55 58
2.04403 -2.80834 2.44785 70 57 65
2.03045 -2.81433 2.43663 70 56 57
2.05296 -2.83529 2.45440 69 56 60
2.03927 -2.84134 2.44309 69 56 53
1.59282 -3.92603 2.74933 85 78 66
1.60511 -3.91990 2.73104 91 80 76
1.57613 -3.92891 2.75067 68 57 47
1.56747 -3.94602 2.75535 40 20 43
1.55075 -3.95341 2.74154 29 25 31
0.74759 -3.52063 2.67670 26 41 47
0.75786 -3.51551 2.66142 36 41 41
0.73583 -3.52718 2.67880 67 77 91
0.72497 -3.53610 2.68147 97 120 144
0.71100 -3.54227 2.66993 102 116 134
0.31576 -4.09356 2.83854 118 130 151
0.32697 -4.08797 2.82186 117 129 157
0.30456 -4.10870 2.84281 102 110 121
0.28731 -4.09682 2.84040 43 40 55
0.27383 -4.10165 2.84213 16 9 21
0.25864 -4.10836 2.82958 14 16 33
0.21603 -4.10141 2.84417 14 20 36
0.22914 -4.09530 2.84214 12 16 26
0.22715 -4.09586 2.82763 13 17 31
0.20253 -4.10556 2.84572 16 27 49
0.18833 -4.10604 2.84636 27 39 66
0.17506 -4.11114 2.84814 48 60 85
0.16457 -4.13091 2.85357 64 78 98
0.15022 -4.13041 2.85396 41 40 72
0.13732 -4.13764 2.85628 21 12 48
0.12223 -4.14431 2.84381 13 14 32
0.12434 -4.14442 2.85848 14 14 42
0.11322 -4.14997 2.87502 30 46 71
0.10924 -4.15109 2.84601 14 17 38
0.10987 -4.14279 2.85859 9 15 45
0.09512 -4.13917 2.85820 12 17 39
0.08276 -4.14931 2.86124 12 20 38
0.06771 -4.15595 2.84881 35 36 46
-0.06294 -4.30897 2.90726 15 13 16
-0.07425 -4.31461 2.92409 7 7 10
-0.07628 -4.31518 2.90933 12 15 16
-0.07830 -4.31575 2.89457 16 21 20
-0.13930 -4.25295 2.89575 16 14 29
-0.12624 -4.24686 2.89372 12 14 23
-0.12822 -4.24742 2.87927 17 19 26
-0.15384 -4.24530 2.89433 13 14 24
-0.16886 -4.23231 2.89156 20 19 41
-0.19851 -4.20625 2.88600 22 32 71
-0.21271 -4.19799 2.88441 23 29 72
-0.22619 -4.19647 2.88451 26 28 68
-0.23983 -4.19256 2.88401 28 39 76
-0.25451 -4.19904 2.87188 34 53 84
-0.25299 -4.19359 2.88475 38 52 83
-0.27898 -4.19871 2.88700 44 53 69
-0.29362 -4.20518 2.87491 31 37 66
-0.29199 -4.20068 2.88798 29 40 65
-0.30266 -4.23462 2.89702 41 64 103
-0.31455 -4.25351 2.90227 50 64 110
-0.33102 -4.20404 2.89026 38 44 106
-0.35744 -4.19716 2.88946 62 49 95
-0.37194 -4.20356 2.87748 70 77 105
-0.37093 -4.18701 2.88737 66 54 93
-0.39774 -4.16439 2.88257 51 47 92
-0.41134 -4.14560 2.87827 51 45 95
-0.42559 -4.15189 2.86651 74 86 144
-0.42544 -4.11185 2.87018 66 77 130
-0.43747 -4.12288 2.87343 55 66 135
-0.44965 -4.13075 2.87588 48 47 98
-0.47370 -4.15780 2.88366 68 58 64
-0.48568 -4.17501 2.88848 87 81 63
-0.49749 -4.20197 2.89579 62 68 66
-0.50941 -4.23012 2.90340 38 48 74
-0.52378 -4.23647 2.89152 50 56 76
-0.54646 -4.27697 2.91670 65 57 86
-0.53580 -4.27165 2.90083 57 60 83
-0.55898 -4.28777 2.91991 74 60 89
-0.57131 -4.32797 2.93061 102 98 113
2.05497 -2.75230 2.42009 69 55 55
2.06485 -2.74737 2.40540 67 54 48
2.05321 -2.75280 2.40721 67 54 47
2.04157 -2.75822 2.40901 66 54 42
2.04468 -2.75908 2.42219 68 56 56
2.03126 -2.76501 2.41111 68 55 47
2.04476 -2.77643 2.42655 69 56 57
2.03129 -2.78239 2.41542 70 55 55
1.60067 -3.94426 2.73734 88 79 72
1.61302 -3.93809 2.71896 92 80 75
1.58427 -3.94779 2.73885 74 61 51
1.58174 -3.97600 2.74605 34 21 34
1.56489 -3.98344 2.73213 28 26 34
0.74804 -3.52700 2.66468 29 39 53
0.75833 -3.52186 2.64937 37 40 43
0.73505 -3.53044 2.66604 71 80 86
0.72605 -3.54423 2.66985 97 119 139
0.71205 -3.55041 2.65829 102 113 143
0.31359 -4.09340 2.82373 115 128 147
0.30235 -4.10838 2.82793 94 103 114
0.28904 -4.11424 2.82991 31 34 48
0.27400 -4.11220 2.82996 15 10 16
0.25878 -4.11893 2.81739 14 18 26
0.21194 -4.09166 2.82715 15 21 41
0.22303 -4.08612 2.81065 14 18 30
0.19797 -4.09325 2.82808 18 29 52
0.18328 -4.09098 2.82807 29 42 67
0.17104 -4.10117 2.83110 48 62 83
0.15857 -4.11026 2.83386 60 70 87
0.14685 -4.12356 2.83765 36 27 66
0.13381 -4.12981 2.83972 19 14 40
0.11874 -4.13646 2.82728 10 14 22
0.09383 -4.14372 2.84474 22 26 38
0.08131 -4.15307 2.84757 27 33 38
0.06625 -4.15972 2.83513 44 48 49
-0.04325 -4.26013 2.87924 28 29 44
-0.03203 -4.25454 2.86256 40 40 53
-0.05549 -4.27376 2.88313 28 27 29
-0.06778 -4.28747 2.88705 20 21 20
-0.08306 -4.29422 2.87443 18 20 23
-0.11279 -4.26152 2.88223 20 24 24
-0.09966 -4.25540 2.88019 17 25 23
-0.10166 -4.25596 2.86566 20 28 28
-0.11478 -4.26208 2.86770 23 27 31
-0.14238 -4.24356 2.87883 27 26 44
-0.14436 -4.24412 2.86441 33 37 55
-0.15740 -4.25019 2.86643 25 20 47
-0.15733 -4.23179 2.87644 21 21 40
-0.17057 -4.23535 2.87783 33 35 53
-0.18550 -4.24194 2.86550 38 48 83
-0.18461 -4.23073 2.87721 35 38 78
-0.19951 -4.23731 2.86490 34 46 78
-0.19859 -4.22601 2.87655 33 53 78
-0.21345 -4.23258 2.86427 37 49 85
-0.21304 -4.21561 2.87448 35 52 87
-0.22784 -4.22215 2.86225 40 53 90
-0.22653 -4.21458 2.87473 43 56 93
-0.24104 -4.20139 2.87196 37 56 85
-0.25575 -4.20788 2.85981 29 48 84
-0.26825 -4.19271 2.87081 41 56 84
-0.27018 -4.19325 2.85675 31 49 85
-0.28156 -4.19100 2.87089 40 50 67
-0.30803 -4.18734 2.87097 34 46 84
-0.32259 -4.19377 2.85895 33 46 72
-0.32011 -4.20128 2.87494 40 57 92
-0.33514 -4.17097 2.86788 33 40 89
-0.38921 -4.12098 2.85735 68 78 102
-0.39108 -4.12150 2.84371 68 81 110
-0.40193 -4.11866 2.85725 65 79 101
-0.41478 -4.11253 2.85619 67 80 112
-0.43944 -4.12065 2.85917 55 66 124
-0.45157 -4.12986 2.86195 50 64 88
-0.46379 -4.13666 2.86413 62 64 64
-0.47594 -4.14646 2.86705 77 61 58
-0.48902 -4.12356 2.86179 108 110 102
-0.50111 -4.13334 2.86471 98 116 109
-0.51154 -4.22009 2.88694 63 74 82
-0.52588 -4.22642 2.87509 54 51 69
-0.54829 -4.28341 2.90427 66 66 90
-0.56073 -4.30430 2.91000 87 86 96
-0.57289 -4.38017 2.92956 117 118 124
1.60670 -3.95934 2.72449 90 79 67
1.61909 -3.95315 2.70605 93 81 74
1.59208 -3.96615 2.72676 77 64 49
1.58899 -3.99352 2.73368 33 24 41
1.57207 -4.00099 2.71970 36 31 32
0.74725 -3.53019 2.65187 30 34 58
0.75754 -3.52505 2.63655 32 40 41
0.73591 -3.53794 2.65425 68 78 100
0.72662 -3.55105 2.65787 100 117 139
0.71259 -3.55725 2.64629 98 113 133
0.32435 -4.08588 2.80659 114 128 151
0.33957 -4.07915 2.81916 118 130 158
0.33756 -4.07972 2.80454 117 130 154
0.33556 -4.08028 2.78992 115 128 151
0.31121 -4.09233 2.80871 111 124 140
0.30079 -4.11097 2.81375 88 94 101
0.28878 -4.12275 2.81715 25 27 40
0.27349 -4.12950 2.80452 11 14 27
0.27544 -4.12864 2.81914 12 12 22
0.26015 -4.13540 2.80652 16 19 23
0.20857 -4.08535 2.81103 16 21 44
0.21963 -4.07983 2.79457 14 19 27
0.19552 -4.09143 2.81306 20 30 56
0.18095 -4.08973 2.81321 32 43 70
0.16737 -4.09291 2.81454 50 67 86
0.15435 -4.09897 2.81656 56 68 87
0.14460 -4.12268 2.82283 32 23 58
0.13118 -4.12686 2.82440 17 14 34
0.11613 -4.13351 2.81197 8 14 14
0.10493 -4.13834 2.82829 15 18 34
0.09171 -4.14354 2.83010 31 35 45
0.07667 -4.15019 2.81768 45 53 58
0.07919 -4.15283 2.83290 38 44 50
0.06413 -4.15948 2.82047 41 51 45
-0.04837 -4.23733 2.85893 38 46 55
-0.06019 -4.25369 2.86346 41 44 36
-0.07258 -4.26602 2.86701 25 25 29
-0.08778 -4.27274 2.85446 16 20 31
-0.13171 -4.23473 2.86158 20 21 28
-0.12066 -4.22922 2.84515 19 23 41
-0.13368 -4.23529 2.84717 16 19 36
-0.17252 -4.23601 2.86351 36 37 59
-0.16153 -4.23052 2.84714 18 20 37
-0.24214 -4.21162 2.86020 37 53 86
-0.23128 -4.20620 2.84405 48 61 86
-0.25688 -4.21813 2.84802 40 52 80
-0.28351 -4.19118 2.85676 32 44 67
-0.27276 -4.18581 2.84076 32 50 87
-0.29692 -4.18733 2.85633 27 33 56
-0.31119 -4.17049 2.85272 23 32 62
-0.33902 -4.14117 2.84653 29 29 67
-0.35215 -4.13594 2.84576 23 28 62
-0.36549 -4.12600 2.84381 41 62 91
-0.37860 -4.11862 2.84250 57 76 105
-0.40470 -4.10096 2.83914 72 80 113
-0.41703 -4.10475 2.84057 76 90 122
-0.42942 -4.10692 2.84160 67 78 129
-0.44139 -4.11904 2.84508 58 75 108
-0.45396 -4.11593 2.84481 58 72 79
-0.46618 -4.12162 2.84670 68 65 67
-0.47825 -4.13228 2.84983 92 80 96
-0.49058 -4.13454 2.85088 113 122 130
-0.50466 -4.14076 2.83925 73 57 72
-0.50306 -4.12976 2.85018 112 109 101
-0.51711 -4.13596 2.83858 63 53 69
-0.51300 -4.24034 2.87804 82 63 68
-0.53761 -4.27872 2.88854 59 60 78
-0.55211 -4.28512 2.87656 79 84 89
-0.54995 -4.30434 2.89539 71 75 90
-0.56233 -4.33885 2.90445 96 103 116
-0.57700 -4.34533 2.89234 133 138 157
-0.57450 -4.43430 2.92864 126 129 143
-0.58947 -4.44091 2.91627 136 142 168
-0.58729 -4.50214 2.94599 141 146 157
-0.60046 -4.53475 2.95461 156 159 172
-0.61373 -4.54093 2.95667 165 164 181
1.61309 -3.97508 2.71166 93 80 76
1.62553 -3.96887 2.69315 96 80 77
1.61086 -3.97571 2.69543 97 80 81
1.59841 -3.98192 2.71394 80 68 62
1.59956 -4.01700 2.72249 35 27 41
1.58254 -4.02452 2.70843 42 33 30
0.74636 -3.53316 2.63900 29 39 53
0.75667 -3.52802 2.62366 37 41 45
0.73562 -3.54247 2.64172 72 85 99
0.72729 -3.55814 2.64590 96 116 136
0.71323 -3.56435 2.63429 100 115 140
0.32459 -4.09615 2.79425 111 125 144
0.33582 -4.09054 2.77754 112 127 150
0.31100 -4.10079 2.79595 106 118 131
0.29954 -4.11491 2.79988 84 84 89
0.28883 -4.13273 2.80469 22 16 27
0.27351 -4.13950 2.79203 11 14 25
0.20466 -4.07640 2.79434 17 21 42
0.21570 -4.07089 2.77791 15 19 26
0.19165 -4.08247 2.79636 21 28 56
0.17788 -4.08473 2.79748 33 43 72
0.16360 -4.08410 2.79791 49 68 86
0.15061 -4.09015 2.79993 53 66 84
0.14033 -4.11086 2.80543 29 21 50
0.12800 -4.12078 2.80836 14 17 27
0.11297 -4.12741 2.79595 7 16 14
0.10154 -4.13083 2.81191 13 17 33
0.08902 -4.13992 2.81465 46 51 62
0.03576 -4.15739 2.82112 33 40 51
0.05076 -4.15076 2.83351 43 48 47
0.04878 -4.15132 2.81910 45 50 56
0.03773 -4.15683 2.83554 36 48 58
0.02471 -4.16290 2.83756 31 46 52
0.02210 -4.15935 2.82216 27 35 45
0.01107 -4.16485 2.83858 36 45 51
0.00711 -4.16597 2.80978 16 18 30
0.00840 -4.16084 2.82309 28 37 38
-0.00262 -4.16634 2.83949 40 49 53
-0.00413 -4.17005 2.82586 36 39 43
-0.01653 -4.18037 2.82890 34 41 42
-0.02756 -4.20073 2.83434 33 45 56
-0.04069 -4.20635 2.83626 36 42 47
-0.05189 -4.22641 2.84163 33 47 59
-0.06490 -4.23334 2.84386 38 43 37
-0.08000 -4.24001 2.83139 14 16 32
-0.07765 -4.24232 2.84659 22 22 37
-0.09276 -4.24900 2.83411 15 19 34
-0.17473 -4.23429 2.84861 22 27 50
-0.16374 -4.22880 2.83225 17 20 28
-0.18800 -4.23726 2.84988 33 43 61
-0.20209 -4.23151 2.84905 32 43 68
-0.21546 -4.23265 2.84988 47 57 77
-0.24379 -4.21549 2.84684 58 68 86
-0.28575 -4.18764 2.84174 32 48 70
-0.28768 -4.18818 2.82772 36 49 72
-0.29975 -4.17557 2.83936 29 39 46
-0.31419 -4.15568 2.83508 19 33 37
-0.32754 -4.14940 2.83409 42 49 64
-0.34147 -4.13297 2.83063 38 37 55
-0.35489 -4.12253 2.82863 23 22 36
-0.36714 -4.13053 2.83109 16 22 43
-0.38119 -4.10602 2.82566 43 60 92
-0.39437 -4.09461 2.82341 70 78 112
-0.40677 -4.09705 2.82452 76 78 117
-0.41903 -4.10220 2.82628 78 91 130
-0.43166 -4.09835 2.82586 60 66 109
-0.44409 -4.09826 2.82635 44 51 80
-0.45620 -4.10587 2.82871 47 48 51
-0.46827 -4.11516 2.83148 77 69 57
-0.48071 -4.11279 2.83141 94 97 101
-0.49249 -4.13323 2.83690 87 79 99
-0.50656 -4.13944 2.82527 59 53 63
-0.52687 -4.27710 2.87356 60 52 76
-0.51618 -4.27176 2.85766 59 56 69
-0.53932 -4.29261 2.87787 69 66 78
-0.56383 -4.38829 2.90232 104 111 123
-0.57867 -4.39484 2.89007 128 137 164
-0.60248 -4.51071 2.93390 142 151 173
-0.61576 -4.54881 2.94378 158 164 176
-0.62703 -4.55443 2.96055 165 166 183
-0.62905 -4.55500 2.94584 163 165 177
-0.63107 -4.55557 2.93114 164 164 174
1.61041 -4.00776 2.70319 84 69 68
1.62293 -4.00151 2.68456 97 81 78
1.60738 -4.03563 2.71006 41 31 33
1.59028 -4.04318 2.69593 33 27 28
0.74529 -3.53567 2.62600 30 36 55
0.75561 -3.53053 2.61065 38 38 42
0.73514 -3.54652 2.62905 69 89 101
0.72852 -3.56674 2.63422 99 116 143
0.71444 -3.57296 2.62259 96 116 139
0.32885 -4.12395 2.78591 107 123 136
0.31223 -4.11566 2.78462 101 113 121
0.29683 -4.11237 2.78448 76 70 76
0.28876 -4.14219 2.79203 20 10 17
0.27341 -4.14897 2.77934 12 13 20
0.20184 -4.07274 2.77895 19 21 42
0.21286 -4.06724 2.76254 16 18 33
0.18854 -4.07731 2.78062 23 28 55
0.17489 -4.08004 2.78186 34 44 72
0.15993 -4.08664 2.76951 44 58 76
0.16068 -4.07972 2.78239 46 63 80
0.14771 -4.08577 2.78441 48 60 78
0.13706 -4.10440 2.78936 27 19 48
0.12208 -4.11102 2.77699 12 17 26
0.12457 -4.11335 2.79206 12 18 26
0.10958 -4.11997 2.77967 7 16 17
0.09820 -4.12353 2.79564 12 18 35
0.08534 -4.13051 2.79788 42 48 72
0.07329 -4.14238 2.80126 40 46 64
0.05936 -4.14292 2.80199 32 42 50
0.04436 -4.14954 2.78960 32 36 56
0.04528 -4.14233 2.80244 37 42 56
0.03192 -4.14605 2.80391 26 30 33
0.01696 -4.15265 2.79155 19 22 40
0.01823 -4.14748 2.80484 16 21 35
-0.00891 -4.15141 2.80695 17 15 35
-0.01087 -4.15197 2.79262 22 19 36
-0.02382 -4.15800 2.79463 16 19 32
-0.02110 -4.16275 2.81021 17 16 29
-0.03603 -4.16935 2.79787 20 22 31
-0.03262 -4.17916 2.81466 18 19 37
-0.04759 -4.18577 2.80230 16 22 25
-0.04650 -4.17871 2.81515 16 20 25
-0.06144 -4.18531 2.80280 15 20 34
-0.05864 -4.19107 2.81865 17 23 41
-0.07361 -4.19768 2.80629 16 18 33
-0.07212 -4.19333 2.81977 18 19 33
-0.08708 -4.19993 2.80742 14 17 31
-0.17792 -4.22295 2.83144 19 25 41
-0.16696 -4.21748 2.81513 15 20 24
-0.17988 -4.22351 2.81714 18 23 40
-0.19281 -4.22953 2.81914 19 26 44
-0.19114 -4.22600 2.83274 29 34 48
-0.20602 -4.23257 2.82045 11 21 44
-0.20445 -4.22786 2.83376 23 32 58
-0.21727 -4.23483 2.83599 42 54 67
-0.23213 -4.24139 2.82371 21 31 62
-0.23132 -4.22807 2.83496 39 54 77
-0.24521 -4.22215 2.83412 50 67 87
-0.25999 -4.22867 2.82191 23 29 70
-0.25948 -4.21084 2.83199 37 52 77
-0.27419 -4.21734 2.81984 17 28 62
-0.27341 -4.20223 2.83051 30 48 74
-0.30154 -4.17780 2.82580 37 46 57
-0.31608 -4.18422 2.81380 34 34 55
-0.31608 -4.15630 2.82123 24 34 43
-0.32946 -4.14963 2.82018 62 70 69
-0.34281 -4.14200 2.81891 54 48 61
-0.35651 -4.12733 2.81595 30 22 34
-0.36898 -4.13181 2.81756 15 14 30
-0.38389 -4.09129 2.80841 51 62 91
-0.39717 -4.07683 2.80548 96 101 131
-0.40926 -4.08449 2.80785 98 100 139
-0.42120 -4.09579 2.81109 83 70 115
-0.43434 -4.07932 2.80767 69 44 74
-0.44646 -4.08548 2.80967 53 36 59
-0.45841 -4.09645 2.81283 59 53 65
-0.47051 -4.10389 2.81515 86 91 88
-0.48217 -4.12657 2.82112 81 82 79
-0.49327 -4.17398 2.83305 61 54 64
-0.50749 -4.18026 2.82131 50 51 57
-0.52846 -4.29605 2.86405 61 57 79
-0.51772 -4.29069 2.84808 52 48 63
-0.54303 -4.30248 2.85201 78 78 93
-0.54090 -4.31683 2.86960 74 77 85
-0.55312 -4.36427 2.88159 88 96 100
-0.56575 -4.39329 2.88914 109 118 133
-0.58060 -4.39985 2.87687 117 122 165
-0.59145 -4.44203 2.90201 110 118 167
-0.60446 -4.47518 2.91058 112 127 166
-0.61780 -4.55303 2.92996 150 162 174
-0.63311 -4.55979 2.91731 165 166 176
1.61040 -4.01235 2.68769 84 68 58
1.62293 -4.00609 2.66904 97 81 78
1.61035 -4.04562 2.69562 39 29 25
0.74468 -3.53936 2.61324 28 30 55
0.75500 -3.53420 2.59788 36 40 41
0.73487 -3.55115 2.61649 74 86 103
0.72818 -3.57123 2.62157 94 116 141
0.71407 -3.57745 2.60992 97 116 143
0.31211 -4.12459 2.77182 92 102 110
0.29677 -4.13137 2.75916 41 37 49
0.30151 -4.14299 2.77668 65 54 62
0.28613 -4.14979 2.76397 13 8 18
0.28874 -4.15187 2.77935 19 7 10
0.27334 -4.15866 2.76664 11 13 25
0.19854 -4.06675 2.76306 21 22 45
0.20955 -4.06126 2.74667 16 18 40
0.18513 -4.07063 2.76457 25 31 56
0.17100 -4.07071 2.76522 33 45 70
0.15607 -4.07730 2.75289 43 55 73
0.14349 -4.07427 2.76728 39 50 69
0.13273 -4.09213 2.77202 22 17 45
0.11780 -4.09873 2.75968 12 17 21
0.09546 -4.11967 2.78022 14 18 37
0.10648 -4.11416 2.76382 9 16 17
0.08049 -4.12628 2.76786 33 26 56
0.08316 -4.12986 2.78320 28 22 60
0.06817 -4.13648 2.77082 24 19 46
0.07034 -4.13709 2.78549 25 19 54
0.05703 -4.14132 2.78708 23 25 49
0.04205 -4.14794 2.77471 41 48 61
0.02844 -4.13693 2.78730 25 28 28
0.01352 -4.14352 2.77497 20 23 47
0.00143 -4.14160 2.78961 26 21 40
-0.14186 -4.19871 2.80955 18 21 37
-0.12700 -4.19214 2.82183 19 19 32
-0.12896 -4.19269 2.80755 18 19 22
-0.13092 -4.19325 2.79326 20 22 36
-0.13990 -4.19816 2.82383 16 18 38
-0.15280 -4.20417 2.82583 22 21 41
-0.15480 -4.20435 2.81147 21 24 47
-0.21862 -4.24196 2.82325 21 25 62
-0.24677 -4.22718 2.82097 21 37 71
-0.28964 -4.18825 2.81359 38 45 68
-0.30379 -4.17382 2.81077 50 54 70
-0.33162 -4.14618 2.80542 49 49 50
-0.34600 -4.15253 2.79354 71 39 19
-0.34487 -4.14003 2.80454 57 39 49
-0.35920 -4.14636 2.79270 62 35 19
-0.35845 -4.12699 2.80203 45 28 35
-0.37272 -4.13329 2.79024 38 24 26
-0.37133 -4.12410 2.80191 29 25 29
-0.38463 -4.11248 2.79973 24 38 62
-0.39875 -4.08275 2.79327 61 83 132
-0.41123 -4.08266 2.79380 82 91 146
-0.42325 -4.09193 2.79654 91 58 103
-0.43613 -4.08116 2.79454 100 44 51
-0.44806 -4.09225 2.79771 86 40 33
-0.45999 -4.10444 2.80114 74 50 50
-0.47203 -4.11466 2.80411 72 63 75
-0.48607 -4.12087 2.79251 60 53 56
-0.48311 -4.15840 2.81503 68 61 71
-0.49449 -4.19957 2.82534 56 54 58
-0.50879 -4.20589 2.81353 54 48 43
-0.53012 -4.31146 2.85358 61 54 72
-0.55480 -4.38913 2.87318 93 101 118
-0.56966 -4.39569 2.86091 117 121 141
-0.56759 -4.40836 2.87832 113 121 144
-0.59341 -4.44896 2.88914 84 92 164
-0.60645 -4.47410 2.89571 87 106 174
-0.61984 -4.56045 2.91688 141 155 184
1.62152 -4.03674 2.67630 86 70 59
1.63413 -4.03044 2.65753 95 81 81
1.62064 -4.06876 2.68387 42 32 27
1.60530 -4.07505 2.68605 33 29 33
1.59261 -4.08138 2.70493 31 29 23
1.59034 -4.08202 2.68837 33 32 29
0.74442 -3.54397 2.60066 26 35 53
0.75476 -3.53881 2.58529 34 40 41
0.73531 -3.55762 2.60429 76 89 105
0.72957 -3.58029 2.60988 96 118 138
0.71543 -3.58653 2.59820 98 114 138
0.19589 -4.06393 2.74793 20 23 46
0.20690 -4.05844 2.73156 16 19 32
0.18219 -4.06627 2.74910 23 33 56
0.16837 -4.06785 2.75011 31 46 68
0.14178 -4.07620 2.75329 34 43 56
0.12861 -4.08090 2.75499 18 16 38
0.11372 -4.08748 2.74269 11 17 18
0.09146 -4.10851 2.76318 17 20 37
0.10246 -4.10303 2.74683 10 17 17
0.07654 -4.11511 2.75085 35 34 57
