ply
format ascii 1.0
element face 0
property list uchar int vertex_indices
element vertex 1316
property float x
property float y
property float z
property uchar diffuse_red
property uchar diffuse_green
property uchar diffuse_blue
end_header
-0.28661 -4.08493 2.16249 118 140 66
-0.30285 -4.09457 2.14884 122 156 84
-1.09994 -3.87220 2.20231 104 94 73
-1.11862 -3.82991 2.19687 95 79 53
-1.13045 -3.84198 2.20003 88 69 45
-1.17034 -3.84052 2.20351 66 65 86
-1.18277 -3.84722 2.20581 72 83 93
-1.19670 -3.83961 2.20581 64 75 79
-1.20906 -3.84665 2.20816 45 45 47
-1.22300 -3.85492 2.19645 36 29 23
1.30376 -3.04321 1.82092 109 91 81
1.31589 -3.03842 1.80298 113 95 89
1.29884 -3.06019 1.82422 149 136 90
1.28982 -3.07265 1.82715 181 173 125
1.27426 -3.07773 1.82948 190 176 137
1.25236 -3.09847 1.83502 176 161 143
1.25068 -3.10068 1.81945 167 154 143
1.23680 -3.10770 1.82194 169 154 146
1.53007 -5.41156 2.19386 168 194 217
1.54855 -5.40426 2.16652 173 199 231
1.50651 -5.42554 2.17406 179 205 236
1.51943 -5.44093 2.19977 174 202 230
1.49580 -5.45496 2.17990 180 208 239
1.50191 -5.45811 2.20429 182 206 236
1.45695 -5.52451 2.21963 175 204 234
1.43920 -5.54183 2.22420 165 200 234
1.41272 -5.54268 2.22686 143 164 213
1.43121 -5.62963 2.23959 113 129 172
1.43355 -5.68669 2.24887 95 111 153
1.41907 -5.71171 2.25441 86 99 130
1.40716 -5.74205 2.26060 84 96 116
1.31543 -5.83287 2.28445 70 69 81
1.29086 -5.84746 2.26379 59 63 72
-0.05779 -4.20859 2.14453 162 149 134
-0.04444 -4.20332 2.12478 168 150 136
-0.05963 -4.21101 2.12750 165 150 138
-0.07481 -4.21869 2.13023 164 151 133
-0.07704 -4.20460 2.14569 155 138 115
-0.09401 -4.21467 2.13143 159 146 120
-0.09434 -4.20602 2.14757 131 115 90
-0.13009 -4.20495 2.15080 114 96 102
-0.14846 -4.20261 2.15216 125 114 114
-1.11614 -3.86433 2.18785 146 130 85
-1.10504 -3.85995 2.17143 169 154 137
-1.11767 -3.86634 2.17370 163 151 129
-1.13029 -3.87273 2.17596 160 148 119
-1.14519 -3.84444 2.18730 119 99 67
-1.15922 -3.85278 2.17551 153 132 101
-1.17216 -3.83963 2.18907 93 74 62
-1.18437 -3.84835 2.19168 80 74 61
-1.19859 -3.83778 2.19127 62 62 57
-1.21144 -3.83984 2.19284 47 39 40
1.29733 -3.04008 1.80505 106 91 92
1.30945 -3.03530 1.78713 112 96 88
1.29721 -3.06243 1.80870 146 134 118
1.28727 -3.07386 1.81153 173 168 147
1.27174 -3.08308 1.79848 169 156 147
1.27135 -3.07852 1.81383 175 163 147
1.25583 -3.08773 1.80079 166 154 139
1.25835 -3.08651 1.81640 170 156 143
1.24283 -3.09572 1.80335 167 154 142
1.51927 -5.40011 2.16868 176 202 237
1.53771 -5.39283 2.14141 178 202 237
1.51675 -5.40345 2.14517 178 205 243
1.48564 -5.48573 2.18591 177 211 234
1.47241 -5.51116 2.19134 168 198 212
1.42820 -5.47889 2.19035 145 161 202
1.46197 -5.59304 2.20571 114 133 179
1.45873 -5.63856 2.21345 97 113 160
1.45062 -5.67532 2.22024 89 101 137
1.43750 -5.70286 2.22600 86 97 124
1.42020 -5.72250 2.23088 84 95 111
1.39582 -5.73697 2.21039 77 88 99
1.41108 -5.75846 2.23763 83 93 104
1.39783 -5.78665 2.24351 81 91 102
1.37766 -5.80123 2.24785 77 88 97
1.35464 -5.81009 2.25152 72 81 89
1.32990 -5.81539 2.25478 67 69 82
1.31351 -5.83785 2.26003 62 61 77
1.28893 -5.85244 2.23938 47 48 58
-0.11510 -4.20483 2.13187 150 134 104
-0.10184 -4.19960 2.11225 167 152 134
-0.11692 -4.20724 2.11496 165 151 125
-0.14904 -4.20872 2.13579 124 113 101
-0.19279 -4.18176 2.13562 127 142 86
-0.21704 -4.16007 2.13443 132 154 87
-0.25345 -4.09919 2.12802 151 184 98
-0.26978 -4.10889 2.11430 145 184 96
-0.27261 -4.09184 2.12868 150 186 104
-0.28889 -4.10150 2.11500 149 185 84
-1.17385 -3.83989 2.17482 142 121 89
-1.16289 -3.83556 2.15861 168 152 128
-1.17535 -3.84187 2.16085 163 149 123
-1.18782 -3.84818 2.16308 159 145 119
-1.19943 -3.84614 2.17832 107 92 64
-1.21338 -3.85442 2.16660 147 128 91
-1.21197 -3.85155 2.18042 93 73 50
-1.22591 -3.85983 2.16870 133 114 73
-1.22719 -3.82906 2.17822 76 57 30
-1.23805 -3.83335 2.19429 33 32 26
-1.23954 -3.83531 2.18044 59 44 21
1.29266 -3.03890 1.78936 105 92 92
1.30476 -3.03412 1.77146 108 94 84
1.28685 -3.05483 1.79248 130 115 115
1.28258 -3.07264 1.79574 162 154 146
1.26707 -3.08185 1.78270 173 156 140
1.50532 -5.43131 2.15075 176 207 237
1.49042 -5.45316 2.15571 165 195 227
1.47945 -5.48241 2.16147 146 163 205
1.48666 -5.54576 2.17088 119 138 167
1.48724 -5.59762 2.17911 101 115 156
1.48112 -5.63753 2.18609 91 106 140
1.46846 -5.66550 2.19181 87 103 131
1.45508 -5.69238 2.19742 85 99 121
1.44055 -5.71732 2.20284 84 95 111
1.42745 -5.74532 2.20861 81 90 103
1.39402 -5.78780 2.21869 74 85 98
1.37276 -5.80017 2.22276 70 83 91
1.35031 -5.81016 2.22657 64 77 80
1.32849 -5.82140 2.23052 58 64 73
1.30537 -5.82998 2.23417 53 54 66
1.28084 -5.84454 2.21355 27 26 37
0.48586 -4.47923 2.09904 127 141 142
0.50464 -4.46807 2.11482 25 37 63
0.50262 -4.47074 2.09603 23 41 60
0.50060 -4.47341 2.07724 21 40 57
0.47112 -4.48504 2.12084 169 166 155
0.47072 -4.49137 2.10247 166 166 157
0.45597 -4.49720 2.12429 166 160 150
0.45395 -4.49986 2.10548 165 160 149
0.45193 -4.50253 2.08667 165 157 146
-0.13865 -4.19505 2.11515 163 148 118
-0.12544 -4.18984 2.09562 168 153 131
-0.14046 -4.19744 2.09831 166 154 128
-0.18189 -4.16985 2.11538 148 143 103
-0.20000 -4.16740 2.11677 133 149 80
-0.21923 -4.16116 2.11767 122 153 61
-0.24819 -4.12376 2.11455 139 175 100
-0.26460 -4.13351 2.10075 143 178 90
-0.30007 -4.11986 2.11904 139 171 84
-0.28726 -4.11481 2.10010 145 182 86
-0.30182 -4.12218 2.10271 141 181 89
-0.31287 -4.12491 2.13797 123 155 90
-0.31143 -4.13790 2.12304 129 158 88
-0.32426 -4.14297 2.14202 121 154 89
-0.32045 -4.16412 2.12812 125 154 75
-0.33334 -4.16921 2.14718 124 157 90
-0.33511 -4.17154 2.13075 120 149 75
1.29388 -3.04431 1.77414 109 88 78
1.28011 -3.05129 1.77662 126 100 90
1.27553 -3.06872 1.77980 164 151 132
1.26004 -3.07791 1.76679 176 161 135
1.50727 -5.39429 2.12041 167 192 226
1.51619 -5.45897 2.12963 146 159 197
1.49387 -5.46745 2.13320 114 122 154
1.50284 -5.53361 2.14265 99 102 142
1.49128 -5.56254 2.14833 93 105 135
1.46732 -5.57677 2.12819 87 102 120
1.48876 -5.60876 2.15582 90 104 130
1.48303 -5.64952 2.16277 87 103 125
1.47165 -5.68004 2.16868 85 99 120
1.45607 -5.70280 2.17381 82 94 114
1.44071 -5.72620 2.17901 79 89 106
1.42183 -5.74292 2.18351 76 84 98
1.40256 -5.75899 2.18796 72 83 94
1.38462 -5.77777 2.19270 68 81 89
1.36591 -5.79518 2.19730 61 77 77
1.34166 -5.80142 2.20070 52 69 60
1.32614 -5.82549 2.20602 44 52 49
1.31293 -5.85460 2.21190 36 37 44
1.28831 -5.86922 2.19121 14 12 18
0.48730 -4.48965 2.08111 122 136 140
0.50207 -4.48382 2.05927 21 38 60
0.47476 -4.50774 2.08520 167 166 160
0.45591 -4.51894 2.06935 168 158 145
0.17990 -4.27617 2.07852 171 165 164
0.19751 -4.26571 2.09332 179 168 165
0.19561 -4.26821 2.07570 177 169 165
0.18179 -4.27366 2.09614 179 169 163
0.16608 -4.28162 2.09896 179 167 166
0.16221 -4.27914 2.08076 170 167 164
0.14841 -4.28459 2.10118 178 166 165
0.14635 -4.28666 2.08352 173 169 163
0.13254 -4.29211 2.10394 178 167 164
0.13065 -4.29461 2.08634 177 168 162
-0.16786 -4.16756 2.09638 166 155 125
-0.15477 -4.16239 2.07702 171 157 131
-0.16966 -4.16993 2.07969 168 156 131
-0.18454 -4.17746 2.08236 166 155 128
-0.18956 -4.15422 2.09647 163 156 119
-0.20888 -4.14779 2.09740 153 155 95
-0.22543 -4.15762 2.08349 147 165 91
-0.22527 -4.15018 2.09942 133 158 69
-0.24180 -4.16000 2.08552 146 173 85
-0.24991 -4.12622 2.09814 140 172 95
-0.26633 -4.13597 2.08435 141 172 83
-0.31505 -4.13400 2.10589 138 173 83
-0.31681 -4.13632 2.08955 142 177 75
-0.32507 -4.15680 2.11046 133 169 83
-0.44945 -4.12679 2.11823 134 130 134
-0.46207 -4.13177 2.13690 180 168 159
-0.46381 -4.13406 2.12081 162 159 162
2.66640 -2.67261 1.56139 201 206 211
2.68111 -2.66517 1.55875 221 223 228
2.67934 -2.66751 1.54226 220 222 229
2.66463 -2.67496 1.54490 213 217 222
2.65347 -2.67772 1.58052 161 165 176
2.65170 -2.68006 1.56403 169 174 184
1.31497 -3.02726 1.75343 109 89 79
1.33038 -3.01811 1.76639 112 92 82
1.32872 -3.02030 1.75097 108 87 80
1.31663 -3.02507 1.76885 110 94 82
1.30332 -3.03656 1.75604 111 98 80
1.29208 -3.04636 1.75869 135 114 85
1.28311 -3.05876 1.76150 162 138 102
1.26994 -3.06645 1.76402 183 170 125
1.54480 -5.46969 2.10390 123 146 179
1.56343 -5.46234 2.07635 109 130 161
1.54225 -5.47306 2.08015 100 117 142
1.52225 -5.47794 2.10747 105 107 142
1.49852 -5.49203 2.08752 91 84 108
1.51016 -5.50530 2.11289 93 91 113
1.48636 -5.51943 2.09288 90 94 111
1.49935 -5.53530 2.11858 89 92 115
1.47547 -5.54948 2.09851 87 99 115
1.49334 -5.57458 2.12521 89 101 122
1.47973 -5.65166 2.13839 84 98 117
1.47175 -5.68867 2.14487 81 94 112
1.46060 -5.72006 2.15081 78 90 106
1.44381 -5.74081 2.15570 74 84 97
1.43136 -5.77028 2.16148 69 82 88
1.40975 -5.78193 2.16547 64 79 79
1.38745 -5.79219 2.16931 58 73 68
1.36346 -5.79904 2.17281 48 62 51
1.34334 -5.81369 2.17710 36 45 36
1.33272 -5.84794 2.18343 25 28 26
1.30809 -5.86256 2.16273 11 9 13
1.31035 -5.85825 2.18728 18 17 22
1.28573 -5.87287 2.16659 11 10 14
0.49306 -4.50976 2.06416 118 131 137
0.47994 -4.52671 2.06809 168 167 159
0.46102 -4.53795 2.05220 168 159 143
0.19383 -4.27100 2.05811 177 168 157
0.21145 -4.26055 2.07291 177 168 162
0.20955 -4.26305 2.05529 176 169 161
0.20766 -4.26555 2.03767 177 169 161
0.18787 -4.30338 2.06368 144 129 141
0.16215 -4.28626 2.06368 131 128 151
0.14536 -4.29147 2.06619 149 147 156
0.12620 -4.29049 2.06799 170 163 162
0.11241 -4.29593 2.08838 178 167 161
0.11052 -4.29842 2.07080 176 169 165
-0.20894 -4.15547 2.08148 163 157 113
-0.19593 -4.15034 2.06225 171 156 130
-0.21072 -4.15783 2.06490 168 155 124
-0.22551 -4.16531 2.06755 160 163 110
-0.27852 -4.15139 2.08795 137 172 80
-0.29656 -4.14771 2.08923 136 176 76
-0.33176 -4.14243 2.09200 137 172 79
-0.34808 -4.15213 2.07828 130 153 61
-0.34784 -4.14462 2.09398 131 165 79
-0.36415 -4.15430 2.08027 125 155 59
-0.40411 -4.18110 2.10530 96 94 74
-0.41952 -4.18544 2.10753 86 73 66
1.34245 -3.01731 1.73318 107 81 74
1.35787 -3.00815 1.74614 106 89 85
1.35621 -3.01034 1.73071 102 84 65
1.34411 -3.01512 1.74861 106 87 87
1.32892 -3.02452 1.73566 112 87 87
1.31272 -3.02878 1.73798 136 115 92
1.30269 -3.03990 1.74068 157 142 107
1.28727 -3.04906 1.72771 188 175 142
1.29096 -3.04916 1.74328 179 164 120
1.27782 -3.05685 1.74580 194 176 134
1.26497 -3.06489 1.74833 185 173 131
1.24953 -3.07406 1.73535 165 152 131
1.25257 -3.07344 1.75090 172 157 131
1.24044 -3.07823 1.76883 170 154 141
1.23878 -3.08042 1.75337 169 155 145
1.23711 -3.08262 1.73791 166 155 146
1.52401 -5.48915 2.08445 93 94 115
1.54266 -5.48179 2.05687 96 111 126
1.50025 -5.50326 2.06448 88 85 103
1.48284 -5.61423 2.10744 83 97 115
1.50175 -5.60676 2.07947 82 94 105
1.47707 -5.65498 2.11414 80 92 111
1.46964 -5.69312 2.12062 77 89 105
1.46327 -5.73377 2.12737 72 86 94
1.44859 -5.75875 2.13263 66 81 82
1.44241 -5.80071 2.13955 59 76 66
1.41921 -5.80944 2.14326 50 64 53
1.39814 -5.82239 2.14739 40 46 44
1.36544 -5.81185 2.14920 29 31 30
1.34088 -5.82643 2.12856 10 10 10
1.34512 -5.82620 2.15345 19 19 18
1.32056 -5.84078 2.13280 10 10 7
1.32344 -5.83779 2.15743 13 11 13
1.29887 -5.85238 2.13678 11 12 10
0.51213 -4.51336 2.04322 22 38 58
0.48825 -4.50620 2.04462 113 127 130
0.48388 -4.54295 2.05058 167 166 156
0.46491 -4.55421 2.03463 168 158 144
0.18983 -4.26826 2.03992 179 168 153
0.20363 -4.26281 2.01950 177 167 160
0.18351 -4.29973 2.04529 128 108 105
0.16255 -4.29460 2.04669 79 66 95
0.15247 -4.31706 2.05110 106 103 124
0.12226 -4.28767 2.04983 155 154 153
0.10759 -4.29819 2.05293 174 170 162
0.09382 -4.30362 2.07330 177 169 162
0.09193 -4.30612 2.05574 176 170 159
0.09004 -4.30861 2.03817 174 167 154
-0.32000 -4.13382 2.07263 136 163 66
-0.37800 -4.16413 2.08318 139 157 71
-0.37976 -4.16644 2.06685 153 148 105
-0.40652 -4.18106 2.08867 122 108 89
-0.42381 -4.17842 2.09007 115 100 86
-0.44519 -4.16019 2.08955 109 96 86
-0.46426 -4.15003 2.09001 102 88 84
-0.48039 -4.15961 2.07645 108 95 81
-0.48472 -4.13403 2.08973 105 100 107
-0.49731 -4.13899 2.10835 163 160 154
-0.49903 -4.14127 2.09230 116 118 117
-0.50076 -4.14355 2.07625 97 91 82
1.36323 -3.00008 1.71254 101 83 71
1.37862 -2.99094 1.72548 104 88 82
1.37696 -2.99313 1.71008 104 83 77
1.36488 -2.99789 1.72795 100 88 76
1.34779 -3.00518 1.71492 116 88 70
1.33507 -3.01323 1.71743 142 115 82
1.32180 -3.02069 1.71992 159 138 115
1.30641 -3.02983 1.70699 187 174 143
1.30844 -3.02806 1.72241 182 165 125
1.29637 -3.03688 1.72497 193 177 138
1.27416 -3.05678 1.73022 180 164 142
1.27250 -3.05897 1.71478 165 150 141
1.25873 -3.06594 1.71725 165 151 142
1.26209 -3.06569 1.73280 170 157 137
1.24665 -3.07486 1.71982 163 152 137
1.48686 -5.63011 2.08445 78 92 105
1.47970 -5.66840 2.09081 74 87 99
1.47112 -5.70442 2.09699 70 83 89
1.46829 -5.75205 2.10425 62 75 75
1.45603 -5.78190 2.10992 51 62 63
1.43238 -5.78968 2.11354 40 48 45
1.41139 -5.80266 2.11766 30 32 32
1.38680 -5.81726 2.09699 14 10 14
1.38498 -5.80481 2.12075 22 18 23
1.36043 -5.81939 2.10011 12 10 11
1.36011 -5.80990 2.12412 14 11 16
1.33558 -5.82447 2.10350 11 12 11
0.51281 -4.52210 2.02489 23 39 55
0.49271 -4.52347 2.02720 109 122 118
0.48871 -4.56124 2.03315 165 165 153
0.46967 -4.57254 2.01716 168 156 149
0.18498 -4.26341 2.02156 180 169 156
0.19876 -4.25797 2.00117 175 166 159
0.18309 -4.26591 2.00398 179 168 161
0.18351 -4.30704 2.02810 148 128 108
0.16030 -4.29620 2.02896 71 55 57
0.13476 -4.27899 2.02913 79 81 96
0.11675 -4.28077 2.03128 136 143 146
0.10413 -4.29654 2.03492 167 165 154
-0.34046 -4.12940 2.05729 140 146 66
-0.35902 -4.12279 2.05828 145 148 81
-0.36989 -4.14268 2.06233 145 149 84
-0.38614 -4.15234 2.04867 164 147 124
-0.40505 -4.13530 2.06496 151 138 111
-0.42146 -4.13540 2.06670 147 131 106
-0.47231 -4.12837 2.07103 121 102 87
1.38008 -2.97880 1.69180 102 80 71
1.39543 -2.96968 1.70470 103 88 78
1.39378 -2.97186 1.68935 103 80 71
1.38173 -2.97662 1.70716 102 86 75
1.36348 -2.98261 1.69413 121 93 91
1.33002 -2.96814 1.69564 142 120 99
1.33631 -2.99666 1.69905 166 143 116
1.32901 -3.01059 1.70182 187 171 119
1.31601 -3.01832 1.70431 197 182 138
1.29378 -3.03802 1.70951 178 164 138
1.29212 -3.04021 1.69411 165 152 134
1.27838 -3.04716 1.69657 166 151 138
1.28394 -3.04938 1.71219 169 155 140
1.26852 -3.05853 1.69923 165 150 141
1.50399 -5.46874 2.03461 88 90 106
1.52510 -5.45806 2.03082 92 106 118
1.52255 -5.46142 2.00715 89 101 113
1.48289 -5.47943 2.03839 85 85 97
1.48988 -5.59283 2.05386 77 90 94
1.51391 -5.57857 2.07406 86 91 106
1.51133 -5.58198 2.05001 82 89 99
1.48202 -5.62931 2.05992 70 87 91
1.47408 -5.66612 2.06603 63 80 84
1.44984 -5.68051 2.04566 33 38 43
1.47617 -5.72263 2.07389 55 69 66
1.45174 -5.73714 2.05336 23 23 28
1.46745 -5.75902 2.08003 44 52 52
1.43248 -5.74453 2.08170 32 34 42
1.40805 -5.75903 2.06116 11 10 16
1.41401 -5.76214 2.08619 21 19 30
1.38955 -5.77665 2.06564 10 10 16
1.39807 -5.78490 2.09115 15 12 21
1.37357 -5.79945 2.07056 14 13 16
0.51021 -4.52354 2.00581 24 41 50
0.49709 -4.54060 2.00966 101 108 111
0.49007 -4.57170 2.01485 163 162 153
0.47101 -4.58302 1.99883 168 154 152
0.16194 -4.26006 2.00541 175 157 142
0.17568 -4.25464 1.98509 178 166 162
0.15457 -4.28897 2.01033 108 93 79
0.13410 -4.28463 2.01190 73 70 73
0.11905 -4.29412 2.01487 98 107 118
0.09984 -4.29275 2.01673 139 145 147
0.08138 -4.29313 2.01876 163 161 151
0.06766 -4.29854 2.03906 175 169 158
-0.33025 -4.11579 2.03746 158 150 108
-0.34648 -4.12542 2.02382 168 155 127
-0.36502 -4.11040 2.04041 162 155 118
-0.38117 -4.11999 2.02684 166 156 129
-0.37545 -4.13164 2.04457 164 155 119
-0.39165 -4.14126 2.03095 165 151 131
-0.41441 -4.11018 2.04567 161 146 124
-0.41614 -4.11247 2.02959 164 149 132
-0.42927 -4.11553 2.04803 156 141 115
-0.44534 -4.12507 2.03452 157 148 119
-0.44592 -4.11425 2.04962 152 139 106
-0.46521 -4.10283 2.05006 145 132 104
-0.48145 -4.10244 2.05174 138 124 101
-0.49311 -4.11953 2.05543 123 108 79
-0.50736 -4.12675 2.05799 102 90 78
-0.50908 -4.12902 2.04200 91 84 65
1.39633 -2.95711 1.67117 98 79 69
1.40999 -2.95020 1.66872 98 75 70
1.39798 -2.95494 1.68648 99 82 68
1.38123 -2.96248 1.67356 125 95 85
1.34191 -2.94195 1.67497 145 122 96
1.37078 -2.99442 1.67916 169 147 134
1.35502 -2.99915 1.68153 191 175 140
1.34575 -3.01093 1.68419 195 183 146
1.32597 -3.01126 1.68638 188 173 142
1.31061 -3.02038 1.67347 166 151 146
1.31241 -3.01835 1.68885 180 164 144
1.29705 -3.02747 1.67594 165 153 143
1.30254 -3.02956 1.69148 167 157 141
1.28716 -3.03869 1.67856 167 154 137
1.50112 -5.47151 2.01089 84 87 101
1.51968 -5.46418 1.98345 85 94 108
1.49179 -5.50386 2.01643 80 78 95
1.48621 -5.54356 2.02258 75 85 89
1.48042 -5.58337 2.02876 66 80 77
1.48210 -5.63780 2.03618 56 68 71
1.45794 -5.65214 2.01588 24 20 31
1.48045 -5.68666 2.04319 44 52 58
1.45613 -5.70110 2.02275 16 14 28
0.50345 -4.46987 1.97950 31 38 33
0.50921 -4.52854 1.98707 24 38 48
0.49694 -4.54756 1.99106 90 88 100
0.48646 -4.57085 1.99545 159 159 154
0.46741 -4.58216 1.97944 168 155 147
0.15713 -4.25518 1.98718 181 167 159
0.17085 -4.24976 1.96689 178 168 164
0.15525 -4.25766 1.96969 177 168 161
0.14446 -4.27052 1.99070 155 139 123
0.12749 -4.27497 1.99317 102 90 77
0.11318 -4.28626 1.99630 70 69 72
0.09382 -4.28435 1.99814 86 92 105
0.07429 -4.28175 1.99990 120 125 135
0.05372 -4.27613 2.00135 147 148 148
-0.02998 -4.19631 1.99931 173 169 161
-0.02815 -4.19389 2.01630 178 169 161
-0.04330 -4.20156 2.01901 178 169 160
-0.04990 -4.19056 2.00067 175 172 166
-0.06318 -4.19580 2.02032 179 170 163
-0.06501 -4.19821 2.00338 176 172 167
-0.43331 -4.10937 2.03102 162 147 125
-0.42073 -4.10441 2.01241 165 154 141
-0.46738 -4.10340 2.03389 150 141 115
-0.48265 -4.10665 2.03601 136 123 99
-0.49706 -4.11317 2.03848 111 101 71
-0.51300 -4.12263 2.02509 66 63 43
1.39295 -2.93623 1.65291 124 97 88
1.38148 -2.96667 1.65833 179 158 135
1.37286 -2.97896 1.66095 198 184 141
1.35878 -2.98545 1.66339 196 180 151
1.35240 -3.00029 1.66612 189 169 145
1.33704 -3.00941 1.65321 168 151 137
1.33100 -2.99883 1.66828 177 161 144
1.31568 -3.00793 1.65541 167 153 140
1.31426 -3.00238 1.67062 169 154 143
1.29896 -3.01147 1.65775 167 154 144
1.49441 -5.46725 1.98665 78 82 93
1.51294 -5.45994 1.95924 75 84 96
1.49279 -5.51378 1.99317 71 73 86
1.47731 -5.53518 1.99780 60 70 71
1.47096 -5.57387 2.00377 46 54 57
0.48666 -4.43981 1.95792 32 42 41
0.49464 -4.50321 1.96568 25 34 53
0.49765 -4.55647 1.97260 81 75 84
0.48312 -4.57061 1.97613 155 160 153
0.46408 -4.58192 1.96013 169 159 140
0.12116 -4.26599 1.97459 154 140 118
0.10622 -4.27552 1.97754 111 94 68
0.08361 -4.26487 1.97859 76 63 52
0.05234 -4.23074 1.97739 67 65 76
0.03512 -4.24097 1.96291 69 60 44
0.03653 -4.23733 1.98003 87 89 102
0.02792 -4.26352 1.98455 113 114 120
-0.00131 -4.23331 1.98366 131 131 134
-0.05033 -4.19689 1.98411 149 150 158
-0.06721 -4.19953 1.98633 154 155 164
-0.08049 -4.20477 2.00598 179 171 164
-0.08054 -4.21228 1.98955 174 170 172
-0.09384 -4.21753 2.00921 182 171 167
-0.09566 -4.21994 1.99226 181 172 173
-0.43709 -4.10413 2.01418 159 150 133
-0.45226 -4.10810 2.01640 148 138 112
-0.47087 -4.09899 2.01721 128 120 97
-0.48531 -4.10533 2.01967 107 96 73
-0.49844 -4.11672 2.02267 85 81 52
-0.51439 -4.12619 2.00927 36 30 26
2.02861 -3.38597 1.62572 93 72 63
2.04633 -3.37544 1.64062 94 81 72
2.04442 -3.37796 1.62288 92 72 60
2.03052 -3.38345 1.64345 93 80 69
2.01470 -3.39145 1.64629 96 77 64
1.38189 -2.90753 1.63464 146 126 105
1.36678 -2.91650 1.62194 197 174 140
1.36284 -2.95076 1.64252 196 182 159
1.36869 -2.97845 1.64554 188 171 143
1.35725 -2.98776 1.64806 175 157 136
1.34192 -2.99685 1.63518 167 152 132
1.34434 -2.99551 1.65054 169 150 137
1.32901 -3.00461 1.63766 167 152 136
1.48852 -5.46448 1.96258 64 69 76
1.48598 -5.46783 1.93898 41 40 54
1.51158 -5.60715 1.97896 38 39 52
0.48705 -4.53983 1.95196 72 70 73
0.48307 -4.57790 1.95747 153 161 151
0.46402 -4.58921 1.94146 169 161 139
0.11601 -4.26002 1.95637 178 165 148
0.12968 -4.25463 1.93616 176 169 162
0.11414 -4.26249 1.93894 178 169 159
0.08583 -4.27813 1.96216 132 111 71
0.00268 -4.20218 1.96139 72 65 69
-0.00869 -4.22046 1.96510 79 76 97
-0.01985 -4.23957 1.96889 86 88 102
-0.03760 -4.24037 1.97099 89 91 108
-0.04976 -4.25693 1.97455 109 110 131
-0.08349 -4.21144 1.97229 156 155 164
-0.09711 -4.22345 1.97541 180 174 172
-0.11041 -4.22870 1.99508 183 172 174
-0.11223 -4.23110 1.97812 184 173 173
-0.11406 -4.23351 1.96116 185 174 173
-0.40441 -4.11280 1.99516 164 153 135
-0.38832 -4.10325 2.00868 167 154 134
-0.39005 -4.10554 1.99258 168 155 137
-0.40267 -4.11052 2.01125 166 153 135
-0.42314 -4.10421 1.99612 158 144 126
-0.43878 -4.10654 1.99818 137 125 111
-0.45776 -4.09631 1.99895 116 104 86
-0.47276 -4.10058 2.00120 93 89 65
-0.48339 -4.12152 2.00517 73 68 47
-0.49655 -4.13298 2.00817 55 52 35
2.03897 -3.35355 1.60206 85 72 59
2.05660 -3.34308 1.61688 89 79 71
2.05471 -3.34558 1.59924 87 70 60
2.05281 -3.34809 1.58160 103 82 78
2.03282 -3.37093 1.60501 106 79 71
2.01514 -3.38143 1.59016 176 177 172
2.01579 -3.37768 1.60783 126 107 95
1.99812 -3.38817 1.59297 189 191 201
2.01975 -3.40533 1.61096 153 140 158
2.00198 -3.41588 1.59602 195 196 202
1.44337 -2.93328 1.61540 158 137 103
1.45866 -2.92420 1.62824 90 62 40
1.45701 -2.92637 1.61295 132 97 58
1.44502 -2.93111 1.63069 111 89 66
1.37086 -2.89986 1.61932 202 183 144
1.36491 -2.95687 1.62739 176 157 155
1.36351 -2.97683 1.63013 167 147 127
1.34822 -2.98591 1.61728 163 148 120
1.34811 -2.98185 1.63253 166 149 133
1.26990 -3.23677 1.67447 154 143 144
1.28589 -3.22728 1.68791 167 154 149
1.28417 -3.22955 1.67191 167 155 146
1.27162 -3.23450 1.69047 165 153 145
1.25736 -3.24172 1.69303 165 152 143
1.24430 -3.25477 1.67972 159 149 142
1.23174 -3.25972 1.69829 164 150 144
1.23002 -3.26200 1.68228 162 151 140
0.49331 -4.46878 1.92251 42 49 53
0.47460 -4.47988 1.90679 39 31 25
0.49883 -4.52704 1.92944 34 36 36
0.49033 -4.55455 1.93397 58 63 64
0.48309 -4.58534 1.93878 148 159 151
0.46402 -4.59667 1.92275 169 160 145
0.09323 -4.25631 1.94052 180 167 149
0.10685 -4.25094 1.92037 178 170 158
0.09136 -4.25878 1.92315 179 171 156
0.07968 -4.26931 1.94375 176 162 131
-0.03173 -4.21397 1.94926 74 66 71
-0.03819 -4.24634 1.95419 70 66 71
-0.04797 -4.26976 1.95834 89 87 98
-0.08293 -4.22073 1.95596 138 136 141
-0.09715 -4.23106 1.95892 177 173 170
-0.11412 -4.24114 1.94466 183 172 169
-0.38915 -4.11713 1.97740 172 159 137
-0.37303 -4.10756 1.99094 169 154 139
-0.37476 -4.10985 1.97481 173 158 145
-0.37650 -4.11214 1.95869 172 160 142
-0.40857 -4.10639 1.97821 148 133 121
-0.42597 -4.10249 1.97969 129 110 96
-0.44157 -4.10490 1.98178 100 86 72
-0.45976 -4.09749 1.98289 81 69 61
-0.47058 -4.11758 1.98672 62 58 44
-0.48480 -4.12497 1.98930 43 33 35
-0.50079 -4.13446 1.97586 19 18 17
-0.50088 -4.12512 1.99115 25 18 21
-0.51684 -4.13460 1.97774 18 16 16
-0.51524 -4.13188 1.99366 19 14 14
-0.52948 -4.13909 1.99622 19 14 17
-0.53120 -4.14136 1.98025 20 16 17
2.01776 -3.26833 1.57558 83 65 69
2.03508 -3.25805 1.59013 85 69 67
2.03321 -3.26051 1.57280 81 65 58
2.01963 -3.26587 1.59290 85 70 72
2.00418 -3.27369 1.59567 85 71 69
2.01261 -3.28610 1.57842 85 70 74
2.01844 -3.33781 1.58427 114 106 101
2.01655 -3.34030 1.56672 166 169 171
2.00089 -3.34822 1.56953 170 182 174
2.01976 -3.36246 1.58723 142 136 137
2.00214 -3.37292 1.57242 186 185 184
1.38841 -2.88045 1.59932 203 183 147
1.37699 -2.88929 1.60175 197 175 141
1.36925 -2.90201 1.60425 183 162 160
1.36219 -2.91552 1.60678 190 159 143
1.35200 -2.92581 1.60925 199 176 169
1.34036 -2.93459 1.61171 204 185 176
1.35814 -2.97501 1.61475 175 157 119
1.28270 -3.23212 1.65592 165 153 143
1.29869 -3.22263 1.66936 168 153 147
1.29697 -3.22490 1.65336 167 152 143
1.29525 -3.22717 1.63737 165 153 147
1.27665 -3.24919 1.65878 118 111 130
1.26079 -3.25456 1.66129 107 105 120
1.24734 -3.26284 1.66389 137 134 136
1.23734 -3.27535 1.66662 157 149 139
1.22474 -3.28032 1.68525 164 150 142
1.22301 -3.28260 1.66919 163 151 139
1.17454 -5.59087 1.96617 36 40 45
1.15107 -5.60481 1.94644 39 51 50
1.15071 -5.59542 1.96950 38 44 47
1.12727 -5.60934 1.94979 41 53 47
0.48576 -4.55154 1.91454 46 53 57
0.48782 -4.60358 1.92087 145 157 151
0.46868 -4.61494 1.90479 169 160 153
0.07719 -4.27014 1.92622 179 169 153
0.09083 -4.26476 1.90605 177 170 154
0.07532 -4.27261 1.90883 178 169 156
0.05981 -4.28046 1.91162 179 169 156
0.02581 -4.28039 1.93345 162 151 121
0.00668 -4.27805 1.93536 146 134 110
-0.02005 -4.25422 1.93544 133 119 102
-0.03597 -4.26028 1.93805 126 116 101
-0.06208 -4.23709 1.93814 127 122 112
-0.08296 -4.22835 1.93945 150 145 138
-0.09994 -4.23843 1.92518 180 173 162
-0.09375 -4.24879 1.94327 177 172 167
-0.11078 -4.25890 1.92896 182 172 163
-0.29718 -4.09994 1.94798 186 174 162
-0.28446 -4.09492 1.92917 184 175 172
-0.29892 -4.10224 1.93177 182 175 169
-0.31339 -4.10956 1.93436 182 176 166
-0.31063 -4.11061 1.95089 182 170 153
-0.32699 -4.11162 1.95290 178 163 149
-0.33970 -4.11664 1.97170 173 157 137
-0.34311 -4.11328 1.95497 176 158 139
-0.35581 -4.11829 1.97375 175 162 143
-0.35755 -4.12058 1.95756 173 155 139
-0.39043 -4.12101 1.96142 164 152 131
-0.41059 -4.10761 1.96205 117 96 94
-0.42447 -4.11648 1.96478 89 76 81
-0.44260 -4.10971 1.96602 66 65 57
-0.45715 -4.11593 1.96848 49 42 36
-0.47315 -4.12543 1.95504 15 19 18
-0.47304 -4.11704 1.97046 29 23 23
-0.48901 -4.12653 1.95703 18 19 16
-0.48719 -4.12465 1.97305 21 14 24
-0.50317 -4.13414 1.95963 18 20 17
2.01354 -3.22360 1.55273 79 63 53
2.03070 -3.21341 1.56715 83 65 59
2.02885 -3.21585 1.54998 79 61 56
2.01539 -3.22116 1.56990 81 66 59
2.01546 -3.24780 1.55548 80 65 63
2.01013 -3.26525 1.55825 97 81 82
1.99284 -3.27551 1.54372 159 168 157
2.01886 -3.29641 1.56105 112 110 109
2.00146 -3.30675 1.54643 169 169 166
2.00469 -3.30560 1.56384 141 140 138
1.98728 -3.31593 1.54921 178 171 177
1.39395 -2.88998 1.58436 186 148 156
1.37792 -2.89407 1.58674 194 163 161
1.36542 -2.90183 1.58916 195 180 203
1.31194 -2.86643 1.59108 226 217 221
1.29710 -2.87524 1.57860 254 254 254
1.30802 -2.88303 1.59358 250 250 234
1.28364 -2.87791 1.59581 254 247 226
1.29671 -2.91289 1.59858 210 199 162
1.32546 -2.96523 1.60164 170 156 111
1.31191 -2.97209 1.60407 160 144 116
1.27917 -3.23223 1.63987 162 149 139
1.29171 -3.22729 1.62133 166 152 149
1.27146 -3.24731 1.64263 100 93 104
1.24696 -3.24220 1.64487 57 60 89
1.24170 -3.26035 1.64772 93 98 115
1.23553 -3.27752 1.65055 137 135 135
1.22458 -3.28894 1.65324 155 148 137
1.21196 -3.29391 1.67190 164 151 143
1.21023 -3.29620 1.65581 161 152 141
0.49555 -4.62876 1.90334 142 155 150
0.47632 -4.64017 1.88718 167 159 150
0.02587 -4.28814 1.91654 179 170 157
0.03949 -4.28277 1.89640 181 170 158
0.02401 -4.29060 1.89918 180 171 160
0.00853 -4.29844 1.90196 181 171 159
0.00731 -4.28741 1.91862 178 169 151
-0.01001 -4.29769 1.90407 183 171 158
-0.01377 -4.27944 1.92012 175 166 145
-0.03103 -4.28968 1.90561 183 173 161
-0.04186 -4.25122 1.91994 172 165 146
-0.05898 -4.26138 1.90556 183 175 162
-0.05944 -4.25233 1.92214 172 168 146
-0.07653 -4.26248 1.90777 182 173 160
-0.07836 -4.24942 1.92400 176 170 151
-0.09541 -4.25955 1.90967 181 172 161
-0.33069 -4.10735 1.93612 186 177 167
-0.34686 -4.11695 1.92252 185 176 172
-0.34762 -4.10616 1.93796 183 169 158
-0.36321 -4.10937 1.94018 178 161 136
-0.39723 -4.10534 1.94367 148 129 112
-0.41074 -4.11555 1.94651 97 78 72
-0.42702 -4.11575 1.94844 61 49 59
-0.44306 -4.12528 1.93496 21 18 24
-0.44356 -4.11480 1.95026 30 29 36
-0.45957 -4.12431 1.93680 18 19 15
-0.45875 -4.11865 1.95252 14 20 25
-0.47475 -4.12815 1.93907 19 21 16
2.04705 -3.21498 1.53004 72 58 57
2.06423 -3.20478 1.54448 76 62 55
2.06238 -3.20722 1.52729 69 59 51
2.04890 -3.21254 1.54723 78 62 47
2.01886 -3.21061 1.53287 77 60 62
2.00631 -3.22092 1.53559 94 78 73
1.98917 -3.23109 1.52119 152 160 161
1.99262 -3.23019 1.53833 105 103 115
1.97548 -3.24037 1.52392 162 165 164
1.96617 -3.22720 1.54112 135 139 132
1.94909 -3.23734 1.52676 173 170 162
1.40165 -2.86061 1.56442 192 156 151
1.41662 -2.85172 1.57700 206 192 172
1.41501 -2.85385 1.56203 187 173 148
1.41340 -2.85597 1.54705 190 182 164
1.37679 -2.87604 1.56922 207 180 207
1.34060 -2.87965 1.57396 254 251 245
1.32567 -2.88852 1.56141 254 254 254
1.32660 -2.88569 1.57634 254 254 252
1.31168 -2.89455 1.56380 254 254 254
1.27839 -2.87610 1.58093 254 254 251
1.27679 -2.87821 1.56611 254 254 254
1.25860 -2.87573 1.58324 251 247 228
1.27270 -2.91198 1.58590 208 197 171
1.28737 -2.94926 1.58861 164 147 110
1.27554 -2.95392 1.60610 164 151 133
1.24571 -2.94654 1.59324 156 144 135
1.23395 -2.95118 1.61064 166 151 141
1.22295 -2.94287 1.59550 159 148 137
1.21123 -2.94749 1.61285 164 153 140
1.20962 -2.94962 1.59790 162 151 138
1.27523 -3.23186 1.62383 162 148 140
1.28776 -3.22691 1.60530 162 149 142
1.27351 -3.23412 1.60786 160 147 138
1.26997 -3.24987 1.62661 141 126 110
1.24602 -3.24541 1.62893 69 65 75
1.23178 -3.25262 1.63148 59 67 88
1.22875 -3.27360 1.63435 106 108 120
1.22385 -3.29247 1.63719 143 136 128
1.20651 -3.29600 1.63967 157 150 134
1.19391 -3.30098 1.65831 164 153 140
1.19218 -3.30326 1.64224 163 154 137
0.54307 -4.64855 1.88025 45 24 11
0.50293 -4.65321 1.88558 138 148 146
0.48362 -4.66467 1.86935 166 159 147
-0.28294 -4.10779 1.91383 184 178 180
-0.26670 -4.09814 1.92748 184 176 169
-0.26844 -4.10045 1.91123 185 178 176
-0.27019 -4.10276 1.89497 184 178 169
-0.29925 -4.10920 1.91593 168 164 159
-0.33190 -4.11144 1.92008 183 175 178
-0.34808 -4.12104 1.90649 184 177 169
-0.36487 -4.11189 1.92406 185 174 155
-0.36661 -4.11418 1.90792 182 173 166
-0.38044 -4.11507 1.92629 182 170 142
-0.39853 -4.10918 1.92774 131 105 96
-0.41198 -4.11961 1.93058 89 65 51
-0.42885 -4.11764 1.93236 32 18 26
-0.44490 -4.12716 1.91887 23 20 25
2.07615 -3.20217 1.50734 69 55 46
2.09333 -3.19197 1.52178 70 57 53
2.09148 -3.19441 1.50459 68 52 45
2.07800 -3.19973 1.52453 70 59 55
2.05803 -3.20733 1.51013 69 57 45
2.04087 -3.21752 1.49570 128 134 127
2.04803 -3.22007 1.51282 85 73 80
2.03084 -3.23028 1.49837 148 152 151
2.01296 -3.20920 1.51578 99 96 95
1.99586 -3.21935 1.50141 159 155 153
1.97992 -3.20002 1.51870 129 137 135
1.96291 -3.21012 1.50440 167 164 162
1.42082 -2.88396 1.54941 218 200 218
1.40575 -2.89291 1.53674 254 254 254
1.36693 -2.84917 1.55186 248 246 233
1.35206 -2.85800 1.53937 254 254 254
1.35073 -2.85285 1.55424 254 254 246
1.33587 -2.86167 1.54176 254 254 254
1.25046 -2.87077 1.56842 254 254 251
1.26203 -2.86620 1.55130 254 254 254
1.24887 -2.87286 1.55366 254 254 254
1.22681 -2.86605 1.57072 252 247 233
1.24370 -2.90546 1.57327 202 194 168
1.24737 -2.93079 1.57577 156 141 88
1.23364 -2.93709 1.57815 139 127 122
1.21497 -2.93787 1.58050 145 139 128
1.20253 -2.94558 1.58289 154 145 133
1.19083 -2.95020 1.60020 167 154 138
1.20784 -2.97337 1.58548 163 149 135
1.19606 -2.97802 1.60290 164 153 138
1.19445 -2.98015 1.58788 164 150 137
1.25590 -3.23729 1.61035 161 148 115
1.26842 -3.23236 1.59184 160 148 136
1.24862 -3.25291 1.61304 106 94 58
1.23523 -3.26120 1.61562 49 49 62
1.22198 -3.26968 1.61821 82 87 104
1.22191 -3.29449 1.62110 131 125 121
1.20583 -3.30403 1.60758 146 134 125
1.20511 -3.29869 1.62361 150 141 127
0.91314 -4.28666 1.77362 119 103 75
0.89839 -4.29248 1.79543 32 20 16
0.89637 -4.29515 1.77663 39 32 21
0.89435 -4.29782 1.75783 53 48 38
0.49243 -4.40503 1.83811 49 61 62
0.47395 -4.41600 1.82258 77 87 90
0.54617 -4.66298 1.86161 42 25 9
0.52767 -4.66908 1.86454 26 34 49
0.51162 -4.68073 1.86783 136 148 144
0.49221 -4.69226 1.85152 165 160 147
-0.30860 -4.08651 1.89771 142 128 117
-0.32582 -4.08438 1.89954 126 113 93
-0.33593 -4.10600 1.90327 171 168 181
-0.35209 -4.11559 1.88970 185 177 168
-0.38205 -4.11778 1.91020 184 171 147
-0.36941 -4.11279 1.89150 182 173 168
-0.40033 -4.11121 1.91164 113 93 85
-0.41332 -4.12328 1.91461 81 66 55
-0.42800 -4.12936 1.91709 36 25 24
-0.44407 -4.13890 1.90358 25 21 26
2.11705 -3.20016 1.48442 66 46 46
2.13429 -3.18992 1.49891 68 50 52
2.13243 -3.19237 1.48166 66 43 48
2.11891 -3.19771 1.50167 66 49 51
2.09981 -3.21039 1.46994 95 96 111
2.10496 -3.21098 1.48712 72 58 57
2.08771 -3.22122 1.47262 114 124 129
2.07680 -3.20693 1.49011 82 72 68
2.05961 -3.21714 1.47566 138 145 128
2.03837 -3.19313 1.49325 98 96 79
2.02129 -3.20327 1.47889 153 149 142
1.41148 -2.83754 1.52979 230 219 222
1.42638 -2.82870 1.54231 188 173 159
1.42478 -2.83081 1.52740 192 190 193
1.41309 -2.83543 1.54470 192 165 142
1.39658 -2.84639 1.51727 254 254 254
1.39025 -2.83621 1.53224 251 250 232
1.37539 -2.84503 1.51974 254 254 254
1.36997 -2.83574 1.53466 254 254 251
1.35514 -2.84455 1.52220 254 254 254
1.21934 -2.86174 1.55602 254 254 253
1.19789 -2.85921 1.55836 251 247 228
1.22141 -2.90609 1.56077 193 188 159
1.22845 -2.93524 1.56320 136 118 116
1.21151 -2.93792 1.56557 133 122 124
1.20114 -2.94794 1.56797 143 134 132
1.20878 -2.97839 1.57047 153 142 132
1.21298 -3.00524 1.57299 158 145 134
1.20111 -3.00992 1.59054 167 152 141
1.25463 -3.24009 1.59440 160 149 125
1.26714 -3.23515 1.57589 161 149 142
1.23159 -3.26113 1.59959 62 52 53
1.21968 -3.27124 1.60219 79 83 91
1.23111 -3.31031 1.60520 129 126 123
1.21497 -3.31989 1.59164 149 139 128
0.92518 -4.27606 1.75160 136 123 102
0.93991 -4.27025 1.72982 136 123 111
0.92316 -4.27873 1.73282 135 123 107
0.90783 -4.28347 1.75456 125 110 86
0.55867 -4.69872 1.84412 37 27 10
0.54123 -4.70754 1.84725 22 33 50
0.52120 -4.71039 1.85002 134 146 145
0.50169 -4.72198 1.83362 165 161 144
-0.28752 -4.10890 1.88105 182 172 148
-0.27478 -4.10387 1.86220 180 171 161
-0.31033 -4.08880 1.88157 143 132 103
-0.33687 -4.11100 1.88732 166 161 164
-0.35303 -4.12060 1.87374 187 176 165
-0.38248 -4.12468 1.89444 182 168 148
-0.36982 -4.11968 1.87572 183 177 166
-0.40135 -4.11600 1.89577 116 98 76
-0.41378 -4.13017 1.89889 82 76 56
-0.42660 -4.14308 1.90191 38 29 32
2.11314 -3.20072 1.46723 78 61 58
2.12665 -3.19538 1.44723 83 80 93
2.11128 -3.20316 1.44999 101 107 105
2.09591 -3.21094 1.45275 130 131 143
1.42434 -2.81409 1.51029 242 236 234
1.43918 -2.80528 1.52276 192 157 155
1.43758 -2.80739 1.50791 203 172 201
1.42594 -2.81198 1.52514 196 174 173
1.40950 -2.82290 1.49781 254 254 254
1.41270 -2.82241 1.51264 254 252 241
1.39785 -2.83122 1.50016 254 254 254
1.39088 -2.82046 1.51513 254 254 253
1.37608 -2.82925 1.50269 254 254 254
1.22854 -2.85470 1.53901 251 253 254
1.24161 -2.84808 1.53667 253 254 254
1.20913 -2.85443 1.54139 248 248 251
1.19100 -2.85547 1.54375 233 240 236
1.20040 -2.88679 1.54601 215 211 191
1.21843 -2.92802 1.54829 142 117 122
1.20407 -2.93352 1.55068 123 108 123
1.20036 -2.95099 1.55305 132 124 127
1.22411 -3.02194 1.55788 149 138 131
1.24963 -3.09654 1.56288 156 143 138
1.23749 -3.10133 1.58084 166 151 142
1.26671 -3.13951 1.56547 158 146 138
1.25444 -3.14435 1.58362 167 152 146
1.27015 -3.16698 1.56805 160 148 139
1.25781 -3.17185 1.58631 163 149 140
1.27113 -3.19182 1.57065 160 144 138
1.25872 -3.19672 1.58901 161 148 137
1.25701 -3.19896 1.57318 160 146 138
1.25264 -3.24202 1.57844 160 148 138
1.26515 -3.23708 1.55993 160 151 151
1.25092 -3.24429 1.56248 161 149 144
1.24708 -3.25977 1.58107 161 142 121
1.23339 -3.26771 1.58364 79 63 82
1.21912 -3.27494 1.58620 76 69 87
1.22771 -3.31054 1.58903 129 127 121
0.90433 -4.28350 1.73568 129 114 92
0.91905 -4.27769 1.71391 136 121 104
0.89835 -4.31134 1.73947 71 62 48
0.88357 -4.31717 1.76133 31 22 29
0.88154 -4.31985 1.74249 38 24 27
0.87952 -4.32252 1.72364 39 30 33
0.56738 -4.72597 1.82591 40 31 15
0.54986 -4.73484 1.82906 22 32 53
0.53450 -4.74871 1.83248 131 140 148
-0.28861 -4.11333 1.86495 183 172 157
-0.27587 -4.10830 1.84610 183 172 164
-0.29036 -4.11564 1.84870 184 172 164
-0.30599 -4.11115 1.86687 182 161 136
-0.38412 -4.12728 1.87832 181 168 146
-0.39982 -4.12993 1.88056 115 96 63
-0.41309 -4.14121 1.88344 78 75 49
-0.42577 -4.15478 1.88650 41 32 40
-0.44019 -4.16208 1.88909 26 21 19
-0.45286 -4.16708 1.90783 22 20 21
-0.45460 -4.16938 1.89167 23 21 18
-0.45634 -4.17167 1.87551 22 21 12
1.42338 -2.75780 1.48916 217 202 213
1.43803 -2.74910 1.50147 197 184 142
1.43645 -2.75118 1.48681 188 182 158
1.42496 -2.75572 1.50382 195 164 124
1.41188 -2.76234 1.50616 200 152 149
1.40872 -2.76650 1.47684 254 254 254
1.44294 -2.79659 1.49082 247 245 227
1.42813 -2.80538 1.47837 254 254 254
1.42685 -2.80044 1.49325 254 254 245
1.41206 -2.80922 1.48081 254 254 254
1.40899 -2.80247 1.49571 254 254 254
1.39422 -2.81124 1.48329 254 254 254
1.24637 -2.83636 1.51974 251 253 253
1.26099 -2.82768 1.53203 254 254 254
1.25942 -2.82975 1.51740 253 254 254
1.24795 -2.83428 1.53437 254 254 254
1.24381 -2.85422 1.52196 244 246 249
1.22772 -2.85761 1.52434 229 238 243
1.21825 -2.86816 1.52665 220 219 232
1.20358 -2.87687 1.51432 184 191 207
1.21159 -2.88184 1.52894 196 196 210
1.20264 -2.89309 1.53126 188 192 197
1.21992 -2.93357 1.53339 143 135 145
1.20549 -2.93901 1.53578 120 103 113
1.19061 -2.94785 1.52327 122 111 98
1.19875 -2.95310 1.53812 125 116 113
1.21535 -2.99378 1.54036 133 123 121
1.22861 -3.03111 1.54265 140 128 126
1.25687 -3.10905 1.54738 146 135 126
1.27550 -3.15395 1.54980 131 125 117
1.28269 -3.18593 1.55229 128 121 119
1.27793 -3.20413 1.55482 145 132 135
1.27116 -3.22008 1.55737 156 143 144
1.24724 -3.26433 1.56507 162 149 132
1.25980 -3.25937 1.54649 162 150 141
1.24250 -3.28325 1.56768 97 93 93
1.22501 -3.28661 1.57023 74 62 60
1.22527 -3.31197 1.57289 127 126 111
0.89831 -4.27900 1.71666 131 116 97
0.91300 -4.27321 1.69492 136 122 106
0.89935 -4.31947 1.72082 87 72 63
0.57042 -4.74043 1.80686 38 31 23
0.55285 -4.74932 1.81001 21 32 56
0.53692 -4.76198 1.81336 128 138 146
0.51902 -4.77013 1.81647 164 161 146
0.50357 -4.77623 1.83933 163 155 134
0.50145 -4.77903 1.81962 164 155 137
-0.30933 -4.10818 1.85029 186 172 159
-0.29663 -4.10317 1.83150 185 174 173
-0.31108 -4.11048 1.83409 187 173 168
-0.32552 -4.11779 1.83669 182 173 173
-0.37187 -4.12087 1.85950 186 179 166
-0.35921 -4.11588 1.84078 184 174 167
-0.38618 -4.12844 1.86210 180 163 139
-0.39937 -4.14004 1.86499 113 96 49
-0.41299 -4.15019 1.86778 73 75 51
-0.42466 -4.16756 1.87109 40 32 38
-0.43911 -4.17488 1.87368 27 20 10
-0.45530 -4.18449 1.86008 21 20 13
1.84548 -2.32471 1.37578 94 97 106
1.85942 -2.31644 1.38749 128 128 141
1.85792 -2.31842 1.37355 147 154 158
1.85642 -2.32040 1.35960 167 169 169
1.84698 -2.32273 1.38973 76 73 95
1.83455 -2.32903 1.39196 67 69 82
1.79843 -2.30541 1.37979 71 67 80
1.78760 -2.30968 1.39580 66 67 78
1.78611 -2.31164 1.38200 68 70 80
1.78463 -2.31360 1.36819 69 68 80
1.45069 -2.74929 1.46973 232 220 218
1.46536 -2.74058 1.48205 194 173 148
1.46378 -2.74267 1.46738 185 174 186
1.45227 -2.74721 1.48440 196 176 124
1.43602 -2.75800 1.45740 254 254 254
1.45086 -2.76883 1.47171 252 249 231
1.43613 -2.77757 1.45933 254 254 254
1.45086 -2.78837 1.47372 254 254 252
1.43607 -2.79716 1.46129 254 254 254
1.26040 -2.81417 1.50063 251 253 253
1.27497 -2.80553 1.51288 254 254 254
1.27340 -2.80759 1.49830 252 254 254
1.26197 -2.81210 1.51521 254 254 254
1.24682 -2.82013 1.50298 242 246 249
1.23669 -2.82976 1.50526 229 239 244
1.23002 -2.84317 1.50749 216 213 226
1.21541 -2.85184 1.49521 187 196 205
1.22188 -2.85507 1.50975 191 193 208
1.20725 -2.86376 1.49745 188 198 203
1.21757 -2.87122 1.51196 182 190 208
1.20289 -2.87994 1.49962 191 198 206
1.20904 -2.92536 1.51861 160 162 160
1.20401 -2.94126 1.52089 126 107 105
1.18913 -2.95010 1.50838 120 110 107
1.21403 -2.99626 1.52527 127 115 109
1.21241 -2.99840 1.51018 124 114 109
1.19895 -3.00521 1.51259 127 116 111
1.23523 -3.04271 1.52734 132 120 114
1.26664 -3.12452 1.53176 132 121 100
1.30962 -3.22184 1.53629 68 71 71
1.28888 -3.22137 1.53888 111 109 122
1.27920 -3.23398 1.54141 146 134 139
1.27338 -3.25129 1.54393 157 147 141
1.25738 -3.26080 1.53048 160 151 144
1.25170 -3.27412 1.54904 161 147 135
1.24328 -3.28860 1.55160 117 107 97
1.22813 -3.29486 1.55418 76 64 58
1.22567 -3.31691 1.55676 124 125 115
1.23188 -3.35002 1.55937 163 156 143
1.21562 -3.35967 1.54571 165 153 153
1.20662 -3.34379 1.56195 162 146 140
1.19391 -3.34881 1.58074 156 143 137
1.19217 -3.35111 1.56454 158 139 136
1.19043 -3.35341 1.54834 160 145 145
0.89027 -4.27088 1.69758 132 117 105
0.90493 -4.26509 1.67590 133 120 104
0.89118 -4.31105 1.70160 94 80 78
0.88149 -4.33249 1.70503 44 38 43
0.86669 -4.33833 1.72693 28 40 46
0.86466 -4.34101 1.70805 41 49 52
0.86263 -4.34369 1.68918 45 56 59
0.57285 -4.75356 1.78765 35 26 23
0.55525 -4.76247 1.79080 19 32 54
0.53221 -4.75879 1.79336 121 135 136
0.51656 -4.77213 1.79672 166 162 153
0.49687 -4.78382 1.78017 169 157 148
0.50049 -4.78457 1.80005 168 154 141
0.48502 -4.79067 1.82292 159 152 136
0.48290 -4.79347 1.80321 160 150 134
0.48078 -4.79627 1.78349 163 150 136
0.21825 -4.54306 1.81116 171 164 153
0.23671 -4.53210 1.82668 172 167 155
0.23472 -4.53473 1.80821 173 167 154
0.22023 -4.54044 1.82963 172 167 155
0.20376 -4.54878 1.83259 173 167 158
0.20236 -4.55293 1.81420 171 165 154
0.18787 -4.55865 1.83563 176 167 160
0.18588 -4.56127 1.81716 174 167 157
-0.37444 -4.12024 1.84317 188 177 162
-0.36179 -4.11525 1.82446 183 171 163
-0.39025 -4.12248 1.84541 175 161 134
-0.39800 -4.15347 1.84959 113 94 54
-0.41244 -4.16078 1.85218 76 72 49
-0.42467 -4.17624 1.85533 38 32 37
-0.44089 -4.18587 1.84170 28 22 18
-0.43914 -4.18356 1.85792 27 23 13
-0.45536 -4.19319 1.84429 19 21 12
1.81693 -2.32217 1.36488 75 70 94
1.61041 -2.62117 1.42128 60 43 52
1.59902 -2.62567 1.43812 55 41 37
1.59746 -2.62773 1.42360 64 55 65
1.52726 -2.67393 1.43726 196 181 129
1.54180 -2.66530 1.44948 117 97 100
1.54024 -2.66736 1.43493 159 125 121
1.52882 -2.67187 1.45181 111 105 89
1.51584 -2.67844 1.45414 152 146 144
1.52010 -2.68589 1.43937 215 200 161
1.50866 -2.69040 1.45629 197 187 154
1.50709 -2.69247 1.44171 215 194 151
1.46647 -2.72969 1.45065 241 236 231
1.48110 -2.72101 1.46294 200 159 172
1.47952 -2.72309 1.44831 201 168 202
1.46805 -2.72762 1.46529 192 160 164
1.45185 -2.73838 1.43836 254 254 254
1.45406 -2.73692 1.45297 254 252 240
1.43944 -2.74560 1.44068 254 254 254
1.43733 -2.73996 1.45544 254 254 254
1.42272 -2.74863 1.44316 254 254 254
1.27327 -2.79104 1.48169 251 252 252
1.28778 -2.78243 1.49388 254 254 254
1.28622 -2.78449 1.47937 252 254 254
1.27484 -2.78898 1.49621 254 254 254
1.26385 -2.80129 1.48393 238 246 247
1.25511 -2.81230 1.48615 228 240 242
1.24056 -2.82094 1.47393 183 189 208
1.25128 -2.82860 1.48827 211 206 224
1.23669 -2.83726 1.47600 188 194 209
1.23936 -2.83637 1.49058 190 188 214
1.22476 -2.84504 1.47831 189 199 209
1.22588 -2.84247 1.49292 182 191 208
1.21128 -2.85114 1.48066 189 200 207
1.19838 -2.91736 1.50393 177 182 181
1.20644 -2.94790 1.50592 130 115 115
1.19153 -2.95675 1.49340 122 110 109
1.26286 -3.10124 1.51390 127 119 109
1.27502 -3.09645 1.49592 125 114 110
1.28360 -3.14838 1.51591 125 112 95
1.29146 -3.22872 1.52289 71 77 96
1.28280 -3.24259 1.52539 123 118 127
1.27600 -3.25878 1.52788 149 142 135
1.25868 -3.28703 1.53293 157 144 136
1.24145 -3.29077 1.53552 108 84 94
1.22490 -3.29529 1.53811 81 61 79
1.23258 -3.32997 1.54057 127 123 126
1.23915 -3.36364 1.54307 163 157 156
1.22284 -3.37332 1.52936 159 145 145
0.88460 -4.26696 1.67871 131 117 102
0.87031 -4.27965 1.68181 102 87 83
0.87311 -4.32359 1.68582 48 47 51
0.85429 -4.33476 1.67001 44 58 66
0.57654 -4.76958 1.76848 29 23 21
0.59206 -4.76346 1.74552 74 83 74
0.54197 -4.78912 1.77488 115 127 134
0.52160 -4.79170 1.77777 164 163 155
0.23072 -4.53218 1.78948 167 158 148
0.24916 -4.52123 1.80498 174 165 155
0.24718 -4.52385 1.78653 172 165 150
0.21477 -4.54182 1.79250 158 148 145
0.19709 -4.54695 1.79529 154 154 148
0.18197 -4.55878 1.79842 166 164 159
0.16749 -4.56449 1.81983 176 168 156
0.16551 -4.56711 1.80138 174 168 158
-0.37389 -4.13052 1.82754 187 174 159
-0.36122 -4.12552 1.80880 184 172 165
-0.39288 -4.12160 1.82911 171 157 128
-0.39622 -4.16842 1.83420 112 94 55
-0.41017 -4.17770 1.83692 67 66 62
-0.42534 -4.18250 1.83936 42 26 27
-0.44157 -4.19214 1.82572 23 27 17
1.79527 -2.32460 1.35367 72 65 81
1.78292 -2.33086 1.35589 69 72 80
1.78143 -2.33283 1.34203 69 72 85
1.62367 -2.58280 1.40094 56 43 48
1.63808 -2.57425 1.41304 60 44 47
1.63652 -2.57629 1.39863 53 42 49
1.62522 -2.58075 1.41535 55 44 43
1.61405 -2.59212 1.40309 60 46 48
1.60136 -2.59878 1.40539 65 57 67
1.60403 -2.61899 1.40698 64 71 79
1.59929 -2.63279 1.40893 70 82 90
1.58789 -2.63729 1.42579 68 77 83
1.58633 -2.63935 1.41126 91 86 71
1.55673 -2.64915 1.41607 162 139 137
1.57124 -2.64054 1.42826 82 80 87
1.56968 -2.64260 1.41375 96 82 73
1.55829 -2.64709 1.43058 105 81 109
1.54535 -2.65365 1.43291 120 100 115
1.54451 -2.65636 1.41836 206 192 158
1.53775 -2.66859 1.42042 216 203 159
1.52424 -2.67466 1.42277 214 196 142
1.51674 -2.68630 1.42487 208 175 128
1.51944 -2.70753 1.42656 207 173 159
1.50796 -2.71206 1.44355 207 168 129
1.52122 -2.72808 1.42830 221 195 212
1.50968 -2.73264 1.44537 201 155 159
1.50652 -2.73681 1.41594 254 254 254
1.47132 -2.69995 1.43212 247 247 229
1.45679 -2.70858 1.41991 254 254 254
1.46431 -2.71218 1.43421 254 254 244
1.44975 -2.72083 1.42198 254 254 254
1.45493 -2.72222 1.43640 254 254 254
1.44036 -2.73088 1.42415 254 254 254
1.29111 -2.77331 1.46274 249 250 252
1.30558 -2.76472 1.47490 254 254 254
1.30402 -2.76678 1.46042 252 254 254
1.29267 -2.77126 1.47722 254 254 254
1.27734 -2.77897 1.46508 233 244 248
1.26881 -2.79007 1.46726 228 232 237
1.25431 -2.79868 1.45508 184 192 206
1.26699 -2.80829 1.46925 202 203 210
1.25244 -2.81693 1.45703 188 197 205
1.26070 -2.82193 1.47139 183 190 207
1.24611 -2.83059 1.45913 192 200 206
1.20212 -2.92542 1.48900 189 195 192
1.21376 -2.92083 1.47180 189 196 207
1.21090 -2.95682 1.49087 137 123 132
1.26928 -3.11279 1.49824 124 113 113
1.28148 -3.10797 1.48020 125 113 106
1.26761 -3.11499 1.48269 123 108 107
1.25375 -3.12201 1.48518 120 105 97
1.28585 -3.15518 1.50015 121 109 93
1.30151 -3.19701 1.50212 119 102 72
1.30988 -3.23074 1.50427 80 67 70
1.29840 -3.24126 1.50679 48 48 67
1.27900 -3.24238 1.50943 90 96 100
1.28483 -3.27376 1.51169 134 128 127
1.27767 -3.28976 1.51416 152 147 141
1.26155 -3.29933 1.50061 155 147 139
1.26765 -3.30237 1.51668 158 146 132
1.24906 -3.30453 1.51932 121 108 95
1.22882 -3.30457 1.52197 115 109 98
1.22736 -3.32793 1.52441 133 126 122
0.95299 -4.13255 1.63766 130 119 104
0.97131 -4.12167 1.65306 136 120 107
0.96934 -4.12427 1.63473 132 118 104
0.95496 -4.12995 1.65599 135 120 112
0.93861 -4.13822 1.65893 134 122 117
0.93901 -4.14488 1.64067 126 118 109
0.92462 -4.15056 1.66196 133 124 111
0.93157 -4.16853 1.64392 123 114 111
0.91515 -4.17685 1.64687 119 109 106
0.91317 -4.17946 1.62845 101 106 113
0.90872 -4.24011 1.65379 117 109 102
0.89806 -4.25909 1.65701 125 117 94
0.88164 -4.26791 1.66001 129 120 95
0.86947 -4.28442 1.66318 112 97 86
0.86404 -4.31339 1.66668 54 54 58
0.84528 -4.32453 1.65091 48 64 76
0.58001 -4.78514 1.74918 30 29 16
0.59557 -4.77900 1.72617 55 61 53
0.54291 -4.79906 1.75537 108 123 124
0.52046 -4.79681 1.75809 161 162 151
0.50069 -4.80855 1.74148 164 154 138
0.50317 -4.80658 1.76129 165 155 145
0.48553 -4.81551 1.76446 162 151 137
0.48340 -4.81832 1.74467 160 149 133
0.24379 -4.52291 1.76792 173 163 152
0.26222 -4.51197 1.78341 172 163 148
0.26024 -4.51459 1.76497 173 162 146
0.25825 -4.51720 1.74653 173 161 148
0.24181 -4.52552 1.74948 173 163 151
0.22811 -4.53319 1.77096 161 144 132
0.20913 -4.53491 1.77361 115 92 76
0.19507 -4.54946 1.77685 96 87 83
0.17015 -4.53527 1.77874 136 136 139
0.15945 -4.55878 1.78240 169 165 154
0.14500 -4.56448 1.80376 178 168 157
0.14302 -4.56709 1.78534 176 168 152
0.14104 -4.56970 1.76693 175 168 154
-0.37203 -4.14543 1.81213 187 174 162
-0.35932 -4.14042 1.79334 188 175 165
-0.39720 -4.11466 1.81246 168 152 125
-0.39455 -4.18303 1.81869 111 95 54
-0.40860 -4.19209 1.82140 61 64 64
-0.42537 -4.19117 1.82350 37 25 18
-0.44162 -4.20082 1.80984 21 27 21
1.81770 -2.34443 1.33831 76 71 88
1.80376 -2.35271 1.32659 69 68 85
1.61344 -2.54242 1.38374 54 40 51
1.62769 -2.53396 1.39571 50 44 42
1.62615 -2.53599 1.38146 50 40 39
1.61497 -2.54040 1.39800 50 43 45
1.61763 -2.56342 1.38513 60 41 63
1.61110 -2.57530 1.38710 66 56 79
1.58897 -2.57366 1.38988 71 73 77
1.59974 -2.60077 1.39097 73 70 77
1.60767 -2.62563 1.39223 76 60 80
1.60041 -2.63724 1.39426 91 98 111
1.58107 -2.63811 1.39691 170 164 123
