ply
format ascii 1.0
element face 0
property list uchar int vertex_indices
element vertex 1319
property float x
property float y
property float z
property uchar diffuse_red
property uchar diffuse_green
property uchar diffuse_blue
end_header
-2.81754 -3.13510 1.30656 252 254 252
-2.80506 -3.12810 1.31839 254 254 253
-2.80585 -3.12932 1.30532 254 254 254
-2.81675 -3.13389 1.31963 254 254 253
-2.82445 -3.15126 1.30866 245 248 243
-2.83248 -3.16516 1.31058 227 221 216
-2.84435 -3.17073 1.31181 190 177 176
-2.84789 -3.19490 1.31459 156 146 151
-2.85749 -3.20577 1.31627 150 143 161
-2.86976 -3.21065 1.31744 164 167 183
-2.88400 -3.21101 1.31824 182 182 192
-2.89647 -3.21534 1.31936 154 159 181
-2.90875 -3.22010 1.32052 123 122 133
-2.91721 -3.23389 1.32245 96 97 94
-2.92985 -3.24097 1.31048 46 61 51
-2.92452 -3.25059 1.32463 60 68 70
-2.93720 -3.25770 1.31262 50 61 63
-2.93679 -3.25551 1.32581 51 61 70
-2.94947 -3.26262 1.31380 49 62 67
-3.18422 -4.07902 1.42731 26 21 13
-3.17122 -4.07357 1.41025 29 31 17
-3.19575 -4.09493 1.42963 48 63 29
-3.21066 -4.10330 1.41550 72 75 61
-3.21330 -4.08832 1.42985 71 77 55
-3.22817 -4.09666 1.41576 78 77 71
-3.30278 -3.98067 1.42305 74 73 63
-3.29020 -3.97540 1.40655 81 79 66
-3.30368 -3.98207 1.40798 75 72 59
-3.31717 -3.98874 1.40941 61 60 50
-3.31579 -3.98923 1.42466 66 66 57
-3.33180 -3.98549 1.42511 73 76 69
-3.36799 -3.95929 1.42422 114 114 88
-3.38041 -3.96450 1.44052 129 121 90
-3.38238 -3.96126 1.42519 127 121 88
-3.39479 -3.96646 1.44148 130 122 88
-3.39569 -3.96784 1.42660 131 123 88
-3.54925 -3.85389 1.42253 101 93 50
-3.53564 -3.84626 1.43542 93 83 50
-3.53650 -3.84758 1.42117 119 108 76
-3.54839 -3.85257 1.43677 88 82 56
-3.56114 -3.85888 1.43813 83 83 47
-3.57705 -3.85423 1.42404 77 76 48
-3.58984 -3.86008 1.42534 108 118 88
-3.60222 -3.86812 1.42686 131 142 119
-3.61579 -3.87573 1.41401 155 165 165
-3.61417 -3.87871 1.42863 143 153 150
-3.62415 -3.90078 1.43153 150 165 170
-3.64508 -3.94110 1.43697 153 162 159
-3.65575 -3.96089 1.43966 149 153 146
-3.66952 -3.96861 1.42660 141 134 110
-3.86204 -4.47166 1.50542 142 141 113
-3.84698 -4.46321 1.51969 148 144 119
-3.84793 -4.46467 1.50392 146 141 116
-3.86109 -4.47019 1.52119 147 145 123
-3.87521 -4.47718 1.52269 144 142 125
-3.87711 -4.48011 1.49114 121 123 111
-3.97667 -4.70870 1.53694 130 132 106
-3.96104 -4.69994 1.55175 130 135 106
-3.96203 -4.70146 1.53538 132 133 108
-3.97569 -4.70718 1.55331 124 130 106
-3.99230 -4.71747 1.52212 150 146 125
-3.99166 -4.71092 1.53797 139 141 118
-4.00531 -4.71664 1.55588 147 149 138
-4.00629 -4.71815 1.53952 149 148 132
-4.00727 -4.71967 1.52317 152 147 132
1.02019 -3.52861 1.12422 141 167 192
1.03989 -3.51756 1.14289 140 166 195
1.03865 -3.51948 1.12226 145 171 195
1.02143 -3.52670 1.14485 141 167 197
1.00298 -3.53583 1.14681 138 165 203
1.00049 -3.53966 1.10555 104 113 156
0.93213 -3.57722 1.13409 113 139 187
0.95184 -3.56616 1.15278 136 161 197
0.95060 -3.56808 1.13213 112 133 179
0.91490 -3.58444 1.15670 133 162 206
0.91242 -3.58827 1.11541 106 130 180
0.93738 -3.60300 1.13648 126 156 200
0.91883 -3.61219 1.13845 135 163 206
0.91552 -3.65470 1.14306 133 163 201
0.93294 -3.64740 1.12020 141 168 204
0.91427 -3.65664 1.12218 138 166 202
0.90032 -3.66644 1.14511 127 151 180
0.91640 -3.72383 1.15019 71 66 76
0.89752 -3.73317 1.15220 70 66 72
0.89625 -3.73513 1.13110 71 71 78
0.89149 -4.17425 1.19839 86 82 92
0.91303 -4.16218 1.21879 92 92 88
0.91167 -4.16427 1.19624 82 81 89
0.91031 -4.16637 1.17370 81 79 85
0.88100 -4.19220 1.20083 101 98 104
0.85344 -4.22291 1.20553 119 115 98
0.85207 -4.22502 1.18288 121 120 107
0.84557 -4.24333 1.20808 109 108 89
0.85065 -4.27479 1.21107 102 96 76
0.84960 -4.30132 1.21389 90 92 84
0.84337 -4.35146 1.21944 90 90 88
0.83856 -4.40360 1.22513 79 85 91
0.83717 -4.40576 1.20191 77 77 85
0.84491 -4.43763 1.22832 90 91 97
0.83776 -4.48901 1.23405 90 97 94
0.86020 -4.53821 1.23794 54 51 55
0.86305 -4.57032 1.24112 74 67 59
0.87327 -4.63947 1.24775 81 72 59
0.88862 -4.68389 1.25153 51 42 52
0.83411 -4.69498 1.25566 35 41 51
0.83266 -4.69722 1.23149 46 38 45
0.80800 -4.70149 1.25777 39 40 59
0.78596 -4.71177 1.26004 110 81 77
0.78034 -4.73759 1.26304 81 74 106
0.77945 -4.76810 1.26626 57 44 44
0.80232 -4.95147 1.28407 62 59 56
0.77885 -4.96139 1.28638 70 66 69
0.78197 -4.99781 1.29000 80 78 79
0.79791 -5.04742 1.29429 91 92 95
0.80357 -5.08716 1.29811 99 102 113
0.77082 -5.08824 1.30001 118 116 125
0.70665 -5.05702 1.30028 130 134 121
0.67855 -5.06240 1.30238 134 138 136
0.65455 -5.07586 1.27963 135 147 144
0.62419 -5.07485 1.30664 140 142 135
0.60300 -5.08727 1.30909 111 110 101
0.56210 -5.07885 1.31046 72 51 58
0.53536 -5.08525 1.31259 81 75 77
0.50818 -5.09111 1.31468 83 89 97
0.46918 -5.08415 1.31609 99 100 114
0.44544 -5.09746 1.29359 117 117 122
0.44499 -5.09304 1.31834 126 127 132
0.40428 -5.08381 1.31961 158 155 153
0.36041 -5.07083 1.32066 185 178 168
0.33985 -5.07945 1.34764 199 185 160
0.33837 -5.08174 1.32300 196 182 166
-0.29458 -4.63353 1.31104 161 141 105
-0.33482 -4.61918 1.31175 130 113 83
-0.33638 -4.65050 1.31509 66 52 40
-0.35838 -4.65764 1.31704 36 25 31
-0.37682 -4.66538 1.34124 30 29 36
-0.37815 -4.66743 1.31914 31 27 31
-0.37948 -4.66948 1.29704 31 26 26
-0.40376 -4.70405 1.32435 30 25 36
-0.38525 -4.69629 1.30006 34 27 24
-0.40510 -4.70611 1.30217 30 26 31
-0.40483 -4.73701 1.32783 58 56 67
-0.42478 -4.74687 1.32995 51 58 68
-0.44606 -4.75881 1.30978 28 31 27
-0.44795 -4.75270 1.33182 34 38 35
-0.46922 -4.76462 1.31167 26 30 20
-0.62593 -5.39552 1.40839 23 15 10
-0.60292 -5.38261 1.43021 11 13 6
-0.60437 -5.38485 1.40611 17 16 7
-0.62448 -5.39328 1.43249 14 14 6
-0.63611 -5.42322 1.41183 28 22 13
-0.64695 -5.45019 1.41523 47 37 19
-0.65226 -5.48582 1.41922 71 64 43
-0.68510 -5.47969 1.42038 85 90 95
-0.70828 -5.49269 1.39841 115 118 118
-0.70992 -5.48564 1.42236 107 107 105
-0.73309 -5.49864 1.40040 118 117 124
-0.72975 -5.49931 1.42487 122 120 118
-0.75292 -5.51231 1.40290 114 117 124
-2.60069 -3.15712 1.28375 239 233 227
-2.58943 -3.15240 1.26897 228 218 210
-2.62272 -3.14414 1.28360 247 246 244
-2.63391 -3.14883 1.29829 254 254 254
-2.63886 -3.14212 1.28428 252 252 252
-2.65002 -3.14680 1.29893 254 254 254
-2.65083 -3.14805 1.28555 254 254 253
-2.80251 -3.10879 1.28977 253 254 254
-2.79009 -3.10182 1.30154 254 254 254
-2.79088 -3.10303 1.28853 254 254 254
-2.80173 -3.10758 1.30277 254 254 254
-2.81127 -3.12066 1.29148 248 249 249
-2.81994 -3.13285 1.29322 232 231 230
-2.82585 -3.15115 1.29545 206 199 197
-2.83211 -3.16893 1.29764 174 163 163
-2.84467 -3.17598 1.28573 145 141 126
-2.83977 -3.18384 1.29961 149 140 136
-2.85237 -3.19091 1.28767 143 144 122
-2.84851 -3.19652 1.30140 139 134 121
-2.85959 -3.20405 1.30279 140 134 127
-2.87155 -3.20962 1.30403 139 139 140
-2.88047 -3.22218 1.30582 133 135 139
-2.89432 -3.22341 1.30671 106 101 115
-2.90453 -3.23310 1.30827 72 76 91
-2.91718 -3.24020 1.29628 48 60 62
-2.91367 -3.24540 1.31005 58 66 65
-2.92635 -3.25251 1.29804 50 62 51
-3.17814 -4.10629 1.41403 27 28 18
-3.16505 -4.10081 1.39685 28 32 18
-3.19156 -4.11550 1.41572 52 62 30
-3.20655 -4.12391 1.40152 76 76 62
-3.34760 -3.98751 1.41095 74 74 68
-3.36420 -3.98065 1.41115 84 87 79
-3.38396 -3.95967 1.41005 109 107 90
-3.40006 -3.95392 1.41033 123 119 94
-3.41242 -3.95911 1.42656 130 124 92
-3.41332 -3.96048 1.41174 128 124 91
-3.53411 -3.86528 1.40845 137 131 96
-3.52131 -3.85894 1.40709 139 130 105
-3.52217 -3.86027 1.39278 137 125 96
-3.53497 -3.86660 1.39414 137 130 98
-3.54940 -3.85881 1.40861 124 116 62
-3.57786 -3.85579 1.40986 83 83 82
-3.59170 -3.85592 1.41063 130 144 139
-3.60524 -3.86351 1.39779 157 169 161
-3.60352 -3.86698 1.41243 153 165 155
-3.62522 -3.90093 1.41714 154 165 165
-3.63597 -3.91908 1.41962 150 157 148
-3.64965 -3.92675 1.40666 136 136 117
-3.64637 -3.93989 1.42235 144 144 129
-3.66009 -3.94759 1.40935 139 135 118
-3.84926 -4.46242 1.48778 136 135 111
-3.83421 -4.45398 1.50204 144 142 122
-3.83516 -4.45544 1.48628 142 140 120
-3.86431 -4.47086 1.47351 122 119 106
-3.86288 -4.47429 1.48976 130 128 106
-3.87794 -4.48274 1.47548 124 122 112
-3.97723 -4.71623 1.52117 145 142 121
-3.99288 -4.72501 1.50634 151 146 125
-4.33183 -6.03908 1.67810 147 144 127
-4.31257 -6.02828 1.69636 152 147 133
-4.31378 -6.03015 1.67619 151 148 133
1.04151 -3.48130 1.09736 154 175 207
1.06109 -3.47032 1.11592 151 168 203
1.05986 -3.47223 1.09542 159 176 203
1.04275 -3.47940 1.11787 150 169 206
1.02441 -3.48848 1.11982 149 171 202
1.03257 -3.49667 1.09942 147 171 201
1.03054 -3.51677 1.10155 134 159 187
0.99267 -3.51273 1.10328 118 138 168
0.97307 -3.52372 1.08470 65 66 112
0.94729 -3.54669 1.10926 83 94 142
0.96692 -3.53567 1.12787 127 151 190
0.96569 -3.53758 1.10730 94 103 151
0.94852 -3.54478 1.12982 121 146 183
0.95285 -3.57241 1.11153 67 77 136
0.95671 -3.59716 1.11380 70 85 146
0.93951 -3.62960 1.11804 136 163 203
0.91962 -3.64076 1.09919 144 172 205
0.91189 -3.67761 1.12443 136 163 193
0.92937 -3.67028 1.10150 144 170 204
0.89190 -3.68882 1.10548 138 160 185
0.91895 -3.70555 1.12684 120 139 161
0.92042 -3.72964 1.12918 88 94 107
0.90025 -3.74096 1.11006 75 76 87
0.90838 -4.19127 1.17631 89 84 88
0.92726 -4.18336 1.15153 83 80 83
0.89232 -4.20474 1.17857 97 98 98
0.87231 -4.21497 1.18073 109 113 115
0.85020 -4.25047 1.18555 116 114 103
0.84883 -4.25258 1.16282 114 114 114
0.82850 -4.26264 1.16498 127 123 122
0.84850 -4.27626 1.18824 122 113 96
0.84483 -4.30058 1.19089 113 111 106
0.84270 -4.32638 1.19361 89 83 84
0.82077 -4.33868 1.17282 103 113 105
0.83417 -4.34689 1.19615 97 104 93
0.83471 -4.37537 1.19899 90 86 92
0.84318 -4.43952 1.20497 85 85 87
0.84178 -4.44169 1.18163 85 84 88
0.82090 -4.45202 1.18384 78 80 93
0.84030 -4.46573 1.20777 92 94 100
0.83456 -4.48960 1.21049 98 106 93
0.84780 -4.53061 1.21387 70 68 56
0.82521 -4.54327 1.19247 53 46 42
0.85212 -4.56399 1.21699 64 49 47
0.84951 -4.59139 1.21989 90 76 57
0.82673 -4.60416 1.19831 91 79 67
0.84186 -4.61441 1.22264 92 76 63
0.86044 -4.66165 1.22634 59 52 49
0.85766 -4.68964 1.22932 48 34 42
0.80472 -4.70203 1.23355 40 32 57
0.78408 -4.71362 1.23588 110 80 77
0.77794 -4.73895 1.23877 82 73 102
0.78386 -4.77595 1.24216 64 49 40
0.78948 -4.94263 1.25862 74 72 69
0.78437 -4.97067 1.26173 83 82 80
0.79165 -5.01130 1.26541 93 98 84
0.81268 -5.06612 1.26974 112 114 103
0.79096 -5.07832 1.27219 121 124 125
0.74215 -5.06298 1.27340 131 128 131
0.69515 -5.04914 1.27465 135 134 137
0.67118 -5.06259 1.25193 148 156 146
0.66762 -5.05503 1.27680 139 145 145
0.61617 -5.07038 1.28124 138 144 138
0.61467 -5.07271 1.25619 135 136 127
0.59225 -5.08379 1.25857 135 138 134
0.59062 -5.07816 1.28347 133 132 127
0.55438 -5.07459 1.28515 111 100 95
0.53081 -5.08432 1.28746 120 118 109
0.50698 -5.09769 1.26487 129 126 122
0.50132 -5.08768 1.28946 123 122 117
0.47024 -5.08922 1.29137 114 113 118
0.44649 -5.10255 1.26886 125 124 123
0.39398 -5.07646 1.29438 127 128 130
0.39249 -5.07876 1.26968 120 123 123
0.33909 -5.05124 1.29494 155 156 150
-0.30755 -4.62193 1.28820 180 161 134
-0.33034 -4.62809 1.29010 143 118 91
-0.33178 -4.65961 1.29335 87 76 64
-0.35471 -4.66568 1.29526 43 32 32
-0.37584 -4.67754 1.27523 30 27 32
-0.41273 -4.73099 1.30510 38 37 35
-0.39416 -4.72321 1.28073 33 29 34
-0.41407 -4.73306 1.28285 31 29 33
-0.43398 -4.74291 1.28496 29 31 28
-0.42811 -4.74647 1.30752 32 35 34
-0.44938 -4.75841 1.28736 31 30 22
-0.60343 -5.34838 1.37797 23 15 12
-0.58054 -5.33553 1.39967 14 11 7
-0.58198 -5.33776 1.37570 18 14 8
-0.60199 -5.34615 1.40195 15 14 12
-0.61461 -5.37414 1.38120 28 22 9
-0.62915 -5.39514 1.38413 42 39 28
-0.61973 -5.45217 1.38934 59 63 58
-0.64580 -5.45639 1.39123 87 82 56
-0.66778 -5.46671 1.39351 103 102 75
-0.69095 -5.47970 1.37155 112 113 114
-0.68751 -5.48048 1.39601 109 111 119
-0.71069 -5.49349 1.37404 114 116 113
-2.60033 -3.16058 1.27041 232 220 207
-2.58907 -3.15586 1.25562 191 199 211
-2.62090 -3.15038 1.27054 233 225 219
-2.63879 -3.14504 1.27101 241 235 227
-2.65158 -3.15221 1.25889 232 228 218
-2.67485 -3.13320 1.27185 252 253 253
-2.68594 -3.13785 1.28641 254 254 254
-2.68674 -3.13909 1.27312 254 254 254
-2.79603 -3.09509 1.27485 250 253 251
-2.78365 -3.08815 1.28659 254 254 254
-2.78443 -3.08935 1.27362 254 254 254
-2.80474 -3.10695 1.27653 240 237 238
-2.81667 -3.14278 1.28081 183 173 183
-2.82918 -3.14979 1.26897 151 145 138
-2.82287 -3.16055 1.28295 161 153 156
-2.86039 -3.20528 1.28957 137 136 125
-2.87496 -3.20488 1.29035 114 111 119
-2.88612 -3.21224 1.29172 81 79 98
-2.89873 -3.21931 1.27977 51 55 57
-2.89090 -3.23445 1.29422 63 59 75
-2.90358 -3.24156 1.28221 48 58 57
-2.90275 -3.24038 1.29549 48 57 72
-2.91543 -3.24749 1.28347 50 60 68
-3.17472 -4.12382 1.39972 23 30 31
-3.16158 -4.11831 1.38248 26 29 25
-3.18924 -4.12917 1.40107 58 67 32
-3.20427 -4.13759 1.38683 76 77 68
-3.36422 -3.98581 1.39651 70 66 58
-3.37852 -3.99383 1.38296 77 66 59
-3.38013 -3.98154 1.39698 82 79 78
-3.39973 -3.96068 1.39598 95 96 84
-3.41805 -3.94466 1.39541 113 114 84
-3.43036 -3.94983 1.41156 133 123 97
-3.43452 -3.93630 1.39549 125 122 89
-3.44679 -3.94144 1.41159 136 122 95
-3.44767 -3.94281 1.39689 134 123 87
-3.55106 -3.85605 1.39399 134 123 86
-3.53917 -3.85107 1.37839 137 126 96
-3.56466 -3.86368 1.38110 70 57 72
-3.56676 -3.84688 1.39395 77 63 62
-3.57921 -3.85444 1.39541 85 91 109
-3.59225 -3.85891 1.39660 138 156 156
-3.61646 -3.87808 1.39989 150 159 151
-3.62649 -3.89987 1.40265 144 149 133
-3.64011 -3.90751 1.38974 135 136 105
-3.63727 -3.91789 1.40507 139 141 115
-3.65093 -3.92555 1.39212 137 137 114
-3.83772 -4.44174 1.46908 135 133 115
-3.82272 -4.43332 1.48330 145 143 123
-3.82366 -4.43478 1.46759 146 145 119
-3.85272 -4.45015 1.45487 116 116 113
-3.85031 -4.46291 1.47192 122 121 109
-3.94906 -4.70106 1.50146 139 139 119
-3.96470 -4.70984 1.48663 149 146 119
-4.33305 -6.04105 1.65794 139 133 121
-4.42697 -6.30030 1.68932 113 125 128
1.04883 -3.46765 1.07485 152 173 190
1.06837 -3.45669 1.09337 157 177 202
1.06714 -3.45859 1.07291 159 181 199
1.06591 -3.46049 1.05244 141 156 187
1.04760 -3.46955 1.05439 121 131 165
1.03817 -3.48180 1.07685 139 159 181
1.01860 -3.49278 1.05830 82 96 135
1.02805 -3.49638 1.07885 118 139 174
1.00259 -3.50069 1.08075 92 111 158
0.98988 -3.51358 1.08274 75 86 130
0.97028 -3.52457 1.06417 52 54 103
0.96749 -3.56339 1.08889 55 61 113
0.98472 -3.55617 1.06628 58 63 111
0.96624 -3.56531 1.06824 58 68 110
0.94777 -3.57445 1.07020 56 60 104
0.96759 -3.58543 1.09102 43 53 111
0.94780 -3.59653 1.07227 50 50 101
0.94834 -3.59411 1.09299 39 52 113
0.94495 -3.61393 1.09511 74 92 146
0.94125 -3.63366 1.09724 123 150 189
0.91532 -3.72881 1.10801 110 119 133
0.93294 -3.72143 1.08489 150 171 196
0.91405 -3.73078 1.08690 132 148 162
0.96379 -4.00608 1.13217 71 71 87
0.98357 -3.99630 1.13007 75 73 78
0.98224 -3.99835 1.10797 77 79 86
0.96512 -4.00403 1.15427 71 67 82
0.94535 -4.01381 1.15637 80 77 89
0.94269 -4.01792 1.11216 88 87 91
0.92151 -4.20524 1.15400 91 86 87
0.90178 -4.21576 1.15617 95 94 91
0.88682 -4.23023 1.15844 99 101 109
0.86513 -4.24240 1.13788 105 107 110
0.87561 -4.24789 1.16081 110 114 109
0.85388 -4.26008 1.14022 109 105 109
0.85832 -4.31533 1.16837 119 111 112
0.87747 -4.30731 1.14324 112 111 116
0.85693 -4.31747 1.14542 112 107 110
0.83640 -4.32763 1.14760 118 117 107
0.85085 -4.33667 1.17088 102 96 93
0.83622 -4.38003 1.17595 94 88 98
0.81413 -4.39242 1.15502 97 89 93
0.83465 -4.40694 1.17866 89 79 85
0.81248 -4.41937 1.15765 91 86 101
0.83950 -4.49743 1.18718 88 87 85
0.85912 -4.48920 1.16143 79 78 91
0.83808 -4.49962 1.16366 84 76 84
0.84580 -4.53229 1.19021 74 73 59
0.84388 -4.58981 1.19591 77 71 58
0.84508 -4.65112 1.20181 72 66 48
0.84363 -4.65336 1.17777 79 74 52
0.83773 -4.67483 1.20454 58 43 50
0.82365 -4.69246 1.20707 53 46 49
0.79884 -4.70013 1.20926 46 41 61
0.77298 -4.70678 1.21141 117 92 80
0.76237 -4.72783 1.21407 88 88 107
0.81016 -4.80469 1.21878 69 60 51
0.79981 -4.82662 1.22151 62 66 76
0.77638 -4.83977 1.19930 71 70 75
0.78505 -4.87670 1.22724 72 76 79
0.77870 -4.90301 1.23017 81 82 82
0.76632 -4.92360 1.23289 89 90 96
0.80993 -4.99983 1.23777 96 101 106
0.83229 -5.05571 1.24191 117 124 110
0.76735 -5.02447 1.24264 132 133 126
0.74335 -5.03794 1.21989 143 151 157
0.74499 -5.03573 1.24503 139 141 146
0.72098 -5.04920 1.22228 144 147 149
0.70627 -5.03034 1.24676 140 139 142
0.68234 -5.04377 1.22408 146 146 145
0.67567 -5.03305 1.24880 142 141 146
0.65178 -5.04645 1.22615 151 155 134
0.55527 -5.07944 1.26030 135 135 126
0.52727 -5.08447 1.26241 134 131 122
0.50345 -5.09783 1.23983 135 132 126
0.46269 -5.08498 1.26621 124 124 122
0.43896 -5.09828 1.24373 132 129 125
0.33135 -5.04661 1.27010 128 131 129
0.35179 -5.03804 1.24327 125 125 120
0.32987 -5.04888 1.24559 124 124 126
0.28163 -5.02656 1.27103 150 151 152
0.24234 -5.01776 1.27245 178 177 165
0.22209 -5.02625 1.29902 203 187 160
0.17594 -4.97815 1.27245 195 186 168
0.15589 -4.98655 1.29876 203 186 174
0.15444 -4.98878 1.27474 201 186 175
-0.33018 -4.63189 1.26814 151 124 95
-0.34656 -4.64565 1.27043 111 95 75
-0.35203 -4.67256 1.27336 52 40 40
-0.57252 -5.31418 1.34858 18 12 18
-0.54968 -5.30138 1.37022 13 9 9
-0.55112 -5.30360 1.34631 13 12 13
-0.57108 -5.31196 1.37249 16 11 8
-0.58214 -5.34186 1.35183 26 17 27
-0.59647 -5.36291 1.35471 42 33 39
-0.60762 -5.38882 1.35788 64 61 35
-0.61419 -5.42177 1.36146 84 86 61
-0.63562 -5.43281 1.36378 97 103 94
-0.65462 -5.44752 1.36631 110 108 93
-0.67774 -5.46049 1.34440 120 123 110
-0.67262 -5.46382 1.36894 114 119 101
-0.69576 -5.47680 1.34701 116 117 111
-2.57203 -3.15909 1.25495 137 145 177
-2.55991 -3.15310 1.25366 77 87 124
-2.56073 -3.15435 1.24012 21 24 51
-2.57121 -3.15783 1.26849 215 217 208
-2.60398 -3.15648 1.25655 222 220 208
-2.61900 -3.15680 1.25745 229 219 203
-2.63185 -3.16400 1.24527 226 218 199
-2.63634 -3.15255 1.25804 231 218 202
-2.70029 -3.11510 1.25811 249 250 247
-2.71129 -3.11971 1.27255 254 254 254
-2.71209 -3.12094 1.25936 253 254 253
-2.77139 -3.08938 1.25973 251 254 252
-2.75899 -3.08242 1.27149 254 254 254
-2.75977 -3.08363 1.25850 254 254 254
-2.77061 -3.08817 1.27272 254 254 254
-2.78750 -3.08582 1.26032 244 243 240
-2.80076 -3.08804 1.26131 223 218 221
-2.80460 -3.11010 1.26368 194 184 190
-2.80974 -3.12970 1.26588 169 156 165
-2.82220 -3.13670 1.25407 151 146 140
-2.83295 -3.17300 1.27144 152 145 131
-2.84216 -3.18451 1.27310 144 141 123
-2.85112 -3.19670 1.27480 125 124 110
-2.86222 -3.20417 1.27617 96 93 96
-2.87100 -3.21697 1.27793 63 69 89
-2.88365 -3.22406 1.26594 48 56 57
-2.87843 -3.23302 1.27992 51 51 70
-2.89112 -3.24014 1.26790 53 60 53
-3.17175 -4.13971 1.38515 18 25 41
-3.15857 -4.13418 1.36785 27 26 33
-3.18376 -4.15464 1.38730 59 68 41
-3.34425 -4.01200 1.38274 86 79 46
-3.33074 -4.00532 1.38130 84 83 50
-3.33165 -4.00672 1.36621 89 89 55
-3.34516 -4.01341 1.36764 95 91 53
-3.36213 -3.99997 1.38260 81 70 47
-3.39802 -3.97353 1.38211 79 76 63
-3.41223 -3.98149 1.36865 91 81 53
-3.41523 -3.96265 1.38205 94 93 71
-3.43251 -3.95088 1.38191 101 100 77
-3.44959 -3.93940 1.38178 118 113 82
-3.46184 -3.94453 1.39786 136 122 88
-3.46272 -3.94590 1.38318 131 121 88
-3.55214 -3.85621 1.37964 135 117 92
-3.54026 -3.85123 1.36405 137 126 97
-3.57874 -3.86288 1.38183 83 100 119
-3.59343 -3.85841 1.38225 136 160 152
-3.60514 -3.87011 1.38407 148 157 138
-3.61870 -3.87772 1.37122 134 134 115
-3.61734 -3.87929 1.38567 138 141 124
-3.63091 -3.88690 1.37281 136 137 106
-3.81177 -4.41849 1.44941 141 142 123
-3.79680 -4.41009 1.46359 143 144 123
-3.79775 -4.41155 1.44792 142 144 124
-3.81082 -4.41703 1.46508 144 145 123
-3.82590 -4.42438 1.45080 142 142 116
-3.84086 -4.43277 1.43662 128 128 115
-3.83928 -4.43740 1.45285 127 125 115
-3.85426 -4.44580 1.43865 127 126 120
-3.92396 -4.64926 1.47837 133 130 116
-3.90844 -4.64055 1.49308 131 129 113
-3.90942 -4.64206 1.47683 130 125 112
-3.93947 -4.65796 1.46366 146 146 121
-3.93608 -4.68661 1.48271 139 141 118
-3.95170 -4.69537 1.46791 147 146 119
-4.29825 -5.99690 1.63120 142 138 127
-4.27908 -5.98614 1.64937 150 146 129
-4.28028 -5.98801 1.62929 152 144 131
-4.31621 -6.02227 1.63471 125 124 109
-4.33544 -6.03306 1.61648 102 103 94
-4.33429 -6.05259 1.63871 121 120 110
-4.35358 -6.06342 1.62042 111 105 85
-4.35272 -6.12441 1.64676 107 99 90
-4.37222 -6.13535 1.62829 103 108 89
-4.42832 -6.30745 1.66896 122 134 146
-4.50208 -6.30939 1.67343 188 210 221
-4.48474 -6.30213 1.65067 174 194 207
-4.52192 -6.32052 1.65462 180 209 220
1.03225 -3.48058 1.05634 104 109 145
1.04934 -3.47342 1.03392 85 80 136
1.01017 -3.50854 1.06028 61 71 124
0.99056 -3.51953 1.04170 55 56 106
1.00423 -3.52606 1.06228 51 53 110
0.98458 -3.53708 1.04366 52 56 100
0.93092 -3.60687 1.07425 52 63 122
0.93620 -3.63291 1.07638 96 121 170
0.93940 -3.65766 1.07852 143 170 202
0.92069 -3.66692 1.08050 151 174 204
0.91587 -3.75531 1.08909 94 99 106
0.93356 -3.74790 1.06589 151 166 186
0.91460 -3.75728 1.06790 124 130 140
0.89819 -3.76273 1.11230 71 71 81
0.91997 -3.78171 1.09133 80 74 82
0.90220 -3.78916 1.11464 77 75 84
0.90092 -3.79114 1.09335 79 79 88
0.94738 -4.20296 1.12927 87 87 92
0.96908 -4.19079 1.14983 76 75 88
0.96771 -4.19290 1.12711 78 77 94
0.96634 -4.19501 1.10439 75 76 92
0.93222 -4.21725 1.13152 96 96 96
0.91370 -4.22882 1.13371 102 100 102
0.89198 -4.24101 1.11312 115 120 121
0.89909 -4.24365 1.13597 106 111 115
0.82579 -4.34634 1.14999 104 112 113
0.83839 -4.38527 1.15290 94 91 97
0.81629 -4.39767 1.13196 96 88 85
0.83547 -4.52652 1.16635 77 76 66
0.84072 -4.56071 1.16924 56 56 54
0.81806 -4.57342 1.14777 65 47 45
0.83853 -4.58848 1.17198 66 58 49
0.83764 -4.61763 1.17478 85 75 56
0.81481 -4.63044 1.15314 74 71 55
0.82743 -4.66889 1.18020 66 57 60
0.82598 -4.67113 1.15614 68 64 65
0.80445 -4.68178 1.15843 65 64 69
0.81063 -4.68394 1.18262 60 58 60
0.78941 -4.69491 1.18491 57 57 73
0.76261 -4.70062 1.18705 124 108 91
0.75051 -4.72020 1.18961 91 93 113
0.78563 -4.78496 1.19360 71 62 51
0.78701 -4.81802 1.19662 66 68 76
0.77235 -4.86808 1.20220 79 81 79
0.80012 -4.92775 1.20615 98 104 106
0.81254 -4.97295 1.20965 116 118 132
0.80296 -4.99675 1.21246 117 122 133
0.77899 -5.01019 1.18975 138 138 125
0.76209 -4.98947 1.21422 138 140 135
0.72964 -4.99042 1.21624 143 150 154
0.70581 -5.00378 1.19365 142 150 152
0.57330 -5.06774 1.23284 138 144 136
0.59563 -5.05669 1.23047 137 135 126
0.54746 -5.07508 1.23507 137 145 139
0.51806 -5.07855 1.23715 138 135 130
0.49428 -5.09189 1.21461 139 135 133
0.27771 -5.02609 1.24657 131 132 131
0.22062 -4.99733 1.24727 145 149 141
0.16453 -4.96915 1.24797 158 160 157
-0.16930 -4.79166 1.25122 209 193 161
-0.15024 -4.78367 1.22621 205 192 167
-0.30306 -4.66762 1.24755 161 138 110
-0.33660 -4.66116 1.24894 128 105 83
-0.33500 -4.69666 1.25218 65 55 54
-0.35806 -4.70271 1.25413 34 29 36
-0.37661 -4.71049 1.27848 35 29 27
-0.37795 -4.71255 1.25624 33 30 33
-0.37929 -4.71462 1.23400 32 30 32
-0.54320 -5.27814 1.31924 16 14 14
-0.52044 -5.26538 1.34081 11 12 16
-0.52188 -5.26759 1.31697 14 15 16
-0.54177 -5.27593 1.34307 10 12 14
-0.56110 -5.29359 1.32176 20 15 16
-0.57804 -5.31051 1.32436 31 30 32
-0.58589 -5.34073 1.32767 58 53 57
-0.59053 -5.37596 1.33125 82 77 72
-0.61376 -5.38414 1.33341 105 106 79
-0.63674 -5.39703 1.31163 116 114 100
-0.62329 -5.41265 1.33665 114 114 91
-0.64635 -5.42558 1.31480 119 119 115
-0.63776 -5.43403 1.33953 116 117 107
-0.66086 -5.44699 1.31763 115 119 125
-0.65321 -5.45410 1.34234 115 117 113
-0.67635 -5.46708 1.32040 121 123 114
-2.59299 -3.15127 1.24176 91 105 148
-2.58763 -3.19022 1.24510 161 175 187
-2.61728 -3.16288 1.24430 211 211 202
-2.63015 -3.17010 1.23210 181 189 199
-2.65476 -3.14883 1.24521 227 215 200
-2.66753 -3.15599 1.23311 226 216 200
-2.70308 -3.11236 1.24467 236 232 225
-2.72299 -3.10196 1.24488 246 245 242
-2.73393 -3.10654 1.25923 254 254 254
-2.73891 -3.09929 1.24558 251 252 247
-2.75726 -3.09153 1.24595 247 250 244
-2.77820 -3.07820 1.24594 231 229 224
-2.78393 -3.09604 1.24796 204 194 196
-2.79491 -3.10312 1.24928 176 162 173
-2.80732 -3.11008 1.23753 149 139 134
-2.80331 -3.11568 1.25096 156 144 150
-2.80848 -3.13528 1.25311 150 141 141
-2.82705 -3.15734 1.25630 148 147 132
-2.83503 -3.17139 1.25809 135 132 118
-2.84596 -3.17907 1.25946 107 106 100
-2.85109 -3.19978 1.26172 76 79 84
-2.86371 -3.20685 1.24975 42 52 75
-2.85952 -3.21331 1.26349 54 57 75
-2.87217 -3.22041 1.25150 46 58 70
-2.86978 -3.22281 1.26500 42 55 70
-2.88244 -3.22992 1.25299 48 60 63
-3.16864 -4.15616 1.37052 26 24 43
-3.15542 -4.15062 1.35316 28 26 33
-3.18073 -4.17105 1.37264 58 68 42
-3.19385 -4.18220 1.37447 75 76 66
-3.20712 -4.18776 1.39188 81 77 68
-3.20807 -4.18924 1.37598 81 78 68
-3.20903 -4.19071 1.36008 79 77 63
-3.35991 -4.01473 1.36865 98 89 55
-3.37431 -4.02280 1.35500 110 106 75
-3.37803 -4.00128 1.36846 94 85 60
-3.39235 -4.00931 1.35489 109 101 69
-3.39618 -3.98703 1.36821 90 81 54
-3.43095 -3.96340 1.36806 84 78 53
-3.44765 -3.95387 1.36816 92 93 70
-3.46245 -3.95271 1.36894 118 115 89
-3.47472 -3.95785 1.38504 135 122 95
-3.47561 -3.95922 1.37034 131 122 99
-3.47649 -3.96058 1.35563 130 121 97
-3.55277 -3.85871 1.36550 133 114 90
-3.54088 -3.85373 1.34990 134 125 99
-3.56665 -3.85907 1.36636 65 53 64
-3.57860 -3.86950 1.36805 83 99 108
-3.59359 -3.86351 1.36839 129 147 136
-3.60715 -3.87112 1.35554 135 136 118
-3.78805 -4.37761 1.42829 135 140 122
-3.77318 -4.36927 1.44238 141 144 125
-3.77411 -4.37072 1.42681 139 143 124
-3.78711 -4.37616 1.44386 141 145 125
-3.80048 -4.39750 1.43090 131 134 118
-3.81539 -4.40587 1.41677 110 107 108
-3.81262 -4.42073 1.43381 124 124 115
-3.82677 -4.42649 1.43519 127 127 110
-3.84174 -4.43489 1.42101 135 135 111
-3.90092 -4.57976 1.45402 135 131 121
-3.88559 -4.57116 1.46855 131 130 113
-3.88655 -4.57265 1.45249 133 130 113
-3.89995 -4.57827 1.47007 130 125 116
-3.91625 -4.58836 1.43949 143 145 124
-3.91335 -4.60928 1.45753 140 139 124
-3.92876 -4.61792 1.44293 147 146 126
-3.92505 -4.64937 1.46200 145 145 124
-3.94056 -4.65808 1.44730 149 146 124
-4.31743 -6.02593 1.61474 102 101 98
-4.33666 -6.03672 1.59651 107 105 96
-4.41060 -6.28059 1.64422 87 102 114
-4.42969 -6.31560 1.64865 135 159 181
-4.54115 -6.34808 1.65836 177 195 221
-4.52376 -6.34079 1.63554 185 207 216
-4.54241 -6.35002 1.63752 176 187 226
1.03610 -3.48588 1.03586 81 84 129
1.02304 -3.49849 1.03780 76 91 123
1.01528 -3.51472 1.03975 65 71 115
0.99565 -3.52573 1.02114 53 56 104
0.95907 -3.60721 1.05158 62 58 97
0.97640 -3.59995 1.02883 70 81 114
0.95782 -3.60914 1.03080 68 74 105
0.93923 -3.61834 1.03278 49 59 98
0.94260 -3.61789 1.05355 40 49 105
0.91915 -3.62366 1.05551 66 85 146
0.94625 -3.66538 1.05763 130 151 190
0.92626 -3.67660 1.03868 157 176 203
0.93727 -3.68164 1.05966 160 180 205
0.91976 -3.68898 1.08263 149 172 204
0.91850 -3.69093 1.06165 160 178 203
0.91723 -3.69288 1.04067 170 185 209
0.92638 -3.78937 1.07009 86 88 93
0.94417 -3.78192 1.04674 147 159 172
0.93025 -3.81586 1.07225 71 73 79
0.91238 -3.82335 1.09569 74 78 85
0.90981 -3.82733 1.05287 66 66 59
0.92502 -3.83575 1.07437 70 72 72
0.90710 -3.84326 1.09788 71 73 80
0.90581 -3.84526 1.07641 72 73 69
0.94927 -4.20772 1.10659 87 91 98
0.96824 -4.19977 1.08170 75 72 87
0.94103 -4.22771 1.10891 101 108 105
0.92822 -4.24405 1.11117 109 112 116
0.89645 -4.27182 1.11564 119 120 121
0.87544 -4.28147 1.11780 121 119 120
0.87441 -4.30802 1.12027 107 107 114
0.86844 -4.33056 1.12268 101 97 99
0.85413 -4.34613 1.12497 102 100 97
0.84949 -4.37009 1.12742 93 100 102
0.82743 -4.38247 1.10651 84 85 79
0.84633 -4.39551 1.12992 90 90 90
0.82419 -4.40793 1.10894 89 87 77
0.84291 -4.50736 1.14026 91 84 84
0.86398 -4.49693 1.13803 91 83 90
0.86256 -4.49912 1.11448 93 92 91
0.84149 -4.50954 1.11671 96 93 84
0.83549 -4.53000 1.14277 83 81 72
0.83677 -4.56065 1.14547 69 62 59
0.83692 -4.62052 1.15088 75 66 51
0.83548 -4.62274 1.12697 60 55 49
0.79601 -4.70469 1.16102 62 67 81
0.81614 -4.69625 1.13461 69 65 75
0.77027 -4.71144 1.16321 129 125 105
0.75861 -4.73151 1.16574 92 90 116
0.79223 -4.79494 1.16943 74 64 51
0.76894 -4.80435 1.17171 74 74 76
0.76644 -4.83386 1.17454 78 74 69
0.76035 -4.86012 1.17729 88 87 80
0.56486 -5.06275 1.20764 147 155 144
0.58566 -5.05403 1.18035 153 150 135
0.56336 -5.06507 1.18272 151 154 153
0.54141 -5.07256 1.20997 140 148 147
0.51762 -5.08591 1.18742 141 140 138
0.51200 -5.07600 1.21208 141 138 137
0.48824 -5.08932 1.18956 138 137 137
0.29228 -5.01124 1.21969 131 129 131
0.31403 -5.00048 1.21738 128 128 119
0.26907 -5.02426 1.19769 146 145 150
0.25219 -5.00158 1.22128 140 139 138
0.20735 -4.98633 1.22264 126 127 121
0.11691 -4.91927 1.22211 85 92 110
0.09332 -4.92709 1.22427 134 142 143
-0.00369 -4.88519 1.22642 202 191 168
-0.02323 -4.89338 1.25206 206 191 172
-0.02464 -4.89556 1.22865 204 189 165
-0.16806 -4.79686 1.22850 211 193 166
-0.14899 -4.78886 1.20347 205 189 165
-0.33575 -4.66582 1.22691 140 113 80
-0.34175 -4.69222 1.22967 89 73 57
-0.34846 -4.71801 1.23242 46 32 32
-0.36975 -4.72995 1.21224 31 31 32
-0.41205 -5.10655 1.27153 20 25 21
-0.38963 -5.09398 1.29277 23 31 27
-0.39105 -5.09616 1.26930 21 28 30
-0.41064 -5.10437 1.29500 24 29 20
-0.43164 -5.11476 1.29723 25 25 18
-0.43447 -5.11912 1.25028 13 13 10
-0.51753 -5.23749 1.28986 19 17 17
-0.49487 -5.22478 1.31134 14 13 14
-0.49630 -5.22698 1.28760 15 16 13
-0.51610 -5.23528 1.31359 14 14 13
-0.53588 -5.25207 1.29231 24 19 25
-0.55243 -5.26928 1.29488 34 28 31
-0.56479 -5.29258 1.29775 52 49 49
-0.56338 -5.33598 1.30159 75 78 67
-0.58519 -5.34608 1.30385 99 101 84
-0.60809 -5.35892 1.28214 122 125 111
-0.59670 -5.37128 1.30684 117 117 97
-0.61966 -5.38416 1.28507 119 115 116
-0.61322 -5.38931 1.30948 121 120 108
-0.63621 -5.40221 1.28769 112 111 104
-1.98083 -3.97517 1.26522 104 113 102
-1.96442 -3.96596 1.28078 105 111 100
-1.96545 -3.96756 1.26359 103 107 99
-1.96649 -3.96915 1.24640 103 104 102
-1.97980 -3.97357 1.28241 108 119 105
-1.99518 -3.98118 1.28405 115 127 118
-1.99583 -3.98344 1.26689 109 122 111
-2.01018 -3.98945 1.28572 119 130 125
-2.01122 -3.99105 1.26853 108 116 102
-2.01225 -3.99264 1.25133 79 79 69
-2.56370 -3.20906 1.23155 22 27 63
-2.55225 -3.20426 1.21654 35 31 33
-2.56452 -3.21034 1.21784 26 26 38
-2.57679 -3.21641 1.21914 22 26 40
-2.58137 -3.20489 1.23226 63 76 104
-2.70738 -3.10663 1.23108 229 216 203
-2.69642 -3.10203 1.21669 197 203 200
-2.72438 -3.10197 1.23170 234 226 219
-2.74339 -3.09306 1.23206 239 235 224
-2.76502 -3.07853 1.23207 218 207 207
-2.77684 -3.08380 1.23328 184 169 171
-2.78921 -3.09074 1.22155 147 141 129
-2.78347 -3.09983 1.23513 160 146 150
-2.79588 -3.10679 1.22337 149 147 128
-2.79226 -3.11151 1.23673 149 138 141
-2.81174 -3.13121 1.23971 150 143 134
-2.81874 -3.14707 1.24158 141 138 127
-2.82541 -3.16385 1.24351 115 118 110
-2.83500 -3.17443 1.24505 84 89 91
-2.84756 -3.18148 1.23315 46 53 67
-2.84238 -3.19000 1.24692 61 64 74
-2.85498 -3.19706 1.23497 48 56 66
-2.85017 -3.20483 1.24874 45 54 69
-2.86281 -3.21192 1.23676 48 57 71
-3.16730 -4.16612 1.35529 32 24 43
-3.15405 -4.16056 1.33790 26 26 32
-3.17691 -4.19042 1.35809 60 68 40
-3.19214 -4.19896 1.34365 79 73 56
-3.19104 -4.19801 1.35964 75 74 58
-3.20627 -4.20655 1.34520 79 76 60
-3.33960 -4.04209 1.35462 97 95 65
-3.32601 -4.03537 1.35318 88 89 64
-3.35776 -4.02925 1.35457 106 103 70
-3.43229 -3.96270 1.35311 92 80 50
-3.44661 -3.96418 1.35413 85 83 58
-3.46338 -3.95389 1.35422 113 112 85
-3.47742 -3.96176 1.34092 132 121 89
-3.56623 -3.86710 1.35267 64 50 50
-3.57811 -3.87803 1.35439 83 92 92
-3.59326 -3.87130 1.35470 125 137 122
-3.60684 -3.87891 1.34184 135 137 121
-3.77568 -4.36701 1.41081 139 141 114
-3.76083 -4.35868 1.42489 142 142 120
-3.76176 -4.36012 1.40933 143 143 117
-3.78790 -4.38822 1.41348 129 128 102
-3.80280 -4.39658 1.39936 117 111 96
-3.80102 -4.40240 1.41557 117 115 101
-3.82683 -4.43614 1.42021 120 119 109
-3.82777 -4.43760 1.40451 126 126 109
-3.84182 -4.44455 1.40600 135 133 108
-3.88882 -4.56010 1.43524 135 134 113
-3.87353 -4.55153 1.44973 131 133 108
-3.87450 -4.55301 1.43372 129 127 107
-3.90410 -4.56867 1.42076 144 148 118
-3.90189 -4.58125 1.43796 140 142 120
-3.91722 -4.58985 1.42343 145 147 118
-4.26580 -5.86072 1.57622 139 133 114
-4.30066 -6.00227 1.59118 105 108 88
-4.50521 -6.33462 1.63384 173 196 211
-4.48656 -6.32539 1.63186 169 192 208
-4.59829 -6.37644 1.64334 193 210 226
1.05464 -3.50098 1.01527 75 79 116
1.07181 -3.49378 0.99274 57 58 104
1.05341 -3.50289 0.99469 60 58 107
1.03500 -3.51200 0.99665 58 57 106
1.03861 -3.51168 1.01721 68 77 111
1.01896 -3.52270 0.99858 55 59 103
1.02854 -3.52642 1.01913 59 62 105
1.00885 -3.53746 1.00047 51 56 103
0.94807 -3.64696 1.03472 46 61 112
0.96550 -3.63966 1.01186 60 61 89
0.94682 -3.64890 1.01384 41 51 96
0.94088 -3.66440 1.03669 98 115 158
0.92090 -3.67560 1.01776 133 150 191
0.92268 -3.71975 1.04267 166 182 207
0.92141 -3.72171 1.02159 173 187 211
0.90255 -3.73104 1.02359 171 184 208
0.91715 -3.73881 1.04468 164 178 202
0.91800 -3.78611 1.04876 101 110 116
0.93770 -3.82435 1.05085 67 70 72
0.91722 -3.83584 1.03144 63 64 66
0.92178 -3.86025 1.05499 72 71 63
0.92048 -3.86225 1.03345 67 69 76
0.95018 -4.21169 1.08387 86 82 92
0.94541 -4.23454 1.08617 99 98 104
0.92363 -4.24676 1.06552 102 101 111
0.92969 -4.24851 1.08838 108 107 114
0.91402 -4.26257 1.09059 112 117 118
0.89873 -4.27700 1.09281 126 135 123
0.87607 -4.28528 1.09496 127 134 128
0.87793 -4.31430 1.09738 104 107 115
0.86919 -4.33453 1.09970 89 85 92
0.84722 -4.34685 1.07886 74 71 76
0.86837 -4.36166 1.10212 80 80 88
0.84631 -4.37404 1.08121 77 74 82
0.86009 -4.38258 1.10446 82 87 86
0.83797 -4.39499 1.08350 82 77 81
0.83520 -4.53321 1.11918 93 85 79
0.83179 -4.55964 1.12170 82 75 69
0.83779 -4.59483 1.12439 72 55 59
0.82450 -4.64289 1.12942 63 63 61
0.80306 -4.65350 1.13170 69 63 71
0.80162 -4.65572 1.10774 69 63 75
0.78101 -4.69423 1.13664 64 68 81
0.80109 -4.68581 1.11030 72 68 77
0.76479 -4.70988 1.13903 131 134 112
0.75154 -4.72842 1.14148 90 92 122
0.78545 -4.79213 1.14491 79 70 74
0.76067 -4.80008 1.14716 84 84 88
0.77315 -4.84406 1.15021 92 96 92
0.79559 -4.89818 1.15352 113 114 113
0.76210 -4.89802 1.15562 121 127 136
0.73239 -4.90144 1.15779 144 147 155
0.70885 -4.91465 1.13547 165 166 148
0.72068 -4.92265 1.16038 155 162 148
0.71019 -4.94521 1.16301 139 137 118
0.68654 -4.95847 1.14059 109 105 105
0.69854 -4.96676 1.16562 119 119 117
0.66376 -4.96500 1.16766 137 145 142
0.64310 -4.97366 1.19477 143 147 149
0.64161 -4.97596 1.17001 143 147 149
0.64012 -4.97826 1.14525 144 152 151
0.52896 -5.06325 1.18472 143 145 152
0.54971 -5.05455 1.15750 153 151 152
0.33674 -5.02929 1.19387 135 136 129
0.35860 -5.01847 1.19155 138 136 130
0.33527 -5.03156 1.16943 145 149 138
0.31340 -5.04238 1.17175 142 147 140
0.27655 -4.99772 1.19490 137 138 137
0.19088 -4.97173 1.19803 132 127 123
0.11065 -4.91602 1.19822 54 56 74
0.09173 -4.92910 1.20055 59 70 64
-0.18000 -4.78654 1.20522 211 191 165
-0.18137 -4.78866 1.18243 208 189 165
-0.23379 -4.75704 1.20604 196 177 137
-0.33599 -4.66918 1.20481 149 123 80
-0.35584 -4.67896 1.20691 115 89 56
-0.33514 -4.73783 1.21074 57 38 32
-0.40039 -5.08786 1.24540 17 22 26
-0.37802 -5.07532 1.26661 24 29 32
-0.37943 -5.07749 1.24318 23 24 30
-0.40180 -5.09004 1.22198 13 15 13
-0.42277 -5.10041 1.22420 11 14 11
-0.41428 -5.10765 1.24801 13 18 17
-0.43669 -5.12022 1.22676 12 12 12
-0.48339 -5.20915 1.26122 18 14 15
-0.46076 -5.19647 1.28266 13 12 15
-0.46219 -5.19867 1.25897 17 14 16
-0.48196 -5.20695 1.28491 13 13 12
-0.49866 -5.22789 1.26381 20 18 20
-0.52173 -5.23581 1.26596 30 29 30
-0.53666 -5.25520 1.26859 46 47 44
-0.53989 -5.29137 1.27195 71 70 69
-0.54710 -5.32223 1.27510 95 94 94
-0.56998 -5.33506 1.25341 116 116 109
-0.56819 -5.33334 1.27740 110 111 102
-0.59107 -5.34617 1.25571 113 114 105
-0.58538 -5.35013 1.27994 115 118 101
-0.60829 -5.36298 1.25823 114 117 114
-1.97749 -3.98437 1.24842 97 104 102
-1.98975 -3.99751 1.25034 91 99 95
-2.60586 -3.19035 1.21870 41 40 77
-2.59452 -3.18560 1.20383 30 35 38
-2.61882 -3.19762 1.20641 19 31 57
-2.71054 -3.10317 1.21768 221 215 203
-2.69959 -3.09858 1.20331 104 118 148
-2.74606 -3.09047 1.21881 231 216 203
-2.76283 -3.08580 1.21946 191 165 169
-2.77163 -3.09733 1.22102 154 136 134
-2.80484 -3.11819 1.22493 145 140 123
-2.81028 -3.13723 1.22694 129 123 115
-2.81251 -3.16343 1.22936 98 99 98
-2.82063 -3.17721 1.23108 65 73 80
-2.83322 -3.18428 1.21914 47 53 63
-2.83334 -3.18105 1.23221 48 55 71
-2.84592 -3.18811 1.22029 50 56 67
-3.16626 -4.17501 1.33993 27 23 46
-3.15298 -4.16944 1.32251 25 25 34
-3.17732 -4.19395 1.34228 61 65 45
-3.19256 -4.20250 1.32784 77 70 54
-3.31742 -4.07632 1.34084 90 92 81
-3.30277 -4.06810 1.35472 85 82 71
-3.30369 -4.06953 1.33938 82 78 67
-3.33857 -4.05173 1.34002 101 103 89
-3.35310 -4.05989 1.32625 114 114 98
-3.35683 -4.03853 1.34002 108 105 78
-3.37632 -4.01939 1.33958 115 110 82
-3.39070 -4.02745 1.32595 126 120 97
-3.41395 -3.98461 1.33891 123 115 82
-3.46421 -3.95551 1.33954 123 114 81
-3.47825 -3.96338 1.32623 136 123 91
-3.55200 -3.87421 1.33797 130 114 86
-3.54007 -3.86921 1.32232 134 127 99
-3.56709 -3.86843 1.33842 64 50 45
-3.57658 -3.89219 1.34109 83 90 89
-3.59211 -3.88364 1.34132 124 133 122
-3.60572 -3.89128 1.32842 136 138 120
-3.75056 -4.34080 1.39120 138 139 113
-3.73575 -4.33250 1.40523 143 142 122
-3.73669 -4.33394 1.38973 141 141 118
-3.74963 -4.33936 1.40671 144 142 119
-3.76378 -4.35288 1.39309 133 136 109
-3.77861 -4.36120 1.37904 111 109 102
-3.77660 -4.36859 1.39527 127 126 101
-3.78942 -4.38473 1.39748 120 114 88
-3.80430 -4.39308 1.38338 126 125 108
-3.88905 -4.56956 1.41989 140 146 114
-3.90436 -4.57815 1.40538 145 148 123
-4.19932 -5.69291 1.53747 146 140 114
-4.18096 -5.68261 1.55487 151 147 125
-4.18212 -5.68440 1.53565 152 143 123
-4.19817 -5.69112 1.55670 148 142 119
-4.21537 -5.69964 1.55853 147 140 114
-4.21588 -5.73866 1.54251 141 136 110
-4.23278 -5.77592 1.54682 139 133 111
-4.28395 -5.98700 1.56847 98 97 85
-4.30310 -5.99774 1.55031 85 90 93
-4.30186 -6.01003 1.57161 93 95 95
-4.31986 -6.03863 1.57524 100 107 99
-4.33790 -6.04756 1.57715 110 109 104
-4.48787 -6.32949 1.61120 170 196 212
-4.50778 -6.34066 1.59233 186 210 220
-4.50597 -6.31989 1.61151 190 207 218
0.94666 -3.67136 1.01573 63 77 132
0.96415 -3.66403 0.99279 52 60 104
0.94540 -3.67331 0.99478 46 56 112
0.94454 -3.71546 1.01957 171 187 213
0.92440 -3.72676 1.00048 180 193 214
0.91425 -3.76284 1.02551 166 178 195
0.93194 -3.75542 1.00229 180 190 210
0.92570 -3.79473 1.02744 128 139 148
0.94052 -3.82940 1.02940 78 83 89
0.92002 -3.84090 1.00997 64 64 73
0.98149 -4.08307 1.04804 73 72 81
1.00285 -4.07109 1.06829 86 92 92
1.00150 -4.07317 1.04592 82 84 90
0.96283 -4.09090 1.07253 78 80 83
0.96014 -4.09505 1.02780 66 62 77
0.97300 -4.10209 1.05019 72 69 79
0.95429 -4.10993 1.07473 81 83 86
0.95140 -4.18933 1.05891 84 79 82
0.97304 -4.17719 1.07942 83 75 88
0.97168 -4.17929 1.05675 79 69 79
0.92975 -4.20147 1.03839 98 100 105
0.94472 -4.21047 1.06111 90 83 89
0.94423 -4.23682 1.06336 99 95 103
0.92584 -4.27567 1.06781 91 87 103
0.91760 -4.29607 1.07005 97 105 100
0.90682 -4.31446 1.07229 99 108 98
0.89796 -4.33457 1.07455 93 95 95
0.87594 -4.34692 1.05369 81 76 74
0.88420 -4.35064 1.07679 83 78 85
0.86215 -4.36301 1.05590 72 72 64
0.85280 -4.52308 1.09330 98 94 90
0.87392 -4.51263 1.09105 88 88 93
0.84861 -4.54871 1.09572 107 102 88
0.83968 -4.57025 1.09810 94 90 75
0.84053 -4.60083 1.10062 83 75 68
0.84208 -4.63230 1.10316 50 51 47
0.81921 -4.64513 1.08148 52 56 59
0.82912 -4.65069 1.10554 54 58 63
0.77277 -4.69009 1.11249 68 72 82
0.79282 -4.68169 1.08618 72 70 77
0.74983 -4.70296 1.09074 131 152 131
0.76469 -4.71339 1.11497 132 146 117
0.75446 -4.73481 1.11743 83 85 116
0.76958 -4.78062 1.12029 83 81 92
0.75426 -4.79759 1.12271 104 101 107
0.75304 -4.82829 1.12536 118 120 122
0.72970 -4.84139 1.10324 147 147 144
0.74690 -4.85446 1.12796 139 139 139
0.72348 -4.86759 1.10576 144 153 149
0.72189 -4.86230 1.13023 139 144 147
0.69848 -4.87543 1.10805 145 152 154
0.70494 -4.87808 1.13265 147 153 153
0.68152 -4.89122 1.11045 161 159 141
0.67219 -4.91096 1.13753 146 144 139
0.64871 -4.92413 1.11528 119 105 114
0.62263 -4.92709 1.14209 138 147 139
0.59918 -4.94025 1.11986 149 156 154
0.51373 -5.05096 1.15952 153 154 150
0.51224 -5.05327 1.13473 163 165 153
0.48812 -5.05827 1.16179 142 142 140
0.46596 -5.06924 1.16414 138 138 134
0.39311 -5.06003 1.16808 142 146 139
0.41662 -5.04684 1.19037 140 139 136
0.41514 -5.04913 1.16574 138 137 124
0.36959 -5.07322 1.14579 152 153 142
0.21771 -4.97090 1.17193 142 138 145
0.23778 -4.96249 1.14560 147 149 140
0.21626 -4.97314 1.14789 139 140 137
0.17720 -4.96022 1.17366 139 131 130
0.08388 -4.88958 1.17376 92 89 90
0.06662 -4.93897 1.17902 57 56 62
-0.01447 -4.88035 1.17934 109 109 123
-0.24047 -4.75282 1.18324 208 189 152
-0.31435 -4.69869 1.18347 159 135 99
-0.33929 -4.70253 1.18541 128 104 64
-0.32707 -4.75132 1.18871 66 52 42
-0.33360 -4.77778 1.19136 32 32 29
-0.35238 -4.78566 1.21600 30 32 35
-0.35374 -4.78775 1.19349 30 32 28
-0.35509 -4.78984 1.17098 31 32 23
-0.46659 -5.15748 1.23182 18 13 20
-0.44410 -5.14487 1.25313 12 11 10
-0.44552 -5.14705 1.22959 14 12 15
-0.46517 -5.15529 1.25537 14 13 15
-0.47613 -5.18370 1.23464 25 17 27
-0.48612 -5.20955 1.23746 30 27 34
-0.49860 -5.23217 1.24016 42 46 44
-0.50970 -5.25689 1.24295 67 71 58
-0.50466 -5.30465 1.24664 88 95 72
-0.52755 -5.31749 1.22495 122 121 112
-0.53098 -5.30832 1.24865 110 112 100
-0.55384 -5.32114 1.22698 124 123 112
-0.55032 -5.32190 1.25104 119 117 107
-0.57319 -5.33473 1.22936 120 118 111
-1.94169 -3.98103 1.22840 105 108 100
-1.92520 -3.97178 1.24403 107 107 109
-1.92624 -3.97339 1.22676 106 106 108
-1.94065 -3.97943 1.24567 106 105 106
-1.95969 -3.98427 1.22984 97 101 85
-1.97445 -3.99307 1.23153 81 84 76
-1.99109 -3.99859 1.23307 63 62 71
-2.00867 -4.00241 1.23453 51 46 61
-2.02304 -4.00844 1.25339 53 46 39
-2.02408 -4.01004 1.23617 47 45 56
-2.02512 -4.01164 1.21894 48 49 63
-2.71268 -3.10171 1.20442 164 176 191
-2.70173 -3.09712 1.19006 23 29 61
-2.73099 -3.09433 1.20499 207 210 207
-2.74702 -3.09131 1.20577 227 217 203
-2.76271 -3.08884 1.20657 191 172 159
-2.77166 -3.10008 1.20810 157 146 126
-2.78225 -3.10803 1.20945 146 146 122
-2.79263 -3.11645 1.21083 134 135 116
-2.79958 -3.13220 1.21260 109 109 99
-2.80099 -3.15999 1.21502 79 78 80
-2.81355 -3.16704 1.20311 43 52 59
-2.80834 -3.17538 1.21679 53 59 69
-2.82094 -3.18245 1.20484 46 55 60
-2.82083 -3.17973 1.21796 42 53 63
-2.83343 -3.18679 1.20602 48 56 60
-3.16492 -4.18498 1.32458 29 22 45
-3.15162 -4.17940 1.30713 26 26 35
-3.17401 -4.21149 1.32740 61 62 45
-3.18930 -4.22007 1.31290 72 68 54
-3.29242 -4.12096 1.32745 78 73 53
-3.27760 -4.11264 1.34150 80 80 66
-3.27853 -4.11408 1.32598 77 80 61
-3.31738 -4.08174 1.32577 94 100 98
-3.33847 -4.05742 1.32509 108 119 124
-3.37577 -4.02717 1.32496 120 116 94
-3.41349 -3.99208 1.32446 129 121 93
-3.43297 -3.97051 1.32390 131 122 90
-3.44710 -3.97844 1.31051 133 126 94
-3.44883 -3.96486 1.32445 130 117 82
-3.46292 -3.97276 1.31110 135 125 96
-3.46371 -3.96343 1.32530 135 121 91
-3.47777 -3.97132 1.31197 136 124 95
-3.54980 -3.89137 1.32481 129 112 81
-3.53783 -3.88635 1.30910 135 127 102
-3.56350 -3.89906 1.31183 62 53 44
-3.56764 -3.87137 1.32429 63 53 43
-3.57505 -3.90637 1.32770 80 86 89
-3.59113 -3.89502 1.32779 124 131 123
-3.60478 -3.90268 1.31485 137 138 121
-3.72716 -4.30320 1.37085 141 139 113
-3.71244 -4.29494 1.38480 142 141 115
-3.71336 -4.29638 1.36938 141 139 111
-3.72623 -4.30177 1.38626 142 142 118
-3.73977 -4.31900 1.37299 131 131 109
-3.75452 -4.32728 1.35901 115 108 91
-3.75289 -4.33130 1.37487 121 121 100
-3.76589 -4.34491 1.37685 113 114 98
-3.79026 -4.38706 1.38196 118 115 102
-3.79119 -4.38850 1.36637 123 125 104
-3.80514 -4.39541 1.36785 126 127 103
-4.20062 -5.68796 1.51769 134 124 107
-4.21676 -5.75691 1.52452 122 117 102
-4.23356 -5.80510 1.52965 121 122 105
-4.26741 -5.95532 1.54445 99 96 97
-4.28649 -5.96602 1.52637 87 92 89
-4.32108 -6.05941 1.55665 95 100 90
-4.30420 -6.05234 1.53450 79 88 86
-4.48860 -6.31200 1.58868 169 189 212
-4.50846 -6.32313 1.56987 186 211 210
1.01780 -3.56810 0.98150 64 53 99
1.03634 -3.55893 0.97953 67 58 100
1.01904 -3.56618 1.00223 52 51 105
1.01655 -3.57003 0.96078 109 112 120
1.00050 -3.57535 1.00420 59 57 110
1.00783 -3.58319 0.98338 64 59 105
0.99051 -3.59045 1.00611 64 70 108
0.98926 -3.59238 0.98535 61 62 109
0.94346 -3.69466 0.99663 94 107 162
0.95506 -3.72594 0.99838 160 176 207
0.92475 -3.77348 1.00422 178 187 203
0.94248 -3.76604 0.98096 187 193 207
0.92347 -3.77545 0.98297 184 193 205
0.91468 -3.78951 1.00618 156 167 172
0.93449 -3.82787 1.00796 106 111 112
0.99800 -4.07356 1.02356 85 88 91
1.01934 -4.06158 1.04379 86 86 94
1.01800 -4.06366 1.02144 92 92 92
0.98067 -4.08556 1.02568 70 69 79
0.95931 -4.09754 1.00543 64 60 70
0.96433 -4.12424 1.02988 69 69 84
0.94558 -4.13210 1.05448 78 78 85
0.94423 -4.13419 1.03201 75 76 92
0.95896 -4.17224 1.03410 83 75 84
0.95657 -4.19674 1.03623 95 96 94
0.94366 -4.23960 1.04055 99 97 105
0.92944 -4.25483 1.04272 99 102 112
0.90763 -4.26706 1.02204 80 71 91
0.93037 -4.28271 1.04490 82 75 95
0.90846 -4.29500 1.02414 79 76 91
0.92120 -4.30237 1.04709 80 80 94
0.89925 -4.31468 1.02629 86 83 85
0.91400 -4.32381 1.04930 84 88 90
0.89200 -4.33615 1.02844 86 84 79
0.90231 -4.34159 1.05151 85 87 84
0.88027 -4.35395 1.03062 86 83 75
0.88260 -4.46579 1.06283 88 75 77
0.90359 -4.45541 1.06060 83 75 79
0.86302 -4.47400 1.08852 97 92 91
0.86161 -4.47618 1.06505 95 90 89
0.86180 -4.50533 1.06739 86 84 91
0.86466 -4.53711 1.06976 109 106 107
0.84746 -4.55115 1.07204 118 122 111
0.84677 -4.58015 1.07442 99 101 74
0.83808 -4.60213 1.07677 89 90 77
0.85035 -4.64341 1.07928 51 58 64
0.82743 -4.65626 1.05757 53 54 50
0.80423 -4.66171 1.08381 64 63 75
0.76230 -4.68386 1.08838 78 80 90
0.74642 -4.73079 1.09321 86 76 100
0.76729 -4.78209 1.09597 101 104 115
0.74898 -4.79617 1.09831 135 130 136
0.72575 -4.80920 1.07629 151 154 145
0.73216 -4.81175 1.10068 144 143 148
0.70891 -4.82479 1.07864 148 151 139
0.47803 -5.05135 1.13684 152 147 148
0.49866 -5.04270 1.10976 163 165 158
0.47654 -5.05365 1.11211 164 159 148
0.45441 -5.06460 1.11446 161 158 155
0.45263 -5.05878 1.13913 148 147 141
0.42738 -5.06631 1.14141 149 144 125
0.40380 -5.07954 1.11906 156 153 145
0.39313 -5.06396 1.14349 150 156 150
0.36960 -5.07715 1.12119 152 148 143
0.16674 -4.95232 1.14949 140 136 134
0.18668 -4.94396 1.12333 146 145 136
0.16530 -4.95454 1.12560 144 142 133
0.11666 -4.93045 1.15105 131 131 122
0.06519 -4.94117 1.15532 71 66 52
0.04207 -4.94944 1.15752 56 53 67
-0.05885 -4.86721 1.15758 108 110 125
-0.18986 -4.74847 1.15670 172 170 164
-0.26143 -4.73165 1.16008 210 190 166
-0.28231 -4.74068 1.16219 175 155 121
-0.32169 -4.72741 1.16374 138 116 65
-0.33294 -4.74793 1.16613 81 72 45
-0.31851 -4.79996 1.16937 39 34 20
-0.34010 -4.81206 1.14892 31 33 29
-0.45029 -5.14470 1.20590 20 17 20
-0.42925 -5.13429 1.20366 15 16 17
-0.46141 -5.16864 1.20856 30 25 33
-0.48338 -5.17789 1.21077 48 44 56
-0.47493 -5.22919 1.21434 70 72 71
-0.48653 -5.25317 1.21704 92 100 87
-0.49658 -5.27953 1.21983 115 115 102
-0.51305 -5.29706 1.22234 120 118 104
-0.53589 -5.30987 1.20069 120 114 118
-1.93102 -3.96863 1.20923 100 102 103
-1.91456 -3.95940 1.22484 107 107 110
-1.91560 -3.96100 1.20760 104 103 109
-1.94315 -3.98192 1.21111 87 96 85
-1.96057 -3.98614 1.21260 68 75 56
-1.97294 -3.99911 1.21447 51 51 42
-1.99525 -3.99471 1.21559 43 37 51
-2.01649 -3.99199 1.21678 43 37 59
-2.70290 -3.12393 1.19230 65 80 121
-2.69188 -3.11931 1.17785 21 23 31
-2.70369 -3.12515 1.17910 14 18 47
-2.71550 -3.13100 1.18036 40 38 86
-2.73246 -3.09416 1.19186 129 137 166
-2.74721 -3.09372 1.19280 189 191 195
-2.75953 -3.09814 1.19398 184 179 160
-2.77073 -3.10483 1.19526 151 145 112
-2.78141 -3.11262 1.19659 122 124 101
-2.78694 -3.13126 1.19846 97 98 95
-2.78847 -3.15865 1.20077 67 68 74
-2.80105 -3.16571 1.18885 50 58 56
-2.79835 -3.16856 1.20223 47 53 57
-2.81095 -3.17562 1.19029 46 57 62
-3.16416 -4.19286 1.30904 33 20 42
-3.15083 -4.18727 1.29156 25 27 24
-3.16873 -4.23643 1.31286 58 60 43
