ply
format ascii 1.0
element face 0
property list uchar int vertex_indices
element vertex 1325
property float x
property float y
property float z
property uchar diffuse_red
property uchar diffuse_green
property uchar diffuse_blue
end_header
1.29326 -2.91738 1.13120 205 212 222
1.31621 -3.08529 1.14631 200 213 223
1.33143 -3.07572 1.15977 200 210 221
1.33001 -3.07780 1.14406 202 212 223
1.31764 -3.08321 1.16202 200 208 223
1.30497 -3.09547 1.14822 191 202 207
1.30020 -3.11250 1.14928 165 151 181
1.28492 -3.12212 1.13577 89 37 58
1.28783 -3.12160 1.15134 130 111 133
1.27929 -3.13481 1.15290 108 52 98
1.26334 -3.16269 1.15587 102 56 92
1.25494 -3.17631 1.15741 133 109 125
1.23432 -3.17655 1.16056 160 158 162
1.22634 -3.19071 1.16205 179 191 180
1.21426 -3.20037 1.16408 153 142 161
1.21957 -3.22960 1.16383 131 112 125
1.19398 -3.22418 1.16763 124 120 147
1.18516 -3.23769 1.16923 107 113 160
1.18682 -3.26328 1.16947 156 169 196
1.18435 -3.28436 1.17026 221 232 241
1.16147 -3.28190 1.17370 249 252 254
1.14882 -3.28744 1.19206 254 254 254
1.14736 -3.28957 1.17600 254 254 254
1.05638 -3.30309 1.19013 250 246 251
1.06894 -3.29759 1.17190 248 253 254
1.04548 -3.31450 1.19201 242 229 239
1.03261 -3.32353 1.19415 229 218 230
1.02523 -3.33939 1.19558 212 190 225
1.00971 -3.34915 1.18186 200 223 239
1.00713 -3.34199 1.19839 203 187 227
0.99364 -3.35032 1.20061 201 219 239
0.96372 -3.36324 1.20542 185 214 238
0.95212 -3.37400 1.20740 161 187 219
0.93641 -3.37948 1.20990 132 155 201
0.92092 -3.38922 1.19620 103 129 174
0.92459 -3.39000 1.21191 111 132 186
0.90909 -3.39975 1.19819 106 135 171
0.91909 -3.40886 1.21311 98 126 171
0.90353 -3.41864 1.19935 108 137 171
0.86778 -3.61231 1.22485 103 135 159
0.88086 -3.60659 1.20586 105 139 175
0.89882 -3.71468 1.22209 60 68 68
0.88236 -3.72504 1.20753 50 53 64
0.89832 -3.74366 1.22272 55 55 58
0.88176 -3.75407 1.20808 64 66 73
0.95042 -3.97569 1.21924 46 45 53
0.96452 -3.96952 1.19877 43 43 51
0.94879 -3.97807 1.20133 44 42 45
0.94516 -4.00012 1.22051 59 62 58
0.92774 -4.01108 1.20511 54 51 58
0.93353 -4.01505 1.22258 66 69 62
0.91608 -4.02602 1.20714 53 60 66
0.92546 -4.03557 1.22420 67 69 64
0.90796 -4.04658 1.20873 54 62 66
0.91327 -4.04987 1.22634 63 66 61
0.89574 -4.06089 1.21084 55 62 64
0.90027 -4.09673 1.22922 64 65 68
0.89862 -4.09914 1.21101 62 67 70
0.89854 -4.12809 1.23009 74 74 79
0.87503 -4.23003 1.23564 68 69 67
0.88966 -4.22362 1.21438 82 86 83
0.83989 -4.35392 1.24338 61 68 63
0.85651 -4.34489 1.24067 60 64 57
0.85479 -4.34740 1.22175 60 62 53
0.82758 -4.37038 1.24557 75 74 68
0.81679 -4.38962 1.24759 81 82 75
0.79839 -4.40120 1.23131 87 87 76
0.78797 -4.41578 1.25249 82 84 75
0.82961 -4.86483 1.25478 45 47 51
0.84577 -4.85776 1.23131 48 52 57
0.79136 -4.88015 1.26091 76 78 65
0.77148 -4.89266 1.24333 93 100 96
0.81229 -4.96643 1.25938 95 102 91
0.79171 -4.97183 1.26262 86 89 91
0.64008 -5.08874 1.28800 92 92 80
0.61114 -5.07574 1.29216 63 54 55
0.59636 -5.09336 1.29476 48 40 55
0.58272 -5.11367 1.29723 50 43 46
0.56212 -5.11861 1.30046 54 63 67
0.54189 -5.13134 1.28257 93 100 96
0.55544 -5.15488 1.30218 81 82 92
0.53510 -5.16767 1.28420 90 98 95
0.53048 -5.14999 1.30589 90 99 96
0.51021 -5.16275 1.28796 90 99 98
0.50563 -5.14503 1.30959 85 98 102
0.48541 -5.15775 1.29171 91 94 86
0.47369 -5.17601 1.31506 122 128 119
0.42622 -5.11688 1.32116 151 151 144
0.40998 -5.12399 1.34475 171 158 145
-0.33480 -4.51387 1.42562 184 173 153
-0.32110 -4.50787 1.40572 183 171 155
-0.34353 -4.54337 1.42751 157 137 108
-0.36921 -4.51785 1.43094 106 82 51
-0.38792 -4.51461 1.43373 53 52 46
-0.40294 -4.52348 1.43619 27 23 24
-0.41972 -4.53403 1.42136 25 27 22
-0.67314 -5.54420 1.49705 12 16 12
-0.65366 -5.53195 1.51427 22 22 18
-0.65732 -5.53728 1.47408 13 13 11
-0.67131 -5.54154 1.51715 19 21 19
-0.67497 -5.54687 1.47695 9 11 11
-0.69078 -5.55379 1.49993 10 12 9
-0.72156 -5.59712 1.50546 18 14 20
-0.70201 -5.58482 1.52275 13 12 11
-0.70384 -5.58750 1.50257 12 8 12
-0.73436 -5.63363 1.50811 29 25 32
-0.74879 -5.66202 1.51086 45 42 46
-0.76509 -5.68055 1.51370 58 61 58
-0.78403 -5.68423 1.51666 70 75 64
-0.80375 -5.69663 1.49922 81 84 78
-0.80162 -5.69554 1.51956 77 82 67
-0.82135 -5.70795 1.50212 83 86 76
-0.96548 -5.90117 1.54851 70 73 65
-0.94917 -5.89403 1.52482 79 78 79
-1.13977 -5.72322 1.57167 57 57 51
-1.16156 -5.69255 1.57440 56 59 45
-1.18145 -5.67754 1.57714 53 55 41
-1.19825 -5.69122 1.57997 60 62 64
-1.21981 -5.65724 1.58260 71 82 95
-1.23852 -5.65017 1.58532 72 81 98
-1.25505 -5.66531 1.58813 58 70 95
-1.27426 -5.65113 1.59079 48 64 76
-1.29407 -5.62844 1.59337 38 51 53
-1.31110 -5.63653 1.59613 26 35 44
-1.32757 -5.65150 1.59893 36 39 46
-1.34451 -5.66079 1.60169 61 60 59
-1.35971 -5.66744 1.62376 87 98 116
-1.36119 -5.67361 1.60448 62 56 53
-1.37640 -5.68026 1.62656 80 92 109
-1.37747 -5.69250 1.60733 58 50 58
-1.39270 -5.69916 1.62945 81 93 111
2.52842 -2.64129 0.93623 238 252 248
2.54430 -2.63130 0.95027 254 254 254
2.54132 -2.63565 0.91750 205 213 231
2.52991 -2.63912 0.95262 254 254 254
2.52072 -2.65347 0.93761 211 213 224
2.50780 -2.65912 0.95637 236 252 250
2.50631 -2.66130 0.93996 152 152 186
2.48275 -2.71551 0.94446 90 75 92
2.49879 -2.70543 0.95864 107 94 134
2.49728 -2.70762 0.94209 70 55 85
2.49578 -2.70981 0.92555 113 106 118
2.48426 -2.71332 0.96101 85 66 112
2.46973 -2.72121 0.96338 87 72 98
2.47627 -2.72884 0.94568 112 102 111
2.46322 -2.73455 0.96462 94 83 92
2.46172 -2.73675 0.94805 140 130 124
2.45042 -2.80108 0.95082 162 153 127
2.46514 -2.79308 0.94842 209 218 197
2.46362 -2.79531 0.93166 208 199 201
2.45195 -2.79886 0.96758 120 111 83
2.25853 -2.84789 0.98117 207 176 140
2.27460 -2.83778 0.99538 205 172 136
2.27309 -2.83998 0.97880 205 170 133
2.27158 -2.84218 0.96222 204 170 135
2.24617 -2.85743 0.98323 181 158 136
2.19356 -2.83679 0.99102 106 89 105
1.70100 -2.56741 1.06269 179 164 152
1.68941 -2.57248 1.07952 184 161 147
1.68807 -2.57443 1.06480 182 162 145
1.68673 -2.57638 1.05008 180 162 150
1.47570 -2.77488 1.10077 198 174 167
1.48750 -2.76972 1.08363 189 166 147
1.47236 -2.81006 1.10185 236 235 237
1.45773 -2.81601 1.10420 216 220 218
1.41671 -2.79766 1.11024 197 193 191
1.41043 -2.81115 1.11142 202 210 195
1.37992 -2.80214 1.11599 181 182 181
1.37737 -2.81914 1.11665 193 204 209
1.36287 -2.82826 1.10383 200 205 208
1.34377 -2.86595 1.12259 197 205 213
1.35836 -2.85678 1.13549 197 204 210
1.35699 -2.85877 1.12043 196 204 211
1.35562 -2.86077 1.10538 197 205 216
1.33353 -2.87603 1.12433 178 186 202
1.30460 -2.86789 1.12866 176 180 185
1.30986 -2.89314 1.12825 193 200 209
1.29524 -2.90234 1.11533 205 211 222
1.32938 -3.05902 1.12790 202 216 221
1.34454 -3.04948 1.14130 203 211 221
1.34312 -3.05155 1.12566 206 215 224
1.33080 -3.05694 1.14354 202 211 219
1.32148 -3.07253 1.12933 193 202 212
1.31894 -3.09171 1.13003 170 156 180
1.30614 -3.10028 1.13214 130 107 119
1.29573 -3.11138 1.13393 102 50 86
1.27786 -3.13691 1.13709 105 55 93
1.27545 -3.15682 1.13778 133 107 127
1.26070 -3.16350 1.14017 160 153 166
1.24467 -3.16876 1.14272 172 186 189
1.23414 -3.18005 1.14453 162 172 192
1.22322 -3.19096 1.14639 145 139 184
1.20733 -3.19636 1.14893 152 143 200
1.20145 -3.21299 1.15010 172 181 206
1.22130 -3.25888 1.14777 179 189 212
1.17628 -3.23133 1.15428 137 140 177
1.14746 -3.22190 1.15857 101 112 158
1.14906 -3.24739 1.15873 153 171 202
1.14709 -3.26899 1.15938 220 232 243
1.12288 -3.26470 1.16305 249 252 254
1.11033 -3.27019 1.18127 254 254 254
1.10888 -3.27230 1.16533 254 254 254
1.04080 -3.28804 1.17608 241 249 251
1.03114 -3.30084 1.17778 227 239 245
1.02457 -3.31754 1.17906 212 220 234
1.01348 -3.32874 1.18095 205 214 231
0.98879 -3.34816 1.18507 188 217 238
0.97653 -3.35802 1.18712 165 193 221
0.95919 -3.36143 1.18985 140 162 202
0.94372 -3.37116 1.17617 104 127 165
0.94579 -3.36985 1.19205 117 133 182
0.93461 -3.38115 1.19396 101 126 174
0.91912 -3.39090 1.18026 109 137 175
0.87895 -3.63247 1.20657 106 139 163
0.89209 -3.62672 1.18749 106 139 177
0.85497 -3.62713 1.21018 88 107 132
0.90340 -3.72575 1.20429 50 53 59
0.88690 -3.73613 1.18970 49 55 62
0.90555 -4.14434 1.21066 72 73 77
0.92001 -4.13801 1.18967 58 63 68
0.90388 -4.14677 1.19230 63 64 74
0.89518 -4.16233 1.21255 75 75 79
0.87902 -4.17111 1.21519 77 79 82
0.87472 -4.23475 1.21687 80 83 78
0.86646 -4.25702 1.21850 76 73 75
0.85178 -4.26344 1.23983 69 72 77
0.86017 -4.28279 1.21988 72 66 74
0.84543 -4.28924 1.24129 65 62 65
0.84373 -4.29172 1.22256 64 61 64
0.84434 -4.36699 1.22367 61 68 55
0.85926 -4.36046 1.20199 67 64 64
0.82595 -4.37856 1.20742 67 67 63
0.83132 -4.38234 1.22593 74 79 67
0.82066 -4.40188 1.22788 75 83 68
0.79441 -4.43278 1.23243 83 81 70
0.80341 -4.48793 1.23192 53 57 45
0.78473 -4.49968 1.21540 47 48 50
0.81786 -4.84862 1.23547 48 50 62
0.83396 -4.84157 1.21209 51 54 67
0.82033 -4.94299 1.23660 93 105 94
0.80021 -4.95564 1.21881 89 96 110
0.78862 -4.97222 1.24196 88 88 92
0.67073 -5.11184 1.26238 117 122 114
0.68729 -5.10459 1.23833 122 130 126
0.66882 -5.11463 1.24135 117 123 117
0.65034 -5.12467 1.24436 112 117 108
0.65073 -5.11858 1.26558 106 112 98
0.62882 -5.12112 1.26900 99 95 85
0.60700 -5.12368 1.27241 78 71 86
0.58861 -5.13372 1.27540 83 88 91
0.57332 -5.15071 1.27804 93 101 103
0.55297 -5.16351 1.26004 93 95 92
-0.33256 -4.52840 1.40782 184 168 146
-0.31883 -4.52239 1.38788 181 171 150
-0.34059 -4.56035 1.40957 156 134 107
-0.36871 -4.52697 1.41337 103 81 46
-0.38328 -4.53754 1.41579 50 50 38
-0.39864 -4.54555 1.41829 31 27 19
-0.41549 -4.55615 1.40339 23 26 20
-0.69009 -5.56954 1.47965 12 12 12
-0.70809 -5.57749 1.48255 22 15 19
-0.73300 -5.65383 1.48762 52 56 50
-0.75189 -5.65778 1.49060 68 69 58
-0.78717 -5.67945 1.49639 76 80 73
-1.16478 -5.68197 1.55468 66 67 56
-1.18385 -5.69397 1.53782 62 62 61
-1.18393 -5.67351 1.55750 65 63 56
-1.20252 -5.66949 1.56031 64 67 79
-1.22255 -5.65005 1.56308 79 90 110
-1.24165 -5.63847 1.56585 97 106 118
-1.25884 -5.64609 1.56862 96 103 112
-1.27784 -5.63339 1.57135 89 94 90
-1.29616 -5.62705 1.57407 63 62 52
-1.31310 -5.63610 1.57683 42 43 45
-1.33015 -5.64382 1.57958 66 71 75
-1.34695 -5.65454 1.58235 71 73 68
-1.36338 -5.67042 1.58514 63 67 57
-1.37897 -5.69871 1.58799 63 70 59
2.52982 -2.64534 0.91941 160 155 185
2.51392 -2.65533 0.90536 87 75 104
2.52503 -2.65943 0.92034 105 93 134
2.53590 -2.68386 0.91896 70 63 99
2.52288 -2.68956 0.93786 93 86 132
2.52138 -2.69175 0.92132 64 51 66
2.51988 -2.69394 0.90479 136 129 108
2.47645 -2.71448 0.92862 145 139 140
2.46044 -2.72456 0.91446 191 190 196
2.46370 -2.72356 0.93073 178 179 178
2.44768 -2.73364 0.91656 183 182 196
2.45590 -2.73602 0.93211 200 204 193
2.44136 -2.74392 0.93448 208 198 200
2.48333 -2.84580 0.92923 133 106 83
2.45749 -2.84615 0.93327 116 86 63
2.25754 -2.85047 0.96452 196 169 133
2.24289 -2.85831 0.96691 139 127 107
2.27058 -2.89797 0.96309 72 68 72
2.25435 -2.90818 0.94873 62 60 65
1.70498 -2.57351 1.04719 167 155 143
1.71658 -2.56843 1.03034 86 78 99
1.47626 -2.77859 1.08550 189 164 159
1.48807 -2.77342 1.06835 191 168 150
1.48933 -2.80946 1.08386 221 213 215
1.48692 -2.82655 1.08445 231 228 230
1.47254 -2.83282 1.08678 229 232 226
1.42343 -2.82646 1.09436 206 209 205
1.39290 -2.81749 1.09901 185 190 186
1.37838 -2.82662 1.08617 200 205 209
1.38496 -2.82953 1.10040 196 205 207
1.37042 -2.83868 1.08754 200 205 212
1.35485 -2.87996 1.10574 190 202 219
1.36675 -2.87475 1.08846 200 206 213
1.34021 -2.88917 1.09279 180 181 195
1.33802 -2.88370 1.10842 177 178 199
1.32804 -2.89412 1.11010 181 189 196
1.32297 -2.90938 1.11109 198 208 219
1.30828 -2.91862 1.09811 208 212 224
1.32925 -3.01955 1.11152 208 221 230
1.34429 -3.01010 1.12481 205 213 220
1.34288 -3.01215 1.10930 209 219 223
1.33067 -3.01750 1.12703 207 214 225
1.33416 -3.04591 1.11109 199 206 217
1.33487 -3.06821 1.11126 173 154 187
1.32639 -3.08117 1.11275 134 106 127
1.31591 -3.09213 1.11453 112 49 85
1.30395 -3.10157 1.11652 94 40 55
1.29429 -3.11347 1.11817 106 58 88
1.28801 -3.12903 1.11935 139 114 113
1.28070 -3.14359 1.12068 164 158 164
1.26034 -3.14416 1.12386 173 188 193
1.25317 -3.15898 1.12517 177 187 192
1.25627 -3.18514 1.12502 140 148 179
1.24550 -3.19627 1.12685 95 95 162
1.23047 -3.20272 1.12927 98 86 161
1.20591 -3.19848 1.13305 136 124 204
1.18661 -3.20002 1.13608 139 149 215
1.17944 -3.21521 1.13740 129 148 211
1.16299 -3.21992 1.14002 124 123 180
1.14107 -3.21831 1.14342 86 93 156
1.12574 -3.22795 1.12986 53 77 160
1.12168 -3.21949 1.14646 76 100 166
1.12325 -3.24501 1.14654 147 168 209
1.11217 -3.25595 1.14841 217 228 244
1.09605 -3.26097 1.15099 246 251 254
1.08355 -3.26644 1.16914 254 254 254
1.08211 -3.26854 1.15326 249 254 254
1.05948 -3.26571 1.15676 242 250 252
1.06093 -3.26361 1.17259 252 254 254
1.04698 -3.27494 1.15883 230 245 251
1.03543 -3.28537 1.16076 219 241 249
1.02442 -3.29649 1.16262 208 236 248
1.01156 -3.30538 1.16474 200 230 245
1.00997 -3.32830 1.16528 192 219 236
0.99899 -3.33969 1.16714 169 198 223
0.97891 -3.33966 1.17027 141 167 204
0.96348 -3.34937 1.15663 103 130 170
0.96459 -3.34683 1.17260 117 139 182
0.94916 -3.35653 1.15895 110 134 167
0.95572 -3.36097 1.17416 103 127 167
0.93316 -3.38327 1.17797 107 135 169
0.93171 -3.38539 1.16198 113 139 171
0.91767 -3.39302 1.16427 113 139 177
0.88270 -3.64216 1.18915 105 139 168
0.89586 -3.63640 1.17004 108 140 178
0.86353 -3.64372 1.19216 97 117 143
0.90675 -3.73505 1.18659 57 58 64
0.89022 -3.74545 1.17197 45 57 57
0.93152 -3.98911 1.18597 65 68 68
0.91416 -4.00003 1.17062 66 74 75
0.92498 -4.01174 1.18728 68 65 71
0.90920 -4.02032 1.18985 62 68 78
0.90757 -4.02270 1.17188 63 69 77
0.90220 -4.17875 1.19297 66 63 78
0.91674 -4.17239 1.17186 60 61 68
0.88670 -4.22401 1.19597 87 93 88
0.86869 -4.23533 1.18004 96 103 106
0.87998 -4.24868 1.19733 90 97 92
0.87195 -4.27142 1.19887 86 90 84
0.86483 -4.29593 1.20030 77 77 81
0.86149 -4.32705 1.20122 67 66 73
0.84320 -4.33855 1.18505 72 69 78
0.84824 -4.37916 1.20395 69 69 66
0.82982 -4.39075 1.18766 66 67 67
0.82708 -4.41862 1.20776 61 69 61
0.82534 -4.42115 1.18866 64 66 68
0.81612 -4.43795 1.20971 75 81 73
0.79944 -4.44731 1.21243 84 85 70
0.80529 -4.49699 1.21216 57 57 50
0.78658 -4.50876 1.19561 51 49 53
0.80324 -4.82686 1.21669 49 56 70
0.80502 -4.87460 1.21703 79 87 75
0.62619 -5.12233 1.24809 112 113 103
0.62428 -5.12511 1.22710 102 110 107
0.60585 -5.13512 1.23011 104 112 105
0.60121 -5.11792 1.25194 108 110 100
0.58093 -5.13068 1.23400 103 110 106
0.58561 -5.13408 1.25458 105 115 97
0.56914 -5.14840 1.25733 100 101 101
0.42544 -5.12943 1.27951 93 102 102
0.44171 -5.12231 1.25588 98 102 96
0.42356 -5.13216 1.25884 102 105 96
-0.33207 -4.53739 1.39013 183 169 140
-0.31832 -4.53137 1.37016 180 170 150
-0.34173 -4.56415 1.39198 153 132 107
-0.37071 -4.52788 1.39604 102 81 51
-0.38241 -4.54801 1.39812 47 49 33
-0.39771 -4.55632 1.40062 30 29 26
-0.41459 -4.56694 1.38569 24 25 21
-0.67766 -5.54513 1.45694 11 11 23
-0.66003 -5.53555 1.45406 12 11 9
-0.69343 -5.56438 1.45964 24 23 36
-0.70828 -5.58879 1.46227 44 46 37
-0.73786 -5.64004 1.46754 71 77 64
-0.75751 -5.65241 1.45016 83 83 76
-0.78997 -5.67662 1.47614 77 83 79
-0.80965 -5.68899 1.45874 91 95 92
-1.20294 -5.68548 1.54069 57 64 75
-1.18750 -5.67873 1.51826 64 65 65
-1.22471 -5.64872 1.54362 74 86 108
-1.24654 -5.60826 1.54651 102 113 131
-1.26485 -5.60272 1.54929 111 119 131
-1.28010 -5.63038 1.55202 96 102 114
-1.29881 -5.64215 1.53548 52 56 82
-1.29849 -5.62292 1.55480 65 70 80
-1.31548 -5.63109 1.55755 65 75 76
-1.33181 -5.64745 1.56031 91 103 108
-1.34731 -5.67521 1.56308 102 113 109
-1.36146 -5.72266 1.56590 112 120 121
-1.37839 -5.73428 1.56869 113 121 117
-1.43138 -5.73461 1.57696 82 81 91
-1.44664 -5.74129 1.59912 82 90 102
-1.44840 -5.74386 1.57973 75 74 91
-1.45016 -5.74643 1.56035 92 89 101
2.57054 -2.65762 0.89645 99 109 157
2.58653 -2.64756 0.91059 232 253 251
2.58503 -2.64975 0.89409 179 207 222
2.56904 -2.65981 0.87995 131 140 162
2.54956 -2.66129 0.89980 76 67 126
2.51639 -2.67423 0.90515 101 102 104
2.50044 -2.68427 0.89104 177 183 164
2.49272 -2.69342 0.90907 158 160 139
2.49422 -2.69124 0.92555 79 65 87
2.48414 -2.70523 0.91054 162 168 161
2.46400 -2.70930 0.91375 174 174 175
2.44271 -2.82059 0.91818 168 153 124
2.45431 -2.84723 0.91660 120 96 58
2.44366 -2.85828 0.91839 126 102 63
2.43514 -2.87089 0.91985 159 131 93
2.41416 -2.87458 0.92320 183 151 109
2.28746 -2.85722 0.94302 197 171 133
2.30360 -2.84707 0.95729 199 164 129
2.30208 -2.84927 0.94064 199 166 132
2.30057 -2.85148 0.92399 199 169 137
2.25305 -2.85045 0.94839 160 140 103
2.27246 -2.88374 0.94564 98 82 67
2.25777 -2.89170 0.94804 67 60 66
2.24158 -2.90189 0.93372 63 61 49
1.68026 -2.55720 1.03596 153 139 144
1.69178 -2.55216 1.01922 76 76 91
1.67440 -2.56970 1.03701 179 162 151
1.66285 -2.57475 1.05378 182 161 147
1.66152 -2.57670 1.03911 181 161 150
1.66018 -2.57864 1.02443 182 162 147
1.49737 -2.80077 1.06715 186 161 155
1.50926 -2.79557 1.04988 192 167 150
1.49600 -2.80277 1.05204 188 163 153
1.49338 -2.83569 1.06811 227 227 224
1.47854 -2.84158 1.07051 231 227 222
1.42985 -2.83568 1.07813 204 201 209
1.41522 -2.84489 1.06519 198 203 209
1.41202 -2.83861 1.08098 195 200 201
1.39741 -2.84780 1.06806 202 205 211
1.36853 -2.89649 1.08839 182 193 210
1.36715 -2.89850 1.07320 176 182 204
1.34792 -2.91690 1.09184 191 199 214
1.33318 -2.92618 1.07880 207 215 224
1.34123 -2.93073 1.09302 202 211 221
1.32663 -2.97823 1.09578 209 223 226
1.34013 -2.97089 1.09358 209 218 229
1.32803 -2.97619 1.11116 209 216 222
1.32937 -3.00198 1.09558 202 208 218
1.33134 -3.02517 1.09549 178 158 200
1.33566 -3.05098 1.09505 144 111 158
1.32933 -3.06605 1.09619 121 51 119
1.32235 -3.08055 1.09743 103 46 60
1.31236 -3.09199 1.09912 119 66 85
1.30272 -3.10386 1.10075 147 123 123
1.28888 -3.11134 1.10301 170 164 175
1.27549 -3.11930 1.10520 186 196 193
1.26610 -3.13155 1.10680 169 173 189
1.27087 -3.15920 1.10631 135 135 169
1.25744 -3.16729 1.10850 129 125 159
1.25024 -3.18223 1.10978 104 104 158
1.22811 -3.18078 1.11326 81 88 158
1.21541 -3.18970 1.11535 85 92 164
1.20207 -3.19791 1.11753 114 106 192
1.17513 -3.19080 1.12172 126 128 197
1.16374 -3.20114 1.12361 111 135 187
1.14276 -3.20056 1.12692 107 113 157
1.12663 -3.20544 1.12951 89 100 161
1.10026 -3.22197 1.13383 69 94 176
1.08581 -3.22878 1.13617 154 170 222
1.08580 -3.25265 1.13640 220 233 249
1.06902 -3.25677 1.13909 231 249 251
1.05221 -3.26080 1.14178 220 243 249
1.04240 -3.27325 1.14345 207 237 248
1.03230 -3.28542 1.14516 201 236 248
1.02125 -3.29648 1.14701 192 225 241
1.01438 -3.31276 1.14824 172 202 228
1.00276 -3.32325 1.15018 146 169 208
0.98734 -3.33295 1.13654 107 130 171
0.99002 -3.33238 1.15228 120 141 186
0.97459 -3.34208 1.13863 111 136 170
0.97964 -3.34452 1.15403 101 129 172
0.96420 -3.35424 1.14037 114 139 172
0.88746 -3.65329 1.17152 106 140 173
0.90065 -3.64752 1.15236 111 142 178
0.88593 -3.65551 1.15476 108 141 175
0.87543 -3.66515 1.17353 103 130 153
0.91064 -3.74516 1.16874 60 73 75
0.93472 -3.99885 1.16736 59 65 67
0.91734 -4.00979 1.15199 63 70 78
0.90749 -4.19241 1.17351 62 64 76
0.92206 -4.18604 1.15235 59 58 62
0.89940 -4.21449 1.17500 73 79 84
0.89336 -4.24012 1.17620 89 99 100
0.87502 -4.28184 1.17949 93 94 95
0.87332 -4.28432 1.16075 97 101 109
0.86822 -4.30695 1.18080 86 83 94
0.86243 -4.33405 1.18197 76 73 85
0.84848 -4.38507 1.18466 73 77 80
0.84675 -4.38759 1.16564 74 83 89
0.79857 -4.45139 1.19317 92 95 76
0.80582 -4.50363 1.19253 63 65 50
0.78709 -4.51542 1.17596 51 52 58
0.80912 -4.93397 1.19611 97 105 117
0.76858 -4.94538 1.20262 104 118 119
0.65583 -5.09369 1.22183 116 121 120
0.67422 -5.08370 1.21883 123 135 130
0.63630 -5.10123 1.22498 107 110 112
0.61601 -5.11399 1.20704 101 106 101
0.56704 -5.15077 1.23638 102 108 105
0.58355 -5.14354 1.21241 108 115 113
0.54672 -5.16355 1.21841 102 106 106
0.54588 -5.15453 1.23976 98 99 100
0.52939 -5.16175 1.26370 88 90 90
0.25982 -4.99833 1.28340 166 156 148
0.24411 -5.00520 1.30621 170 158 149
0.24230 -5.00785 1.28626 169 157 147
-0.33112 -4.54785 1.37234 179 168 138
-0.31735 -4.54182 1.35233 180 169 154
-0.34266 -4.56865 1.37436 146 127 102
-0.36619 -4.55029 1.37790 102 82 53
-0.38164 -4.55819 1.38041 45 47 32
-0.39465 -4.57431 1.38262 29 29 32
-0.41158 -4.58496 1.36764 25 25 25
-0.64651 -5.51735 1.43136 13 14 14
-0.62709 -5.50514 1.44853 15 16 6
-0.62891 -5.50779 1.42849 12 14 6
-0.64468 -5.51470 1.45140 12 14 8
-0.66601 -5.51734 1.43444 21 16 23
-0.68212 -5.53432 1.43714 30 35 30
-0.69702 -5.55789 1.43972 49 58 47
-0.71137 -5.58486 1.44224 66 74 59
-0.73089 -5.59714 1.42498 84 89 86
-1.21032 -5.63283 1.52142 61 65 73
-1.19502 -5.62614 1.49921 72 69 63
-1.21208 -5.63541 1.50199 72 69 70
-1.22884 -5.62727 1.52429 70 77 98
-1.24858 -5.60781 1.52722 98 104 130
-1.26681 -5.60291 1.53005 111 121 136
-1.28349 -5.61460 1.53279 83 85 102
-1.31740 -5.63168 1.53831 85 102 106
-1.33298 -5.65737 1.54101 117 130 133
-1.34878 -5.68157 1.54374 133 143 153
-1.36375 -5.71818 1.54645 136 146 161
-1.38007 -5.73818 1.54921 133 139 155
2.54474 -2.66132 0.88383 89 85 108
2.54325 -2.66350 0.86736 138 122 125
2.52879 -2.67136 0.86972 131 130 146
2.53142 -2.66992 0.88601 116 110 121
2.51546 -2.67996 0.87190 149 154 173
2.46797 -2.68014 0.89620 176 189 171
2.48088 -2.67449 0.87746 168 174 172
2.45858 -2.69130 0.89777 160 164 163
2.43581 -2.69350 0.90141 167 162 172
2.43750 -2.71221 0.90126 179 174 189
2.42306 -2.72006 0.90362 181 180 190
2.42156 -2.72224 0.88717 195 194 194
2.39544 -2.84579 0.90882 150 116 92
2.37916 -2.85270 0.91146 180 145 110
2.35948 -2.85712 0.91463 192 158 115
2.34628 -2.86290 0.93380 195 161 123
2.34323 -2.86734 0.90026 202 168 131
2.34470 -2.86508 0.91703 197 162 125
2.28500 -2.85872 0.92652 170 148 128
2.26707 -2.86420 0.92941 109 84 82
2.27786 -2.89113 0.92786 78 58 54
2.25998 -2.89672 0.93075 74 70 60
1.68512 -2.58112 1.02047 172 161 148
1.67085 -2.59010 1.00785 181 164 150
1.52660 -2.84969 1.04746 196 176 168
1.53865 -2.84441 1.02996 189 164 153
1.50924 -2.85342 1.05025 225 227 217
1.49570 -2.86060 1.05245 222 213 217
1.48088 -2.86992 1.03935 229 234 230
1.45307 -2.86053 1.05926 204 202 210
1.43832 -2.86980 1.04622 198 204 214
1.38726 -2.89776 1.06999 199 205 212
1.40200 -2.88848 1.08303 199 205 212
1.40062 -2.89050 1.06781 199 206 213
1.39923 -2.89251 1.05259 199 206 214
1.36636 -2.91795 1.07345 184 191 202
1.35555 -2.92774 1.07524 201 209 226
1.33223 -2.94575 1.07907 206 218 226
1.32087 -2.95509 1.08094 201 208 220
1.35055 -3.00572 1.07653 178 159 195
1.34084 -3.01706 1.07815 144 111 151
1.33606 -3.03347 1.07902 128 62 115
1.32921 -3.04789 1.08020 113 54 118
1.32331 -3.06337 1.08124 135 76 131
1.31664 -3.07818 1.08240 162 134 126
1.30841 -3.09144 1.08379 182 176 169
1.30090 -3.10554 1.08508 188 200 200
1.28622 -3.11213 1.08746 191 195 207
1.27099 -3.12171 1.07399 170 176 206
1.27148 -3.11863 1.08986 168 177 202
1.27486 -3.14460 1.08948 117 127 173
1.26191 -3.15316 1.09160 95 99 151
1.25503 -3.16834 1.09280 93 100 156
1.23994 -3.17462 1.09524 99 108 157
1.21622 -3.17134 1.09901 120 130 169
1.20667 -3.18368 1.10061 98 107 173
1.19496 -3.19366 1.10254 100 101 176
1.16862 -3.18717 1.10670 136 140 187
1.15292 -3.19257 1.10924 147 162 186
1.13716 -3.19788 1.11179 128 140 165
1.12114 -3.20286 1.11437 87 92 166
1.10863 -3.21187 1.11643 63 80 169
1.09439 -3.21888 1.11874 76 101 189
1.08221 -3.22831 1.12075 143 166 222
1.06696 -3.23791 1.10726 207 239 248
1.07853 -3.24784 1.12146 202 225 245
1.06349 -3.25398 1.12389 212 240 249
1.05013 -3.26212 1.12608 206 238 247
1.03970 -3.27383 1.12782 193 228 241
1.03445 -3.29188 1.12877 175 208 230
1.02626 -3.30650 1.13017 153 180 210
1.01086 -3.31619 1.11655 108 131 169
1.01710 -3.32002 1.13171 124 148 187
1.00167 -3.32972 1.11807 112 136 169
1.00159 -3.32571 1.13422 107 130 176
0.88377 -3.68150 1.15527 110 137 160
0.89702 -3.67569 1.13602 112 142 176
0.91180 -3.75135 1.15124 65 81 92
0.91496 -3.78597 1.15095 46 58 59
0.90140 -3.79190 1.17065 55 61 69
0.89983 -3.79419 1.15342 57 66 73
0.89827 -3.79647 1.13619 64 72 75
0.92943 -3.99564 1.14997 58 61 69
0.91206 -4.00656 1.13462 67 71 73
0.91284 -4.20620 1.15395 64 64 73
0.90306 -4.22563 1.15563 70 73 83
0.89231 -4.24366 1.15746 80 85 98
0.88695 -4.27072 1.15849 93 96 108
0.86881 -4.28213 1.14244 90 95 102
0.87239 -4.31931 1.16112 100 101 113
0.85412 -4.33080 1.14496 80 82 101
0.86441 -4.34281 1.16254 95 87 97
0.85749 -4.36834 1.16380 82 79 79
0.82980 -4.47331 1.16888 59 62 70
0.82805 -4.47586 1.14962 56 61 56
0.81886 -4.49313 1.17075 67 75 68
0.80015 -4.50490 1.15421 49 52 52
0.81482 -4.52550 1.17160 57 58 56
0.79602 -4.53733 1.15497 48 51 48
0.80232 -4.83761 1.17557 62 69 71
0.80822 -4.89348 1.17498 97 112 107
0.78829 -4.90602 1.15736 110 110 110
0.77902 -4.92675 1.17985 112 121 118
0.76229 -4.93933 1.18260 114 126 125
0.74230 -4.95191 1.16492 128 137 133
0.73996 -4.94070 1.18617 121 133 127
0.72000 -4.95325 1.16852 128 136 132
0.66097 -5.06238 1.19954 121 129 127
0.68117 -5.04967 1.21741 122 133 131
0.67927 -5.05243 1.19656 120 129 128
0.67738 -5.05520 1.17571 119 127 123
0.65907 -5.06514 1.17869 122 128 126
0.65131 -5.09087 1.20126 116 116 118
0.63654 -5.10864 1.20373 106 104 110
0.59496 -5.11808 1.21042 107 115 109
0.23316 -4.99191 1.26735 162 154 146
0.21751 -4.99876 1.29008 172 158 149
0.21570 -5.00139 1.27019 170 156 145
-0.33065 -4.55682 1.35455 178 166 139
-0.31685 -4.55078 1.33451 181 169 158
-0.34169 -4.57935 1.35645 143 124 98
-0.36183 -4.57222 1.35962 101 82 52
-0.37895 -4.57477 1.36237 43 42 36
-0.39591 -4.58543 1.34737 27 29 35
-0.39089 -4.59471 1.36440 28 29 36
-0.40789 -4.60541 1.34937 27 26 28
-0.63302 -5.49930 1.40875 17 18 14
-0.61364 -5.48711 1.42589 12 15 6
-0.61546 -5.48976 1.40588 11 13 9
-0.64860 -5.51867 1.41135 25 25 25
-0.66992 -5.50949 1.41470 43 39 47
-0.68492 -5.53197 1.41723 64 68 52
-0.69963 -5.55645 1.41973 76 83 61
-0.71541 -5.57579 1.42237 81 84 74
-0.73489 -5.58805 1.40515 88 92 87
-1.23217 -5.61379 1.50506 73 69 82
-1.21695 -5.60713 1.48296 76 71 67
-1.25126 -5.60060 1.50802 93 94 107
-1.26921 -5.59836 1.51087 109 115 114
-1.28631 -5.60506 1.51364 83 78 80
-1.30268 -5.61998 1.51635 65 71 82
-1.31847 -5.64240 1.51901 102 119 134
-1.33529 -5.65291 1.52176 136 146 158
-1.35397 -5.66466 1.50524 153 155 177
-1.35151 -5.67138 1.52446 145 153 169
-1.36668 -5.70488 1.52709 141 149 168
2.46337 -2.68023 0.88030 162 166 171
2.47626 -2.67459 0.86157 155 156 173
2.46188 -2.68240 0.86392 168 173 185
2.44749 -2.69022 0.86626 183 184 186
2.45024 -2.68889 0.88244 159 157 168
2.43688 -2.69740 0.88462 179 180 186
2.42100 -2.70739 0.87058 195 191 192
2.43304 -2.71238 0.88529 195 194 198
2.41712 -2.72240 0.87121 194 186 191
2.38523 -2.80494 0.89329 187 180 140
2.39833 -2.79921 0.87426 245 238 229
2.40750 -2.83918 0.88980 133 105 71
2.40861 -2.85856 0.88968 143 105 84
2.35733 -2.84026 0.89790 180 146 112
2.33865 -2.84533 0.90093 197 158 117
2.30738 -2.85981 0.90601 183 161 136
2.26110 -2.84436 0.91343 120 104 116
2.26449 -2.86561 0.91295 73 56 82
2.25125 -2.87456 0.91511 90 88 81
2.24016 -2.88514 0.91694 94 102 82
2.22884 -2.89558 0.91879 65 72 61
2.21421 -2.90353 0.92118 57 57 63
1.69619 -2.59285 1.00377 157 150 145
1.70783 -2.58776 0.98687 74 78 94
1.69485 -2.59481 0.98899 130 126 126
1.51936 -2.86595 1.03314 220 214 205
1.50459 -2.87207 1.03554 212 209 214
1.39100 -2.90470 1.05396 195 199 214
1.40299 -2.89945 1.03653 201 208 219
1.38961 -2.90672 1.03872 196 207 221
1.35049 -2.94664 1.06062 195 201 214
1.37475 -2.99139 1.05685 172 154 190
1.35680 -2.99443 1.05975 145 106 157
1.34611 -3.00473 1.06151 128 60 129
1.33643 -3.01607 1.06311 116 59 106
1.33213 -3.03298 1.06385 142 91 121
1.32640 -3.04853 1.06482 177 148 170
1.33236 -3.07628 1.06395 208 193 204
1.32845 -3.09403 1.06463 230 229 214
1.31214 -3.09892 1.06728 215 207 192
1.28830 -3.09584 1.07111 136 158 159
1.27956 -3.10865 1.07256 156 165 198
1.25182 -3.12345 1.07708 140 158 194
1.24675 -3.14038 1.07795 122 130 176
1.24498 -3.16105 1.07830 91 97 160
1.22923 -3.16653 1.08086 97 97 149
1.20617 -3.16389 1.08457 140 154 177
1.19732 -3.17695 1.08604 106 111 167
1.18147 -3.18223 1.08861 84 85 148
1.16041 -3.18161 1.09201 111 112 172
1.14042 -3.18208 1.09523 139 150 191
1.13037 -3.19383 1.09689 112 121 180
1.11668 -3.20145 1.09912 93 91 184
1.09936 -3.20485 1.10193 111 126 199
1.09090 -3.21856 1.10333 153 180 225
1.08419 -3.23441 1.10447 193 222 244
1.06569 -3.26042 1.10753 203 232 242
1.04830 -3.26374 1.11035 186 212 230
1.03853 -3.27624 1.11196 159 183 208
1.02320 -3.28588 1.09841 112 135 170
1.02961 -3.28985 1.11344 132 154 191
1.01426 -3.29951 1.09986 118 139 174
1.02245 -3.30570 1.11464 114 134 178
0.94361 -3.54256 1.12809 117 142 173
0.95960 -3.53251 1.14223 118 143 175
0.95809 -3.53469 1.12573 120 145 174
0.94511 -3.54038 1.14459 118 144 177
0.93062 -3.54825 1.14695 117 144 180
0.93166 -3.55389 1.13005 115 139 173
0.91866 -3.55958 1.14893 117 143 181
0.92062 -3.56651 1.13187 108 134 170
0.90761 -3.57221 1.15078 115 141 178
0.91722 -3.58975 1.13250 102 126 169
0.90415 -3.59547 1.15147 113 142 176
0.91116 -3.60953 1.13353 111 141 179
0.89805 -3.61527 1.15257 111 142 177
0.89654 -3.61748 1.13592 114 143 176
0.88845 -3.69264 1.13745 114 141 167
0.90173 -3.68682 1.11816 115 143 178
0.89441 -3.73074 1.13661 76 96 109
0.92179 -3.80049 1.13241 60 61 66
0.90505 -3.81102 1.11760 59 58 60
0.93203 -4.00447 1.13139 65 67 69
0.91464 -4.01541 1.11601 63 70 68
0.93218 -4.20737 1.13199 60 62 63
0.95020 -4.19604 1.14792 57 58 53
0.94851 -4.19850 1.12933 57 61 57
0.94682 -4.20097 1.11074 61 65 69
0.92056 -4.22382 1.13392 67 68 72
0.90823 -4.23925 1.13595 73 77 75
0.89582 -4.25465 1.13800 78 84 84
0.87772 -4.26604 1.12199 88 87 94
0.89127 -4.28315 1.13882 86 90 98
0.87309 -4.29459 1.12275 86 90 93
0.87946 -4.33656 1.14089 86 90 105
0.86139 -4.38048 1.14394 85 91 85
0.85174 -4.40169 1.14557 75 76 81
0.83326 -4.41331 1.12922 83 77 70
0.85061 -4.43790 1.14586 76 71 72
0.83202 -4.44960 1.12942 73 72 75
0.84517 -4.46702 1.14683 65 69 76
0.82910 -4.51704 1.14958 56 61 62
0.83239 -4.81356 1.14996 58 66 63
0.85025 -4.80385 1.14705 56 61 62
0.84840 -4.80655 1.12670 59 62 74
0.80574 -4.85046 1.15437 82 87 80
0.79951 -4.88293 1.15548 104 117 110
0.76336 -4.90224 1.16137 117 118 123
0.74459 -4.91050 1.16442 124 132 133
0.72472 -4.92300 1.14685 130 138 140
0.68828 -4.93513 1.17358 125 131 131
0.67216 -4.94219 1.19700 125 133 133
0.67590 -4.95650 1.17564 122 131 130
0.65974 -4.96357 1.19911 121 131 131
0.65787 -4.96629 1.17858 119 130 124
0.65600 -4.96901 1.15805 118 124 124
0.64149 -5.07663 1.18157 122 126 118
0.65790 -5.06945 1.15773 125 130 130
0.63959 -5.07940 1.16071 122 127 124
0.62128 -5.08935 1.16369 116 122 120
0.62764 -5.09627 1.18386 115 119 110
0.60740 -5.10900 1.16596 109 117 118
0.60704 -5.10129 1.18720 111 113 105
0.58681 -5.11402 1.16931 120 127 128
0.58699 -5.10744 1.19045 118 125 116
0.55550 -5.13892 1.19563 112 114 115
0.53524 -5.15166 1.17771 120 117 113
0.26862 -4.98142 1.24141 89 97 99
0.24933 -4.99355 1.22435 103 106 104
0.24748 -4.98171 1.24482 107 109 111
0.21101 -4.99663 1.25075 158 151 144
0.19538 -5.00347 1.27345 173 157 143
0.19358 -5.00611 1.25359 169 158 141
-0.32587 -4.57968 1.33606 178 165 140
-0.31201 -4.57361 1.31593 181 169 157
-0.33953 -4.59394 1.33830 143 122 96
-0.35738 -4.59451 1.34118 99 84 52
-0.37528 -4.59470 1.34407 39 41 36
-0.39230 -4.60541 1.32902 27 30 30
-0.42731 -4.72611 1.35287 29 30 20
-0.40997 -4.71521 1.36820 25 28 20
-0.41160 -4.71758 1.35031 28 28 22
-0.42568 -4.72374 1.37076 22 27 17
-0.44139 -4.73228 1.37333 25 24 16
-0.44302 -4.73465 1.35543 26 27 13
-0.60096 -5.47701 1.38320 9 11 17
-0.58160 -5.46483 1.40032 12 14 21
-0.58342 -5.46747 1.38034 10 10 13
-0.59914 -5.47436 1.40318 9 12 14
-0.61885 -5.48487 1.38611 18 17 27
-0.63733 -5.48984 1.38911 34 34 39
-0.65353 -5.50592 1.39177 53 57 52
-0.66907 -5.52559 1.39434 68 72 68
-0.68846 -5.53779 1.37718 84 93 82
-0.68662 -5.53526 1.39720 82 90 77
-0.70602 -5.54746 1.38004 95 98 89
-0.70197 -5.55641 1.39974 90 92 80
-0.72141 -5.56864 1.38255 94 97 94
-0.71797 -5.57456 1.40238 90 90 84
-0.73744 -5.58681 1.38516 89 93 92
-1.23433 -5.61218 1.48578 72 64 71
-1.21913 -5.60553 1.46370 70 69 66
-1.23609 -5.61474 1.46646 70 65 69
-1.25212 -5.61261 1.48865 83 84 84
-1.27030 -5.60812 1.49157 87 92 100
-1.28836 -5.60413 1.49447 76 79 104
-1.30417 -5.62555 1.49708 95 111 118
-1.31968 -5.65166 1.49967 116 132 153
-1.33671 -5.65972 1.50244 146 156 180
-1.36803 -5.71314 1.50766 147 151 172
-1.38684 -5.72497 1.49103 144 149 172
-1.39953 -5.77026 1.51291 135 141 165
-1.41846 -5.78217 1.49617 140 148 173
-1.57023 -5.88525 1.54080 81 87 97
-1.58566 -5.89200 1.56321 89 93 100
-1.58923 -5.89720 1.52400 78 82 86
2.49695 -2.63652 0.85820 163 137 142
2.48116 -2.64645 0.84424 155 146 164
2.49196 -2.65040 0.85902 152 147 166
2.47762 -2.65819 0.86135 160 159 183
2.42756 -2.69428 0.86951 192 190 191
2.44043 -2.68865 0.85081 193 192 194
2.42607 -2.69645 0.85315 193 191 189
2.41170 -2.70426 0.85549 194 189 184
2.37464 -2.81904 0.87812 166 133 129
2.38533 -2.84518 0.87638 149 109 105
2.34305 -2.83326 0.88327 183 155 116
2.32691 -2.84341 0.86900 204 174 130
2.32986 -2.84225 0.88542 202 165 122
2.31478 -2.84987 0.88788 200 170 133
2.29225 -2.85200 0.89155 145 131 108
2.27614 -2.86214 0.87730 69 60 64
2.28565 -2.86586 0.89262 78 74 79
2.27350 -2.87565 0.89461 77 75 88
2.25734 -2.88582 0.88032 105 103 106
2.24867 -2.87596 0.89865 103 106 102
2.23309 -2.88316 0.90119 97 103 98
2.22586 -2.89668 0.90237 67 72 72
2.22221 -2.91302 0.90296 68 61 72
2.20907 -2.91877 0.92205 71 66 81
2.20755 -2.92098 0.90535 81 67 85
1.54827 -2.87593 1.01285 185 161 153
1.56040 -2.87061 0.99523 186 165 147
1.54686 -2.87797 0.99743 184 161 150
1.52425 -2.87372 1.01677 210 196 188
1.50997 -2.88033 1.01910 209 208 211
1.47147 -2.88427 1.02537 210 216 226
1.39250 -2.92975 1.03824 195 206 218
1.38643 -2.94426 1.03923 191 194 215
1.41027 -2.98820 1.03534 168 147 195
1.37726 -2.97649 1.04072 138 99 151
1.36755 -2.98768 1.04230 122 59 127
1.35450 -2.99559 1.04443 114 57 122
1.34486 -3.00694 1.04600 144 96 138
1.33461 -3.01772 1.04767 180 152 165
1.34155 -3.04609 1.04653 212 202 204
1.33206 -3.05787 1.04808 239 237 232
1.31692 -3.06740 1.03469 247 247 248
1.32626 -3.07352 1.04902 242 245 241
1.31108 -3.08307 1.03560 251 249 248
1.31941 -3.08819 1.05014 248 247 240
1.30865 -3.09885 1.05189 235 215 202
1.27970 -3.09034 1.05661 113 147 148
1.27098 -3.10313 1.05803 121 151 181
1.26502 -3.11894 1.05900 164 179 215
1.24614 -3.12094 1.06208 138 147 195
1.23859 -3.13516 1.06331 105 95 168
1.23730 -3.15632 1.06352 81 81 160
1.20591 -3.14455 1.06864 122 126 173
1.16025 -3.11671 1.07608 162 180 199
1.18239 -3.16400 1.07247 108 109 161
1.16415 -3.16648 1.07544 80 87 149
1.14802 -3.17129 1.07807 106 108 174
1.13369 -3.17812 1.08041 125 138 198
1.12162 -3.18751 1.08237 121 134 201
1.10727 -3.19432 1.08471 144 157 218
1.09764 -3.20659 1.08628 187 209 239
1.09282 -3.22457 1.08706 208 237 248
1.08434 -3.23837 1.08844 209 237 248
1.07750 -3.25421 1.08956 194 218 236
1.06130 -3.25899 1.09220 168 190 213
1.04600 -3.26862 1.07866 114 134 174
1.04756 -3.26668 1.09444 139 156 193
1.03225 -3.27630 1.08090 117 141 174
1.03621 -3.27727 1.09629 117 136 176
0.96362 -3.51907 1.10809 123 146 174
0.97956 -3.50904 1.12219 123 148 176
0.97807 -3.51122 1.10573 127 151 178
0.96512 -3.51689 1.12454 122 147 176
0.95431 -3.53381 1.10961 110 133 165
0.94653 -3.55074 1.11087 100 117 153
0.93726 -3.56575 1.11238 92 104 145
0.93032 -3.58407 1.11351 71 87 132
0.91881 -3.59624 1.11539 60 76 134
0.91186 -3.61482 1.11652 94 123 168
0.90508 -3.63381 1.11762 115 146 178
0.89193 -3.63957 1.13673 115 143 175
0.89041 -3.64178 1.12001 117 144 174
0.88888 -3.64400 1.10329 123 147 175
0.89515 -3.70670 1.11923 115 142 170
0.90848 -3.70087 1.09987 120 145 179
0.87977 -3.71404 1.12173 92 111 118
0.92673 -3.81226 1.11406 60 56 56
0.90994 -3.82282 1.09922 58 62 71
0.96287 -4.02363 1.10814 62 65 74
0.96123 -4.02602 1.09009 69 76 84
0.94537 -4.03463 1.09267 67 72 73
0.93628 -4.21911 1.11245 68 70 72
0.92459 -4.23553 1.11436 77 76 83
0.90650 -4.24691 1.09836 93 99 97
0.91427 -4.25432 1.11604 87 89 90
0.90173 -4.26963 1.11808 92 93 91
0.88086 -4.34433 1.12147 91 90 95
0.87089 -4.36463 1.12309 98 98 104
0.86058 -4.38457 1.12477 95 97 98
0.84214 -4.39617 1.10847 71 71 65
0.86176 -4.42448 1.12457 79 76 70
0.84320 -4.43616 1.10816 75 74 63
0.83705 -4.53694 1.12859 60 62 66
0.83472 -4.57278 1.12896 49 55 57
0.81753 -4.58212 1.13177 47 52 58
0.81574 -4.58471 1.11218 45 49 59
0.82245 -4.80095 1.13093 63 66 77
0.83842 -4.79396 1.10775 65 67 77
0.80706 -4.81525 1.13344 66 74 80
0.80777 -4.86066 1.13332 104 114 91
0.78907 -4.86897 1.13637 117 119 108
0.76926 -4.88143 1.11885 120 123 133
0.77209 -4.88063 1.13913 112 113 117
0.75228 -4.89310 1.12161 120 131 143
0.75462 -4.89134 1.14198 117 125 134
0.73325 -4.89429 1.14546 126 136 140
0.69670 -4.91241 1.15142 120 125 133
0.67691 -4.92486 1.13392 103 113 115
0.68040 -4.92549 1.15408 109 114 123
0.66436 -4.93919 1.15669 112 118 123
0.64454 -4.95165 1.13917 118 126 122
0.23512 -5.01137 1.22667 104 112 115
0.25081 -5.00450 1.20387 110 112 107
0.23330 -5.01402 1.20673 106 110 103
0.21124 -5.00451 1.23056 125 131 136
0.18906 -5.00170 1.23418 148 150 139
0.17346 -5.00853 1.25685 173 158 146
0.16354 -4.98985 1.23834 164 159 149
0.14800 -4.99666 1.26091 174 159 150
0.14620 -4.99927 1.24117 172 161 150
-0.32127 -4.60203 1.31744 178 164 144
-0.30735 -4.59594 1.29723 182 170 159
-0.33638 -4.61182 1.31990 141 119 100
-0.35274 -4.61746 1.32257 95 82 54
-0.37091 -4.61701 1.32553 38 40 33
-0.38800 -4.62777 1.31042 26 29 24
-0.41352 -4.71892 1.33246 41 43 30
-0.39618 -4.70801 1.34779 27 27 26
-0.39781 -4.71038 1.32990 26 25 30
-0.42517 -4.74196 1.33436 48 54 23
-0.44059 -4.75173 1.33687 27 30 17
-0.45471 -4.75791 1.35739 24 26 27
-0.45634 -4.76029 1.33944 23 28 26
-0.45798 -4.76267 1.32149 24 25 26
-0.58950 -5.45029 1.36106 15 13 19
-0.57021 -5.43816 1.37812 15 14 11
-0.57202 -5.44079 1.35821 12 13 12
-0.60487 -5.46978 1.36356 22 23 34
-0.62062 -5.48778 1.36613 37 42 46
-0.63685 -5.50370 1.36877 57 61 65
-0.65623 -5.51589 1.35163 87 89 85
-0.65254 -5.52253 1.37133 80 83 80
-0.67195 -5.53474 1.35416 87 88 73
-0.66900 -5.53778 1.37401 84 87 75
-0.68843 -5.55000 1.35683 86 90 79
-1.25534 -5.59959 1.46960 70 71 76
-1.24020 -5.59296 1.44761 71 68 69
-1.27273 -5.60329 1.47244 56 61 74
-1.29060 -5.60109 1.47535 52 59 86
-1.30624 -5.62438 1.47790 82 96 116
-1.32238 -5.64261 1.48053 103 119 145
-1.33932 -5.65134 1.48329 137 157 186
-1.35490 -5.67818 1.48582 148 160 188
-1.47107 -5.78898 1.50475 136 141 166
-1.45575 -5.78227 1.48250 138 145 178
-1.47284 -5.79156 1.48529 137 144 170
-1.48993 -5.80084 1.48807 136 142 171
-1.52100 -5.84611 1.51288 113 112 109
-1.53905 -5.83503 1.51583 84 75 71
-1.57276 -5.86769 1.52132 68 76 90
2.47129 -2.60598 0.84600 201 197 146
2.46982 -2.60812 0.82985 155 141 94
2.48051 -2.62893 0.84441 159 136 132
2.46477 -2.63883 0.83049 137 129 141
2.46550 -2.65334 0.84680 162 158 180
2.44982 -2.66020 0.84936 170 168 182
2.44075 -2.67146 0.85081 186 187 195
2.42495 -2.68140 0.83684 198 193 190
2.41785 -2.74388 0.85435 201 193 192
2.43233 -2.73601 0.85199 197 188 181
2.41635 -2.74607 0.83785 225 213 198
2.40186 -2.75394 0.84021 233 227 221
2.37390 -2.80346 0.86139 242 241 231
2.38697 -2.79773 0.84240 241 236 233
2.36293 -2.81397 0.86316 199 180 187
2.34021 -2.81605 0.86690 175 145 139
2.32413 -2.82617 0.85268 206 177 134
2.32136 -2.82087 0.86999 195 167 125
2.29010 -2.83511 0.87509 174 149 128
2.28849 -2.85255 0.87530 102 82 87
2.27265 -2.87836 0.87782 91 93 93
2.23817 -2.89034 0.88346 91 90 90
2.22157 -2.89678 0.88618 68 63 61
2.20935 -2.90655 0.88816 91 85 88
2.22261 -2.93596 0.88588 130 123 134
2.20941 -2.94174 0.90505 85 89 89
2.20788 -2.94396 0.88828 104 101 112
1.53567 -2.88747 0.99924 196 173 169
1.54782 -2.88216 0.98160 181 160 144
1.47377 -2.88974 1.00944 218 226 229
1.45830 -2.89517 1.01197 200 203 208
1.44624 -2.90045 1.02948 202 206 216
1.44485 -2.90248 1.01416 200 206 216
1.44345 -2.90451 0.99884 201 208 217
1.41313 -2.91249 1.01935 199 211 222
1.42796 -2.90317 1.03246 202 206 216
1.42656 -2.90520 1.01717 201 211 219
1.41027 -2.92997 1.01977 185 187 212
1.42174 -2.96148 1.01777 165 144 191
1.40126 -2.96213 1.02114 136 93 152
1.38913 -2.97088 1.02311 119 56 131
1.37750 -2.98017 1.02500 110 55 119
1.36513 -2.98873 1.02701 136 93 132
1.36254 -3.00711 1.02737 175 155 177
1.35291 -3.01853 1.02892 209 203 206
1.34509 -3.03185 1.03017 238 235 230
1.33002 -3.04133 1.01683 249 249 248
1.33441 -3.04232 1.03189 245 247 242
1.31932 -3.05181 1.01854 252 252 253
1.32553 -3.05469 1.03331 250 252 251
1.31042 -3.06420 1.01995 254 253 253
1.28931 -3.10408 1.03912 196 211 212
1.26227 -3.09745 1.04359 122 148 178
1.25031 -3.10679 1.04553 121 141 189
1.23309 -3.11048 1.04836 109 118 182
1.21672 -3.11505 1.05104 110 112 182
1.19765 -3.11661 1.05418 128 149 200
1.16957 -3.10817 1.05884 176 201 224
1.15669 -3.11637 1.06093 180 185 212
1.16358 -3.14667 1.05969 125 114 174
1.14931 -3.15348 1.06202 111 121 187
1.13336 -3.15838 1.06463 140 155 205
1.11330 -3.15857 1.06794 161 181 220
1.09821 -3.16805 1.05460 213 242 249
1.10536 -3.17256 1.06920 183 211 235
1.09677 -3.18590 1.07057 205 237 247
1.09950 -3.21250 1.07003 210 238 251
1.08519 -3.21939 1.07237 199 221 242
1.07585 -3.23214 1.07386 177 200 224
1.06003 -3.23726 1.07645 148 163 201
1.04480 -3.24684 1.06298 119 140 171
1.04683 -3.24547 1.07860 124 138 181
0.97760 -3.48791 1.08920 129 151 176
0.99346 -3.47793 1.10323 128 151 178
0.99197 -3.48010 1.08685 133 154 180
0.97909 -3.48574 1.10557 128 151 178
0.97258 -3.50811 1.08996 116 139 174
0.96640 -3.52696 1.09091 101 113 157
0.96018 -3.54591 1.09187 80 85 134
0.95558 -3.56721 1.09256 65 68 112
0.93951 -3.57732 1.07834 48 51 93
0.94615 -3.58213 1.09406 54 54 105
0.93496 -3.59473 1.09586 41 43 97
0.92201 -3.60496 1.09796 27 36 97
0.90124 -3.60433 1.10139 65 84 127
0.90300 -3.72245 1.10070 114 143 179
0.91637 -3.71660 1.08128 123 148 182
0.90291 -3.75204 1.10062 105 127 146
0.91607 -3.80130 1.09828 62 60 69
0.95179 -4.21404 1.09101 58 66 80
0.96985 -4.20267 1.10698 62 65 72
0.96815 -4.20514 1.08834 59 63 74
0.96646 -4.20761 1.06970 58 64 77
0.94546 -4.23902 1.09197 77 85 92
0.93246 -4.25349 1.09406 93 97 97
0.90645 -4.28267 1.09825 95 101 99
0.89536 -4.30056 1.10002 93 100 97
0.89061 -4.32920 1.10070 83 88 88
0.90301 -4.38703 1.09847 73 67 79
0.88984 -4.40227 1.10059 66 70 84
0.88048 -4.42412 1.10206 71 77 88
0.86189 -4.43581 1.08562 69 70 68
0.85652 -4.53756 1.10562 78 79 79
0.87186 -4.53084 1.08333 70 76 77
0.85474 -4.54014 1.08612 76 75 81
0.84885 -4.56374 1.10680 67 65 80
0.84648 -4.59975 1.10707 56 55 64
0.82740 -4.61174 1.09020 45 54 44
0.81311 -4.78943 1.11193 72 72 84
0.79896 -4.80597 1.11421 79 86 97
0.77977 -4.81293 1.11735 118 136 124
0.76777 -4.83383 1.11925 129 134 127
0.74811 -4.84620 1.10187 118 123 129
0.72601 -4.88623 1.12596 125 137 138
0.74205 -4.87921 1.10266 120 126 136
0.72415 -4.88893 1.10558 121 124 130
0.70894 -4.89763 1.12873 130 142 141
0.68918 -4.91006 1.11126 126 133 116
0.69109 -4.90748 1.13164 120 130 129
0.66049 -4.93773 1.13658 106 117 117
0.65863 -4.94044 1.11615 107 110 108
0.61421 -5.08087 1.14373 117 124 113
0.63059 -5.07371 1.11994 125 132 129
0.61232 -5.08363 1.12292 127 130 119
0.59772 -5.09471 1.14640 109 113 104
0.57754 -5.10740 1.12856 124 125 123
0.57908 -5.10386 1.14944 122 130 122
0.55890 -5.11655 1.13160 119 124 126
0.21514 -5.02185 1.20969 96 104 104
0.19664 -5.02874 1.21272 94 107 104
0.16641 -5.00475 1.21778 123 136 132
0.13875 -4.98685 1.22240 156 156 149
0.12325 -4.99364 1.24491 174 160 144
0.12146 -4.99624 1.22522 171 160 148
-0.31710 -4.62305 1.29875 178 164 151
-0.30313 -4.61694 1.27846 182 172 159
-0.33220 -4.63309 1.30120 138 117 108
-0.34889 -4.63789 1.30394 94 81 56
-0.36484 -4.64512 1.30654 37 37 26
-0.38202 -4.65593 1.29134 25 29 27
-0.41050 -4.73769 1.31375 57 69 30
-0.42626 -4.74625 1.31632 62 74 27
-0.44366 -4.75720 1.30094 31 24 20
-0.44045 -4.76053 1.31861 32 29 19
-0.45786 -4.77149 1.30321 25 23 30
-0.53188 -5.36906 1.33164 13 13 18
-0.51274 -5.35702 1.34856 22 19 36
-0.51634 -5.36226 1.30906 14 9 21
-0.53367 -5.37168 1.31189 10 9 17
-0.54742 -5.37586 1.35421 16 15 11
-0.54922 -5.37848 1.33446 11 12 9
-0.55956 -5.41944 1.33603 14 13 11
-0.55776 -5.41680 1.35589 13 14 8
-0.57739 -5.42711 1.33894 19 17 22
-0.59350 -5.44274 1.34154 33 27 42
-0.60755 -5.46834 1.34377 51 54 50
-0.61905 -5.50669 1.34554 64 68 57
-0.63797 -5.50976 1.34865 75 79 74
-0.65736 -5.52196 1.33150 87 92 81
-1.25764 -5.59622 1.45048 66 65 63
-1.24252 -5.58960 1.42851 74 72 67
-1.27520 -5.59782 1.45336 52 52 42
-1.29276 -5.59883 1.45626 44 48 48
-1.30907 -5.61408 1.45889 48 61 83
-1.32572 -5.62569 1.46160 60 74 103
-1.34046 -5.66171 1.46391 95 105 131
-1.35915 -5.67346 1.44738 76 79 106
-1.35600 -5.68945 1.46637 113 120 154
-1.37474 -5.70123 1.44980 80 88 119
-1.37150 -5.71913 1.46883 125 136 168
-1.50708 -5.80887 1.49087 133 140 164
-1.52594 -5.82074 1.47419 129 139 163
-1.52457 -5.80950 1.49375 131 135 152
2.49589 -2.57452 0.82573 246 253 190
2.51148 -2.56471 0.83952 254 251 162
2.51002 -2.56684 0.82343 254 254 177
2.50855 -2.56897 0.80734 233 231 155
2.48165 -2.58212 0.82805 244 241 167
2.48807 -2.60304 0.82684 212 200 120
2.44501 -2.60889 0.83398 135 125 124
2.42940 -2.61871 0.82017 117 108 108
2.43728 -2.63784 0.83507 145 137 157
2.43186 -2.65140 0.83589 167 163 183
2.43254 -2.66913 0.83566 189 184 193
2.41846 -2.83841 0.83689 227 208 204
2.34775 -2.80639 0.84888 203 174 169
2.33169 -2.81649 0.83468 204 170 128
2.32557 -2.80880 0.85255 196 165 138
2.28161 -2.81371 0.85984 187 164 138
2.28169 -2.83224 0.85971 119 105 108
2.26566 -2.84232 0.84554 58 55 58
2.30356 -2.86699 0.85584 65 54 68
2.29236 -2.87751 0.85763 75 70 72
2.27703 -2.88498 0.86014 95 94 93
2.24122 -2.89600 0.86603 84 83 81
2.22381 -2.90184 0.86889 61 56 53
2.20958 -2.91009 0.87121 73 75 85
2.23633 -2.94994 0.86649 139 141 153
2.20777 -2.94728 0.87126 128 124 122
2.19456 -2.95306 0.89044 85 83 80
1.78973 -2.69369 0.94256 133 122 120
1.80173 -2.68844 0.92512 79 79 77
1.78834 -2.69571 0.92731 98 90 90
1.53114 -2.88665 0.98435 180 156 158
1.54327 -2.88134 0.96673 177 158 140
1.51096 -2.88789 0.98771 210 206 196
1.49023 -2.88854 0.99115 210 206 215
1.47536 -2.89790 0.97800 224 221 217
1.45646 -2.89678 0.99672 203 207 213
1.42196 -2.90417 1.00242 187 195 210
1.44773 -2.94900 0.99783 162 142 187
1.43180 -2.95411 1.00046 130 87 148
1.41870 -2.96194 1.00259 113 48 126
1.39876 -2.96310 1.00590 105 49 117
1.38779 -2.97300 1.00766 136 96 144
1.38159 -2.98765 1.00860 167 148 174
1.37259 -2.99961 1.01002 202 201 199
1.35881 -3.00683 1.01226 232 235 233
1.34932 -3.01839 1.01377 239 243 242
1.33428 -3.02785 1.00047 251 251 252
1.34086 -3.03105 1.01509 249 249 249
1.32580 -3.04052 1.00177 254 253 253
1.27426 -3.09174 1.02579 254 247 245
1.28655 -3.08635 1.00793 254 254 254
1.27284 -3.09381 1.01016 253 254 253
1.25479 -3.09307 1.02902 187 189 207
1.24092 -3.10031 1.03128 114 118 176
1.22377 -3.10402 1.03411 102 115 183
1.20868 -3.11351 1.02077 93 93 179
1.20028 -3.10077 1.03805 134 144 206
1.18442 -3.10574 1.04066 153 164 208
1.17155 -3.11397 1.04275 157 168 211
1.15959 -3.12322 1.04468 140 143 207
1.14362 -3.12802 1.04730 140 145 211
1.12969 -3.13506 1.04958 157 177 226
1.11465 -3.14452 1.03629 218 246 250
1.12104 -3.14810 1.05093 184 212 240
1.11295 -3.16185 1.05219 207 237 247
1.09350 -3.18584 1.05527 200 226 241
1.08088 -3.19454 1.05732 179 203 229
1.06823 -3.20325 1.05937 155 170 210
1.05309 -3.21277 1.04598 123 143 174
1.06232 -3.21992 1.06024 130 145 185
1.05464 -3.23462 1.06142 116 136 172
0.99421 -3.46064 1.07000 136 154 180
1.01002 -3.45070 1.08398 133 153 180
1.00853 -3.45286 1.06767 140 157 181
0.99570 -3.45848 1.08631 134 155 182
0.98355 -3.47321 1.07169 125 145 169
0.98052 -3.49589 1.07205 110 127 152
0.98474 -3.52840 1.07113 80 93 140
0.96998 -3.53592 1.07354 57 60 117
0.95398 -3.54599 1.05939 41 42 81
0.96124 -3.55154 1.07489 46 42 92
0.94521 -3.56162 1.06072 48 52 89
0.95355 -3.56870 1.07606 51 48 93
0.93747 -3.57881 1.06185 47 51 89
