ply
format ascii 1.0
element face 0
property list uchar int vertex_indices
element vertex 1330
property float x
property float y
property float z
property uchar diffuse_red
property uchar diffuse_green
property uchar diffuse_blue
end_header
-3.47501 -4.06800 1.22093 143 130 102
-3.49046 -4.06334 1.23553 137 117 92
-3.51849 -4.03625 1.23376 120 97 75
-3.54100 -4.02036 1.23317 78 55 52
-3.55489 -4.02731 1.22132 110 118 97
-3.54957 -4.03429 1.23577 110 117 97
-3.56348 -4.04124 1.22390 129 125 107
-3.61811 -4.15083 1.25729 124 126 104
-3.60396 -4.14375 1.26938 129 127 107
-3.60602 -4.14392 1.25543 127 124 105
-3.61605 -4.15067 1.27125 129 126 110
-3.62815 -4.15758 1.27312 126 126 102
-3.63278 -4.18743 1.26355 115 124 96
-3.64288 -4.19423 1.27947 126 124 93
-3.63851 -4.20995 1.26715 119 123 99
-3.64865 -4.21677 1.28314 126 122 93
-3.65074 -4.21694 1.26904 124 122 104
-3.66416 -4.25836 1.27589 118 118 94
-3.64975 -4.25115 1.28819 125 123 94
-3.65185 -4.25132 1.27398 124 123 100
-3.65394 -4.25148 1.25977 123 122 101
-3.66207 -4.25819 1.29010 124 123 92
-3.67785 -4.26198 1.27740 110 108 91
-3.69225 -4.26918 1.26511 91 89 83
-3.68442 -4.28358 1.28094 102 101 86
-3.69888 -4.29081 1.26860 87 84 72
-3.70279 -4.31416 1.28662 83 84 76
-3.71110 -4.33200 1.28975 82 82 79
-3.72143 -4.33895 1.30603 96 95 86
-3.71850 -4.35250 1.29319 91 91 90
-3.72886 -4.35948 1.30953 95 94 82
-3.73099 -4.35965 1.29512 107 107 91
-3.73312 -4.35981 1.28071 114 117 91
-4.22357 -5.97824 1.56024 135 129 103
-4.20468 -5.96880 1.57636 139 131 112
-4.20743 -5.96902 1.55775 135 132 111
-4.23117 -6.03879 1.56936 109 108 86
-4.24512 -6.06246 1.57373 115 124 91
-4.26697 -6.15020 1.58775 96 91 80
-4.28633 -6.15988 1.57122 104 100 86
-4.27838 -6.19311 1.59465 95 90 69
-4.29786 -6.20284 1.57802 88 92 75
-4.33349 -6.31264 1.61561 90 90 92
-4.34768 -6.34189 1.62079 125 134 139
-4.35886 -6.39447 1.62904 153 169 185
-4.42023 -6.49015 1.64709 185 206 227
-4.40593 -6.48053 1.62455 173 196 211
-4.42316 -6.49039 1.62721 177 190 211
-4.43453 -6.49977 1.66963 198 208 226
-4.43746 -6.50000 1.64975 190 209 226
1.00015 -4.29579 0.91520 68 63 66
1.02321 -4.28427 0.93489 63 54 51
1.01650 -4.28479 0.88942 67 62 57
1.00352 -4.32108 0.91844 84 82 88
0.98037 -4.33266 0.89868 83 87 75
0.98305 -4.33197 0.92149 84 83 76
0.96657 -4.36886 0.92783 81 79 82
0.96318 -4.36913 0.90493 85 88 84
0.93891 -4.39912 0.93409 73 64 69
0.93552 -4.39939 0.91115 85 90 81
0.91563 -4.41076 0.91422 79 85 85
0.91168 -4.42983 0.94039 77 81 80
0.88835 -4.44149 0.92047 86 85 79
0.89595 -4.46814 0.94687 82 86 92
0.87252 -4.47984 0.92687 64 63 65
0.88327 -4.48432 0.95006 70 72 75
0.85982 -4.49605 0.93004 65 72 78
0.87035 -4.50041 0.95326 68 68 76
0.84687 -4.51215 0.93322 60 61 69
0.84615 -4.50917 0.95630 60 57 69
0.82268 -4.52090 0.93626 62 64 56
0.82010 -4.51667 0.95930 55 65 64
0.81257 -4.53641 0.96259 73 86 77
0.79964 -4.55265 0.96581 71 72 81
0.79062 -4.57158 0.96911 68 71 81
0.76706 -4.58336 0.94899 66 59 69
0.78146 -4.59050 0.97241 71 71 76
0.77384 -4.61057 0.97576 66 63 53
0.76691 -4.63121 0.97914 55 34 40
0.75189 -4.64640 0.98237 49 32 37
0.82135 -4.72019 0.98733 116 119 90
0.79726 -4.73224 0.96676 140 141 142
0.79972 -4.73123 0.99049 135 135 129
0.77563 -4.74327 0.96992 142 140 137
0.78474 -4.74693 0.99379 137 128 123
0.76063 -4.75898 0.97320 140 137 140
-0.17477 -4.86515 1.08243 147 146 137
-0.15865 -4.85430 1.05702 120 121 114
-0.29377 -4.81741 1.08480 118 103 75
-0.35038 -4.79540 1.08602 70 65 33
-0.33255 -4.83877 1.09067 33 26 29
-0.34840 -4.84943 1.11566 28 23 34
-0.35166 -4.84969 1.09362 23 22 29
-0.35881 -4.89955 1.10105 14 15 20
-0.33630 -4.88829 1.12027 26 22 31
-0.34286 -4.88881 1.07590 11 15 10
-0.36209 -4.89981 1.07887 10 11 13
-0.38132 -4.91080 1.08184 8 8 7
-0.37170 -4.91630 1.10434 10 10 12
-0.39424 -4.92757 1.08510 6 6 4
-0.43365 -5.06265 1.12924 17 11 20
-0.41075 -5.05120 1.14878 11 8 12
-0.41409 -5.05146 1.12622 16 11 20
-0.43032 -5.06238 1.15180 12 8 13
-0.44988 -5.07357 1.15482 14 10 13
-0.44249 -5.08409 1.13287 22 14 20
-0.45622 -5.10097 1.13623 33 22 24
-0.46015 -5.12741 1.14019 47 41 41
-0.45927 -5.15877 1.14445 62 67 47
-0.45929 -5.18951 1.14871 88 88 71
-0.48254 -5.20113 1.12885 109 105 99
-0.47368 -5.20629 1.15211 104 98 87
-0.49696 -5.21793 1.13223 109 110 103
-1.94484 -3.88115 1.07980 37 43 38
-1.92848 -3.87297 1.09376 101 105 88
-1.93086 -3.87316 1.07764 78 81 69
-1.94246 -3.88096 1.09592 84 92 75
-1.96119 -3.88933 1.06583 12 8 17
-1.95722 -3.89080 1.08206 12 15 21
-1.99005 -3.90167 1.08604 17 14 16
-2.00639 -3.90984 1.07209 30 29 34
-2.00999 -3.90331 1.08777 27 22 32
-2.02155 -3.91109 1.10600 25 21 42
-2.02393 -3.91128 1.08992 29 25 41
-3.14152 -4.27398 1.22427 27 26 26
-3.13059 -4.26662 1.20703 18 22 16
-3.15713 -4.27699 1.22586 49 48 48
-3.24874 -4.23201 1.22655 66 67 54
-3.23804 -4.22481 1.20968 65 63 47
-3.27555 -4.21234 1.22585 78 80 84
-3.32342 -4.15086 1.22096 95 112 127
-3.34504 -4.14009 1.22110 109 126 136
-3.36459 -4.13316 1.22161 129 142 148
-3.37893 -4.13647 1.22315 140 148 140
-3.40433 -4.11720 1.22240 128 118 101
-3.41877 -4.12442 1.21007 125 119 97
-3.47874 -4.09256 1.22460 146 132 106
-3.46866 -4.08577 1.20870 139 126 100
-3.48081 -4.09272 1.21058 143 132 103
-3.50730 -4.06459 1.22289 130 107 80
-3.53847 -4.03033 1.22050 81 60 41
-3.61705 -4.15833 1.24412 100 98 83
-3.62115 -4.18426 1.24801 76 77 76
-3.62805 -4.20388 1.25124 67 75 80
-3.64670 -4.23205 1.25654 112 115 104
-3.66107 -4.23923 1.24427 120 120 95
-3.66642 -4.25813 1.26163 108 108 84
-3.68084 -4.26533 1.24933 94 90 80
-3.67921 -4.26398 1.26341 93 93 82
-3.71204 -4.33527 1.27573 96 96 84
-3.72662 -4.34256 1.26329 115 114 85
-3.71482 -4.36808 1.28048 106 109 95
-4.20983 -5.97126 1.53938 131 132 118
-4.19093 -5.96181 1.55551 137 131 100
-4.19368 -5.96203 1.53689 135 131 109
-4.22545 -5.98360 1.54226 127 126 100
-4.23467 -6.03465 1.55001 103 100 79
-4.25373 -6.04417 1.53374 98 96 75
-4.24400 -6.08670 1.55791 93 93 84
-4.26320 -6.09630 1.54151 80 77 78
-4.35133 -6.33654 1.60053 133 142 146
-4.35902 -6.41519 1.61198 160 171 189
-4.37907 -6.42521 1.59487 165 180 200
-4.37323 -6.44738 1.61750 166 182 208
-4.39335 -6.45744 1.60033 166 182 202
0.99154 -4.17896 0.87706 63 64 75
1.01422 -4.16762 0.89642 65 65 65
1.00761 -4.16814 0.85172 74 79 80
0.99484 -4.17870 0.89941 59 63 76
0.97546 -4.18978 0.90240 55 58 69
0.97216 -4.19004 0.88005 52 57 68
1.00651 -4.30193 0.89251 64 62 63
1.02289 -4.29092 0.86670 58 53 60
1.00315 -4.30220 0.86974 53 45 56
0.99618 -4.31893 0.89560 71 70 75
0.99386 -4.36445 0.90193 87 90 79
0.89410 -4.46941 0.92380 78 74 69
0.81487 -4.54048 0.93951 67 71 49
0.83153 -4.52926 0.91324 62 64 60
0.80215 -4.55689 0.94271 57 55 54
0.79258 -4.57547 0.94596 50 55 71
0.78025 -4.61755 0.95259 73 59 61
0.78373 -4.64537 0.95608 78 72 64
0.82701 -4.70083 0.96023 109 99 67
0.80296 -4.71285 0.93970 150 145 137
0.79416 -4.70404 0.96320 140 147 134
0.77017 -4.71604 0.94271 143 138 138
-0.21056 -4.86519 1.06250 128 125 114
-0.27984 -4.83268 1.06346 121 107 79
-0.36136 -4.78884 1.06383 93 84 55
-0.33075 -4.84349 1.06885 43 34 21
-0.34199 -4.86146 1.07214 19 21 16
-0.41169 -5.02756 1.09995 17 13 22
-0.38886 -5.01615 1.11943 10 10 11
-0.39218 -5.01641 1.09694 14 13 17
-0.40837 -5.02730 1.12245 13 11 16
-0.42728 -5.04241 1.10316 27 17 33
-0.43500 -5.06480 1.10677 36 23 37
-0.43944 -5.09048 1.11059 51 41 50
-0.44049 -5.11962 1.11460 77 66 61
-0.46356 -5.13115 1.09491 110 104 93
-0.45429 -5.13663 1.11796 95 92 78
-0.47738 -5.14818 1.09824 103 104 92
-0.46390 -5.15781 1.12156 103 107 85
-0.48705 -5.16938 1.10180 109 108 95
-0.46375 -5.18872 1.12573 107 107 91
-0.48699 -5.20035 1.10588 112 109 96
-1.93715 -3.86935 1.06128 57 49 47
-1.92081 -3.86118 1.07523 103 104 90
-1.92319 -3.86137 1.05912 106 98 92
-1.92557 -3.86156 1.04302 113 109 94
-1.93953 -3.86954 1.04518 69 65 53
-1.94032 -3.88846 1.06410 17 12 19
-1.97606 -3.89639 1.06793 21 22 16
-1.99505 -3.89910 1.06977 26 28 21
-2.03625 -3.90084 1.07318 25 22 29
-2.04778 -3.90860 1.09135 23 24 35
-2.05251 -3.90897 1.05930 13 11 9
-3.13544 -4.28954 1.21050 25 25 21
-3.12446 -4.28215 1.19319 17 23 11
-3.15106 -4.29267 1.21213 49 45 37
-3.16162 -4.30523 1.21464 67 62 46
-3.17260 -4.31262 1.23195 64 62 45
-3.17485 -4.31280 1.21668 65 59 45
-3.17711 -4.31298 1.20141 65 58 40
-3.25025 -4.23352 1.21180 66 68 57
-3.23955 -4.22632 1.19492 65 62 42
-3.28029 -4.20753 1.21061 77 81 78
-3.30921 -4.18315 1.20955 87 100 112
-3.34135 -4.15180 1.20779 100 118 136
-3.36392 -4.13890 1.20779 125 140 143
-3.37834 -4.14210 1.20934 140 147 139
-3.39010 -4.15063 1.21140 121 117 96
-3.40468 -4.15792 1.19895 121 115 94
-3.50093 -4.08270 1.21078 138 121 87
-3.49089 -4.07595 1.19495 139 127 96
-3.50299 -4.08286 1.19682 143 126 94
-3.51509 -4.08978 1.19869 129 113 83
-3.52530 -4.06320 1.21003 115 92 67
-3.53936 -4.07022 1.19803 124 121 81
-3.59810 -4.10269 1.22098 123 123 97
-3.58405 -4.09567 1.23297 127 126 107
-3.58609 -4.09583 1.21912 123 121 100
-3.58814 -4.09599 1.20528 122 123 96
-3.59605 -4.10253 1.23482 127 123 105
-3.60701 -4.11667 1.22355 117 114 98
-3.61311 -4.13732 1.22681 108 104 90
-3.61026 -4.17930 1.23226 64 60 55
-3.62144 -4.18866 1.23439 40 35 42
-3.63220 -4.19910 1.23663 46 45 62
-3.63772 -4.22228 1.24018 58 65 77
-3.64643 -4.23799 1.24298 91 100 92
-3.66716 -4.26168 1.24778 110 103 82
-3.68897 -4.28304 1.25234 100 98 84
-3.69108 -4.28321 1.23809 109 113 90
-3.70343 -4.29027 1.24000 111 113 88
-3.69787 -4.29900 1.25519 105 104 83
-3.71236 -4.30625 1.24281 112 114 86
-4.20372 -5.92067 1.51321 126 124 97
-4.18497 -5.91130 1.52922 135 126 99
-4.18770 -5.91151 1.51074 131 114 99
-4.21414 -5.96241 1.51965 114 113 102
-4.23301 -5.97185 1.50354 74 79 83
-4.22090 -6.02711 1.52891 101 102 101
-4.23996 -6.03664 1.51263 80 84 87
-4.26816 -6.17922 1.55310 93 90 86
-4.27099 -6.17945 1.53391 117 114 87
-4.28479 -6.18873 1.55566 101 94 87
-4.34072 -6.30255 1.57535 98 97 118
-4.34911 -6.37415 1.58566 144 156 168
-4.36905 -6.38411 1.56864 164 181 196
-4.36053 -6.42601 1.59355 167 180 190
-4.38061 -6.43605 1.57640 160 175 199
1.00341 -4.18811 0.85468 71 70 73
1.00010 -4.18837 0.83227 73 76 72
0.99659 -4.20665 0.85766 63 62 63
0.98044 -4.21751 0.88312 49 56 57
0.97712 -4.21778 0.86067 58 57 51
0.98401 -4.31384 0.87279 62 56 61
1.00038 -4.30282 0.84697 54 49 41
0.98064 -4.31411 0.85002 60 56 53
0.98241 -4.33624 0.87587 81 84 69
0.98533 -4.36154 0.87898 85 89 75
0.96207 -4.37317 0.85912 69 59 61
0.96839 -4.37472 0.88205 75 67 64
0.94938 -4.38663 0.88512 63 59 62
0.92611 -4.39827 0.86526 70 72 74
0.91101 -4.45843 0.89762 93 94 92
0.88777 -4.46780 0.90069 90 93 90
0.86104 -4.49934 0.90696 70 77 77
0.84603 -4.51411 0.91009 58 64 72
0.81497 -4.54309 0.91637 65 56 49
0.80338 -4.56027 0.91955 59 43 49
0.79283 -4.57822 0.92275 61 60 70
0.79852 -4.60724 0.92613 87 83 77
0.82494 -4.65060 0.92976 119 113 99
0.80105 -4.66254 0.90936 149 153 129
0.81455 -4.66914 0.93302 134 132 108
0.79062 -4.68110 0.91259 147 144 134
0.79830 -4.68372 0.93623 145 143 116
0.77436 -4.69569 0.91579 150 141 136
-0.26385 -4.84976 1.04203 120 114 93
-0.24788 -4.83902 1.01685 120 119 116
-0.26713 -4.85002 1.01982 118 117 118
-0.29312 -4.85196 1.04463 119 110 75
-0.36287 -4.81819 1.04569 75 73 36
-0.33574 -4.87020 1.05040 40 30 33
-0.34637 -4.88886 1.05370 28 17 18
-0.36034 -4.90461 1.05688 24 16 22
-0.37428 -4.92044 1.06007 16 9 15
-0.39356 -4.93146 1.06305 12 7 8
-0.38010 -4.97263 1.06741 11 13 9
-0.37679 -4.97237 1.08980 7 10 5
-0.39620 -4.98346 1.09280 10 13 11
-0.38861 -4.99383 1.07088 14 15 14
-0.39724 -5.01505 1.07436 22 18 18
-0.40757 -5.03481 1.07778 37 27 30
-0.39371 -5.07757 1.08233 59 50 60
-0.40018 -5.10139 1.08598 84 77 77
-0.42327 -5.11293 1.06627 109 107 104
-0.42921 -5.10376 1.08858 99 91 92
-0.45225 -5.11528 1.06891 107 105 105
-0.44880 -5.11510 1.09163 111 100 95
-0.47185 -5.12662 1.07195 109 108 96
-1.93936 -3.89210 1.04814 27 19 19
-1.92773 -3.88427 1.02980 84 87 70
-1.96264 -3.89049 1.04977 25 15 22
-1.97900 -3.89867 1.03580 35 41 50
-1.97828 -3.89674 1.05183 35 38 30
-2.00039 -3.89616 1.05350 32 36 32
-2.01670 -3.90431 1.03957 23 18 23
-2.02488 -3.89293 1.05501 23 20 29
-2.04114 -3.90105 1.04113 18 13 10
-2.04868 -3.89028 1.05654 15 13 15
-2.06488 -3.89839 1.04270 14 12 7
-2.75196 -3.34187 1.03979 54 60 54
-2.73879 -3.33529 1.05103 31 38 41
-2.74071 -3.33544 1.03806 29 32 29
-2.74263 -3.33559 1.02508 21 26 19
-2.76129 -3.34815 1.05450 66 74 64
-2.76321 -3.34830 1.04153 70 77 63
-3.13254 -4.29926 1.19608 18 25 17
-3.12153 -4.29185 1.17873 17 23 12
-3.14609 -4.30631 1.19809 39 42 27
-3.15480 -4.32248 1.20090 64 61 35
-3.17037 -4.33026 1.18762 74 62 41
-3.24838 -4.24156 1.19763 67 67 53
-3.23765 -4.23434 1.18072 69 63 41
-3.25058 -4.24173 1.18271 68 65 47
-3.27896 -4.21455 1.19648 74 75 69
-3.29948 -4.20670 1.19707 77 86 94
-3.32969 -4.17935 1.19585 84 98 117
-3.35874 -4.15370 1.19476 108 125 133
-3.37843 -4.14637 1.19535 133 142 136
-3.38785 -4.15971 1.19786 121 114 89
-3.59785 -4.10810 1.20764 107 107 94
-3.59799 -4.14235 1.21217 96 85 72
-3.61217 -4.14944 1.20007 93 86 74
-3.60549 -4.16002 1.21509 92 78 73
-3.61115 -4.18223 1.21847 55 43 46
-3.62039 -4.19626 1.22105 51 46 37
-3.62844 -4.21327 1.22393 76 73 55
-3.64279 -4.22044 1.21168 66 66 64
-3.63819 -4.22636 1.22642 65 67 68
-3.64808 -4.23925 1.22890 78 85 84
-3.65757 -4.25323 1.23149 118 116 94
-3.67199 -4.26044 1.21918 120 118 91
-3.66773 -4.26569 1.23394 118 109 91
-3.68217 -4.27292 1.22161 111 113 90
-3.68016 -4.27251 1.23582 106 104 91
-3.69461 -4.27973 1.22349 108 111 90
-4.19192 -5.90339 1.49127 123 113 83
-4.21064 -5.91275 1.47529 89 81 73
-4.21159 -5.89154 1.49126 101 93 68
-4.23024 -5.90086 1.47534 84 81 68
-4.21415 -5.97858 1.50294 73 73 66
-4.23308 -5.98805 1.48679 81 80 73
-4.28058 -6.23530 1.54204 97 93 70
-4.29449 -6.24466 1.56396 91 89 79
-4.29734 -6.24489 1.54462 85 83 72
-4.31131 -6.27371 1.54953 80 85 80
-4.34517 -6.42470 1.57211 155 174 183
1.02495 -4.18043 0.82924 67 67 62
1.04771 -4.16905 0.84867 70 76 83
1.04439 -4.16931 0.82624 56 55 56
1.04108 -4.16958 0.80381 60 53 53
1.00179 -4.21194 0.83517 76 74 66
0.99847 -4.21220 0.81268 76 73 74
0.99605 -4.23124 0.83812 74 66 59
0.97984 -4.24215 0.86367 59 57 56
0.99664 -4.25444 0.84105 69 65 61
0.98780 -4.27211 0.84404 60 61 49
0.98080 -4.33758 0.85303 63 65 46
0.99723 -4.32653 0.82713 57 58 54
0.97743 -4.33785 0.83019 58 62 47
0.95762 -4.34917 0.83324 61 66 47
0.96830 -4.35340 0.85607 62 64 47
0.95586 -4.39306 0.86218 73 64 76
0.95247 -4.39332 0.83921 81 76 74
0.93255 -4.40471 0.84228 75 74 77
0.89833 -4.42862 0.87141 65 66 73
0.89047 -4.44773 0.87450 74 79 88
0.89762 -4.47661 0.87764 92 99 87
0.87415 -4.48834 0.85760 81 79 68
0.85501 -4.49790 0.88382 77 69 62
0.84821 -4.51805 0.88696 67 58 52
0.83027 -4.53096 0.89007 68 61 50
0.82045 -4.54928 0.89322 79 73 60
0.83179 -4.60702 0.89974 128 124 111
0.82028 -4.62459 0.90293 138 134 117
0.79648 -4.63649 0.88261 146 152 139
0.80022 -4.63640 0.90607 147 146 128
0.77642 -4.64830 0.88575 136 145 138
-0.28647 -4.86096 1.02279 118 116 101
-0.27049 -4.85021 0.99761 117 117 116
-0.28975 -4.86122 1.00058 119 119 108
-0.30900 -4.87222 1.00355 117 117 104
-0.28913 -4.88667 1.02631 120 115 86
-0.30419 -4.90152 1.02944 97 92 77
-0.34486 -4.89342 1.03169 80 70 48
-0.32126 -4.94314 1.03618 59 52 30
-0.36888 -4.92860 1.03815 36 19 29
-0.36292 -4.96278 1.04207 31 15 13
-0.37806 -4.97781 1.04523 28 23 13
-0.38151 -5.00376 1.04884 37 35 29
-0.37535 -5.03887 1.05286 57 61 59
-0.37636 -5.06756 1.05664 88 84 75
-0.39939 -5.07907 1.03697 109 106 97
-0.40253 -5.07266 1.05941 105 103 94
-0.42553 -5.08416 1.03977 107 103 93
-0.42155 -5.08449 1.06247 115 108 96
-0.44456 -5.09599 1.04283 104 105 108
-1.93595 -3.89828 1.03227 40 33 33
-1.95760 -3.89840 1.03403 31 26 31
-1.99878 -3.90055 1.03764 30 31 41
-2.00116 -3.90073 1.02154 25 28 34
-2.74357 -3.35392 1.02752 45 49 48
-2.73419 -3.34761 1.01274 17 22 18
-2.75187 -3.36385 1.02946 71 79 73
-2.76126 -3.37017 1.04426 56 60 52
-2.76318 -3.37032 1.03121 61 68 59
-3.12733 -4.31326 1.18195 15 23 16
-3.11628 -4.30583 1.16453 18 22 10
-3.12960 -4.31344 1.16659 16 21 15
-3.14188 -4.31858 1.18381 34 41 22
-3.15061 -4.33482 1.18661 67 63 30
-3.16623 -4.34262 1.17328 75 65 52
-3.27744 -4.22195 1.18234 70 69 56
-3.26679 -4.21478 1.16555 69 63 53
-3.27962 -4.22212 1.16753 66 64 49
-3.30324 -4.20375 1.18208 71 75 75
-3.32009 -4.20288 1.18333 75 82 90
-3.35183 -4.17200 1.18193 90 100 113
-3.37368 -4.16045 1.18221 119 127 128
-3.38568 -4.16866 1.18423 111 97 91
-3.40033 -4.17598 1.17172 104 92 91
-3.40603 -4.15969 1.18472 113 103 95
-3.41637 -4.16664 1.20102 131 119 92
-3.42244 -4.15859 1.18591 124 116 92
-3.43276 -4.16553 1.20217 136 123 97
-3.43488 -4.16570 1.18783 134 121 92
-3.58502 -4.10786 1.19252 121 119 87
-3.57092 -4.10081 1.20455 126 122 94
-3.57297 -4.10097 1.19066 126 124 91
-3.58814 -4.13514 1.19628 72 70 77
-3.59683 -4.14997 1.19889 72 68 61
-3.61210 -4.18508 1.20465 83 71 67
-3.62639 -4.19223 1.19244 93 89 76
-3.62016 -4.20194 1.20747 82 78 63
-3.62628 -4.22365 1.21075 93 95 66
-3.64067 -4.23085 1.19847 64 70 60
-3.64895 -4.24241 1.21500 72 78 80
-3.66336 -4.24962 1.20270 115 119 95
-3.65833 -4.25671 1.21760 113 116 95
-3.67277 -4.26393 1.20527 118 116 88
-4.26396 -6.24341 1.52214 114 107 71
-4.24715 -6.23380 1.51954 101 107 76
-4.28398 -6.23190 1.52227 89 74 47
-4.29585 -6.27443 1.52870 89 83 71
-4.31055 -6.29890 1.53304 110 111 88
-4.34933 -6.41582 1.55122 154 168 174
-4.36941 -6.42586 1.53408 166 179 185
-4.36464 -6.43960 1.55551 161 172 187
-4.38184 -6.44943 1.55817 161 180 196
-4.38477 -6.44966 1.53833 166 180 191
1.04313 -4.19322 0.80661 64 58 56
1.05932 -4.18233 0.78109 59 49 57
1.03981 -4.19348 0.78411 53 44 50
1.02369 -4.20442 0.80962 65 63 70
1.00384 -4.23811 0.81549 80 77 73
1.00050 -4.23837 0.79291 82 84 87
0.99849 -4.25780 0.81840 74 71 69
0.98743 -4.27417 0.82137 66 65 54
0.98845 -4.29790 0.82426 59 58 47
0.96538 -4.30944 0.80457 59 66 64
0.96072 -4.37470 0.83619 74 74 63
0.97721 -4.36360 0.81019 58 60 57
0.91177 -4.41555 0.84536 68 66 62
0.89080 -4.42626 0.84844 55 56 55
0.87614 -4.44100 0.85150 51 57 60
0.87566 -4.46493 0.85454 73 74 71
0.85158 -4.49817 0.86070 78 68 75
0.84750 -4.52011 0.86379 89 86 79
0.87754 -4.56473 0.86690 113 108 86
0.85945 -4.57776 0.87003 132 128 111
0.83572 -4.58963 0.84978 142 143 134
0.84198 -4.59123 0.87317 139 138 117
0.81824 -4.60310 0.85290 139 141 133
0.81568 -4.59877 0.87629 140 140 134
0.79196 -4.61063 0.85604 145 147 132
-0.29350 -4.91426 1.00755 114 111 102
-0.27741 -4.90343 0.98218 115 111 110
-0.29680 -4.91452 0.98518 118 111 114
-0.30386 -4.93347 1.01081 109 110 95
-0.31200 -4.95477 1.01416 97 92 71
-0.34790 -4.95096 1.01665 72 53 45
-0.34702 -4.98065 1.02030 65 53 46
-0.35799 -4.99965 1.02359 71 75 59
-0.36096 -5.02619 1.02716 95 97 82
-0.38389 -5.03765 1.00759 109 109 100
-0.37713 -5.04059 1.03031 118 114 94
-0.40008 -5.05206 1.01072 110 107 103
-0.38938 -5.05872 1.03359 116 110 95
-0.41236 -5.07021 1.01397 111 109 102
-1.90717 -3.90802 1.01469 99 98 81
-1.89065 -3.89976 1.02880 114 112 96
-1.89305 -3.89995 1.01251 110 107 95
-1.89546 -3.90014 0.99622 110 106 102
-1.93840 -3.89841 1.01606 51 45 46
-1.96178 -3.89672 1.01778 26 35 34
-1.97817 -3.90491 1.00379 20 29 29
-1.98013 -3.90017 1.01973 25 35 40
-1.99650 -3.90835 1.00576 22 28 31
-2.03495 -3.88763 1.02269 28 25 23
-2.03731 -3.88782 1.00670 28 28 32
-2.06365 -3.87968 1.02407 25 19 14
-2.07745 -3.88757 1.02620 16 14 11
-2.72282 -3.38026 1.01590 37 41 48
-2.71336 -3.37390 1.00098 17 17 21
-2.72476 -3.38042 1.00274 32 35 46
-2.74091 -3.37900 1.01723 65 78 77
-2.75471 -3.38266 1.01883 64 73 71
-2.76413 -3.38900 1.03369 41 46 40
-2.76607 -3.38916 1.02059 42 48 54
-2.76800 -3.38931 1.00748 47 51 61
-3.13929 -4.32785 1.16920 34 39 25
-3.14903 -4.34227 1.17181 66 64 38
-3.16468 -4.35009 1.15846 73 68 55
-3.30937 -4.19612 1.16673 65 69 59
-3.29882 -4.18902 1.15010 70 65 43
-3.31153 -4.19629 1.15206 68 68 47
-3.32471 -4.19817 1.16825 73 79 64
-3.34455 -4.19109 1.16901 83 88 88
-3.37233 -4.16766 1.16836 111 115 117
-3.38701 -4.17500 1.15583 98 94 86
-3.38532 -4.17392 1.17022 100 90 92
-3.40000 -4.18126 1.15770 106 94 81
-3.42380 -4.16034 1.17170 109 103 88
-3.44430 -4.15052 1.17216 126 119 88
-3.45457 -4.15743 1.18836 137 124 91
-3.45668 -4.15760 1.17407 133 122 91
-3.58452 -4.11379 1.17914 111 104 75
-3.59864 -4.12085 1.16709 59 51 47
-3.58726 -4.14204 1.18291 54 52 51
-3.59872 -4.15054 1.18493 64 74 63
-3.61293 -4.15764 1.17280 88 93 81
-3.60688 -4.16678 1.18764 93 96 81
-3.62113 -4.17390 1.17548 94 92 78
-3.61439 -4.18474 1.19051 97 90 77
-3.62709 -4.22690 1.19685 86 90 71
-4.16268 -5.80529 1.43914 72 73 75
-4.14958 -5.79648 1.41849 99 102 84
-4.18115 -5.81453 1.42337 80 72 67
-4.17095 -5.85517 1.44608 68 66 62
-4.18957 -5.86448 1.43019 76 79 72
-4.18253 -5.88827 1.45119 77 78 67
-4.20123 -5.89762 1.43522 78 83 77
-4.23508 -6.21269 1.49623 73 76 83
-4.21543 -6.20287 1.51300 79 82 71
-4.21829 -6.20310 1.49364 77 77 75
-4.22115 -6.20333 1.47428 83 74 72
-4.23222 -6.21247 1.51559 84 91 81
-4.24912 -6.23968 1.50078 101 101 78
-4.26240 -6.27237 1.50597 118 112 77
-4.27852 -6.28724 1.50917 117 106 77
-4.29370 -6.30868 1.51312 112 113 108
-4.30845 -6.33358 1.51746 113 124 125
-4.32618 -6.33816 1.51950 115 131 129
-4.33818 -6.38393 1.52623 136 156 158
-4.35081 -6.42678 1.53265 158 177 178
-4.37092 -6.43683 1.51548 172 184 194
1.03060 -4.21068 0.78699 52 50 61
1.04681 -4.19977 0.76143 55 45 57
1.02693 -4.23124 0.78981 73 75 84
1.00400 -4.24270 0.77023 88 89 91
1.00562 -4.26433 0.79565 76 73 77
1.00227 -4.26459 0.77299 80 78 84
0.98262 -4.27583 0.77602 73 72 86
0.98731 -4.27637 0.79867 72 72 77
0.98450 -4.29781 0.80153 69 70 69
0.95695 -4.37473 0.81326 65 65 63
0.94788 -4.39285 0.81625 65 61 72
0.92458 -4.40450 0.79635 44 41 58
0.93357 -4.40775 0.81928 64 64 73
0.91025 -4.41942 0.79936 62 47 51
0.91277 -4.41860 0.82236 72 69 60
0.88871 -4.42735 0.82546 63 55 48
0.86555 -4.43666 0.82856 60 50 48
0.86314 -4.45932 0.83153 77 70 63
0.85962 -4.48140 0.83453 98 94 87
0.90805 -4.53753 0.83730 114 112 107
0.88435 -4.54938 0.81707 134 132 125
0.89673 -4.55498 0.84039 132 128 111
0.87300 -4.56684 0.82013 131 132 128
0.88421 -4.57169 0.84349 137 133 119
0.86044 -4.58357 0.82321 139 136 134
0.85084 -4.57460 0.84666 142 142 133
0.82713 -4.58645 0.82642 142 133 141
-0.30391 -4.93665 0.98848 116 110 112
-0.28778 -4.92580 0.96305 130 121 109
-0.30723 -4.93691 0.96606 126 122 116
-0.30425 -4.96506 0.99198 113 106 98
-0.32710 -4.97648 0.97248 112 111 102
-0.31125 -4.98762 0.99533 109 101 88
-0.33416 -4.99907 0.97578 117 113 105
-0.32693 -5.00238 0.99846 112 104 95
-0.34985 -5.01384 0.97889 117 115 111
-0.33897 -5.02054 1.00170 116 117 109
-0.36193 -5.03202 0.98210 113 111 104
-0.35181 -5.03805 1.00493 112 116 103
-0.37480 -5.04955 0.98530 107 107 97
-1.91094 -3.90681 0.99834 110 106 93
-1.89923 -3.89893 0.97988 109 106 111
-1.92969 -3.91009 1.00033 74 69 53
-1.95375 -3.90776 1.00208 33 38 32
-2.06884 -3.87682 1.00802 26 23 26
-2.05741 -3.86913 0.98999 24 28 39
-2.07119 -3.87701 0.99211 20 22 32
-2.09145 -3.87519 1.00973 19 15 19
-2.10286 -3.88286 1.02771 12 11 10
-2.10520 -3.88305 1.01185 16 13 13
-2.73344 -3.39011 1.00466 59 72 71
-2.72397 -3.38374 0.98973 23 27 34
-2.74680 -3.39679 0.99325 67 76 79
-2.74003 -3.40230 1.00671 66 75 76
-2.75342 -3.40899 0.99528 56 55 61
-3.12330 -4.32953 1.15245 19 21 16
-3.10992 -4.32188 1.15038 18 21 9
-3.11220 -4.32206 1.13495 20 21 11
-3.12558 -4.32971 1.13702 21 21 18
-3.13593 -4.33858 1.15462 36 39 27
-3.14543 -4.35356 1.15725 61 65 40
-3.16112 -4.36140 1.14386 72 70 54
-3.32849 -4.19512 1.15335 72 77 55
-3.31796 -4.18804 1.13675 73 71 41
-3.33065 -4.19529 1.13871 72 71 44
-3.34640 -4.19187 1.15447 81 82 70
-3.36702 -4.18294 1.15512 98 98 93
-3.42278 -4.16706 1.15788 100 93 79
-3.41244 -4.16010 1.14158 104 94 76
-3.42490 -4.16723 1.14351 102 95 65
-3.43737 -4.17435 1.14543 104 97 85
-3.44548 -4.15265 1.15804 108 104 87
-3.46490 -4.14480 1.15872 125 114 92
-3.47513 -4.15169 1.17486 140 124 92
-3.47723 -4.15185 1.16063 136 123 91
-3.47934 -4.15202 1.14639 133 123 92
-3.57482 -4.10637 1.16331 126 121 88
-3.56481 -4.09964 1.14754 123 120 93
-3.57755 -4.13445 1.16697 89 83 66
-3.59800 -4.15716 1.17148 72 80 69
-3.61861 -4.21591 1.18040 90 90 79
-3.62070 -4.21608 1.16622 70 69 61
-3.62730 -4.23162 1.18306 74 76 74
-3.63772 -4.24330 1.18536 72 76 64
-3.64485 -4.26314 1.18839 100 104 81
-3.65934 -4.27039 1.17602 125 121 91
-4.24931 -6.25699 1.48322 102 104 86
-4.26080 -6.30174 1.48966 120 120 95
-4.27646 -6.32030 1.49325 118 120 108
-4.29320 -6.33192 1.49609 111 120 130
-4.30902 -6.35002 1.49964 110 126 144
-4.32399 -6.37446 1.50389 128 142 146
-4.33766 -6.40914 1.50928 146 162 164
-4.35774 -6.41919 1.49214 156 172 181
1.02956 -4.21229 0.76441 54 50 61
1.04578 -4.20138 0.73884 50 43 49
1.02608 -4.23297 0.76717 75 75 85
0.97695 -4.29554 0.77886 66 66 75
0.97506 -4.31765 0.78165 55 57 65
0.95867 -4.32868 0.80749 55 65 63
0.97299 -4.33980 0.78447 49 50 64
0.94981 -4.35139 0.76468 39 41 45
0.95714 -4.35357 0.78748 48 48 55
0.93393 -4.36516 0.76767 41 41 39
0.94959 -4.37253 0.79039 50 51 56
0.93900 -4.38968 0.79334 46 45 62
0.88878 -4.42983 0.80246 75 60 61
0.87057 -4.44232 0.80551 87 76 72
0.87869 -4.47182 0.80833 105 97 85
0.90925 -4.51611 0.81096 126 120 114
0.88561 -4.52792 0.79079 135 137 136
0.92001 -4.54787 0.81381 132 133 124
0.89625 -4.55975 0.79354 136 138 134
-1.92073 -3.89941 0.98180 116 112 109
-1.90904 -3.89155 0.96338 111 105 111
-1.92313 -3.89960 0.96555 115 113 108
-1.92729 -3.91525 0.98425 98 91 77
-1.94945 -3.91493 0.98612 47 40 31
-1.96593 -3.92317 0.97205 55 43 60
-1.96642 -3.91994 0.98818 32 27 31
-1.99866 -3.90878 0.98964 32 33 43
-2.09735 -3.87154 0.99372 30 21 23
-2.09969 -3.87172 0.97788 55 42 35
-2.12308 -3.86635 0.99532 34 19 16
-2.13442 -3.87398 1.01321 13 12 11
-2.14132 -3.86917 0.99723 23 15 13
-2.15265 -3.87679 1.01509 10 11 9
-2.15498 -3.87697 0.99934 13 13 10
-2.15731 -3.87716 0.98359 15 14 13
-2.72318 -3.40448 0.99213 50 61 64
-2.71366 -3.39808 0.97712 13 13 21
-2.73661 -3.41120 0.98067 66 72 76
-3.12899 -4.35604 1.14045 35 36 31
-3.11784 -4.34853 1.12286 20 19 22
-3.14115 -4.36614 1.14270 58 62 44
-3.15690 -4.37401 1.12926 71 68 53
-3.34631 -4.19656 1.14022 79 73 42
-3.33580 -4.18949 1.12365 76 72 48
-3.34847 -4.19673 1.12561 80 71 38
-3.36463 -4.19232 1.14129 86 87 64
-3.38505 -4.18358 1.14201 95 92 75
-3.39976 -4.19093 1.12945 99 93 76
-3.46543 -4.14829 1.14475 120 106 93
-3.47988 -4.15552 1.13241 135 123 91
-3.57426 -4.11242 1.14987 126 120 89
-3.56424 -4.10567 1.13407 125 121 92
-3.57809 -4.13808 1.15326 75 68 58
-3.59231 -4.14519 1.14113 69 71 58
-3.58769 -4.15087 1.15561 66 60 51
-3.59839 -4.16124 1.15777 78 82 68
-3.60160 -4.18920 1.16137 85 90 79
-3.61200 -4.20055 1.16362 90 92 79
-3.62252 -4.24837 1.17023 54 55 56
-3.63516 -4.25483 1.17208 80 84 70
-3.64527 -4.26748 1.17446 115 115 88
-3.65977 -4.27473 1.16208 127 123 94
-4.22372 -6.20536 1.45511 99 97 66
-4.23456 -6.25222 1.46162 107 106 92
-4.24911 -6.27686 1.46581 114 111 108
-4.26894 -6.28678 1.44889 121 127 126
-4.26346 -6.30352 1.47023 118 123 114
-4.28335 -6.31346 1.45325 122 133 131
-4.27764 -6.33202 1.47484 119 130 123
-4.29759 -6.34200 1.45781 124 135 137
-4.29353 -6.34966 1.47832 120 134 135
-4.31351 -6.35965 1.46126 129 140 143
-4.30893 -6.37106 1.48219 122 138 145
-4.32490 -6.38897 1.48570 135 148 150
-4.33944 -6.41768 1.49038 148 164 169
-4.35956 -6.42773 1.47320 155 168 178
-4.37385 -6.43708 1.49566 160 173 186
-4.37678 -6.43731 1.47583 151 167 182
-4.38811 -6.44667 1.51814 175 186 195
-4.39050 -6.45113 1.49877 165 178 190
-4.40477 -6.46073 1.52126 175 188 194
-4.40770 -6.46097 1.50142 174 185 195
1.01169 -4.22669 0.74477 63 57 72
1.01667 -4.25249 0.74732 75 77 86
0.99781 -4.26419 0.75034 73 75 87
0.98255 -4.27807 0.75329 64 64 77
0.97327 -4.29560 0.75614 56 58 65
0.95022 -4.30712 0.73647 41 40 46
0.97190 -4.31805 0.75886 48 48 48
0.94878 -4.32960 0.73913 39 35 44
0.97122 -4.34105 0.76159 42 42 43
0.94803 -4.35264 0.74179 45 38 47
0.93224 -4.38784 0.77045 50 43 47
0.91417 -4.40035 0.77349 59 55 60
0.89692 -4.41339 0.77652 78 70 56
0.88809 -4.43182 0.77943 100 88 75
0.89880 -4.46288 0.78209 115 112 99
0.91421 -4.52184 0.78756 135 134 133
0.89055 -4.53367 0.76736 135 134 130
-1.93525 -3.90968 0.96779 100 99 79
-1.94247 -3.92491 0.97019 60 50 39
-1.98950 -3.92118 0.97390 49 44 59
-1.99189 -3.92137 0.95771 48 31 28
-2.00593 -3.92939 0.95987 46 25 19
-2.02790 -3.90325 0.97521 31 28 39
-2.06702 -3.88418 0.97645 28 27 35
-2.08319 -3.89227 0.96264 63 58 70
-2.12063 -3.87173 0.97973 66 42 32
-2.13666 -3.87975 0.96604 34 29 26
-2.15254 -3.85962 0.98114 38 25 20
-2.16847 -3.86758 0.96754 13 12 11
-3.12499 -4.36803 1.12575 33 33 36
-3.11380 -4.36050 1.10812 18 19 23
-3.13546 -4.38143 1.12823 56 58 46
-3.15127 -4.38933 1.11474 71 65 48
-3.36521 -4.19570 1.12696 82 81 55
-3.35472 -4.18864 1.11043 83 76 41
-3.36736 -4.19587 1.11238 84 79 46
-3.38000 -4.20309 1.11433 91 84 64
-3.38571 -4.18679 1.12773 92 89 69
-3.40043 -4.19415 1.11516 98 88 67
-3.45205 -4.14802 1.12909 111 104 84
-3.43968 -4.14094 1.12718 104 94 66
-3.46653 -4.15526 1.11673 125 117 83
-3.46810 -4.14726 1.13042 122 110 88
-3.48255 -4.15448 1.11808 135 124 88
-3.57443 -4.11685 1.13627 126 122 90
-3.56439 -4.11010 1.12045 125 120 97
-3.58009 -4.13842 1.13926 84 75 63
-3.59787 -4.16741 1.14419 63 68 66
-3.59995 -4.16758 1.13012 42 39 55
-3.60261 -4.19188 1.14744 71 74 71
-3.61041 -4.20944 1.15016 80 79 69
-3.62004 -4.22284 1.15257 60 54 48
-3.62429 -4.24937 1.15601 66 66 55
-3.63124 -4.26970 1.15898 101 106 89
-3.64578 -4.27697 1.14657 127 124 105
-3.64588 -4.27134 1.16046 124 123 100
-3.66040 -4.27859 1.14807 126 123 98
-4.19990 -6.14558 1.42644 91 91 73
-4.21225 -6.18113 1.43165 112 110 76
-4.23185 -6.19092 1.41492 118 127 127
-4.23558 -6.26411 1.44332 125 134 126
-4.25540 -6.27402 1.42640 123 129 132
-4.25051 -6.28662 1.44724 123 126 125
-4.27038 -6.29655 1.43028 121 130 132
-4.32639 -6.39943 1.46700 137 148 151
-4.31215 -6.38985 1.44455 132 139 134
-4.34284 -6.41448 1.47019 147 161 167
-4.36294 -6.42454 1.45303 156 167 178
-4.39423 -6.44506 1.47827 154 169 188
-4.37998 -6.43547 1.45580 157 171 182
-4.39716 -6.44529 1.45845 157 173 185
-4.41130 -6.45581 1.48102 172 183 204
-4.42555 -6.46540 1.50349 174 184 195
-4.42848 -6.46563 1.48367 182 193 208
1.00196 -4.22317 0.72235 54 57 53
1.01817 -4.21226 0.69679 48 44 43
0.99863 -4.22343 0.69981 47 50 40
0.99303 -4.24067 0.72513 57 64 61
0.97011 -4.25213 0.70556 43 46 54
0.98896 -4.26116 0.72780 56 59 71
0.96598 -4.27264 0.70819 42 45 52
0.97721 -4.27713 0.73066 52 54 67
0.95420 -4.28863 0.71102 42 44 49
0.96900 -4.29531 0.73345 48 49 57
0.94595 -4.30683 0.71377 45 41 50
0.93544 -4.36847 0.74471 53 47 36
0.92968 -4.38863 0.74750 67 65 46
0.92174 -4.40752 0.75034 87 88 80
0.90621 -4.42170 0.75333 111 106 98
0.89090 -4.43605 0.75633 128 122 112
0.86755 -4.44773 0.73639 141 140 135
0.87689 -4.45127 0.75930 140 138 123
0.85351 -4.46296 0.73935 141 139 138
0.88281 -4.47943 0.76194 139 134 128
0.85933 -4.49116 0.74190 142 140 141
-1.91901 -3.90650 0.94948 121 119 105
-1.90490 -3.89843 0.94730 120 116 108
-1.90731 -3.89862 0.93102 114 120 111
-1.95844 -3.93376 0.95609 50 31 32
-2.07021 -3.88348 0.96049 48 38 35
-2.07256 -3.88367 0.94455 46 35 34
-2.08637 -3.89156 0.94669 39 30 37
-2.12540 -3.86926 0.96385 63 56 64
-2.14142 -3.87727 0.95017 13 12 12
-3.11995 -4.38198 1.11109 30 32 33
-3.10872 -4.37443 1.09339 15 22 19
-3.13227 -4.39202 1.11333 54 56 40
-3.14812 -4.39995 1.09980 69 66 51
-3.43812 -4.14879 1.11344 103 93 75
-3.42784 -4.14186 1.09723 101 87 60
-3.44023 -4.14895 1.09914 104 96 74
-3.45645 -4.14335 1.11448 114 103 84
-3.57686 -4.11617 1.12225 127 124 92
-3.56683 -4.10942 1.10644 125 120 103
-3.57892 -4.11633 1.10830 126 122 94
-3.58342 -4.13569 1.12504 101 93 71
-3.58705 -4.16222 1.12836 68 61 55
-3.60231 -4.19767 1.13372 60 60 59
-3.61091 -4.21338 1.13627 79 79 64
-3.61662 -4.23624 1.13936 85 82 67
-3.62541 -4.25192 1.14191 105 104 86
-3.63991 -4.25917 1.12954 127 124 101
-3.63600 -4.26341 1.14416 123 122 106
-3.65051 -4.27067 1.13177 126 123 100
-4.13940 -5.89401 1.37315 91 85 82
-4.12058 -5.88460 1.38921 99 94 66
-4.12332 -5.88482 1.37067 93 98 84
-4.15822 -5.90341 1.35709 73 67 60
-4.16854 -6.02859 1.39093 82 74 72
-4.16575 -6.02837 1.40985 79 76 58
-4.17621 -6.08784 1.39830 88 83 81
-4.18562 -6.13889 1.40490 100 101 94
-4.20513 -6.14865 1.38824 114 128 126
-4.19866 -6.17000 1.40958 112 118 102
-4.21825 -6.17980 1.39285 120 134 133
-4.21381 -6.18917 1.41310 119 129 110
-4.23344 -6.19898 1.39634 117 128 129
-4.32982 -6.39606 1.44684 139 151 147
-4.31559 -6.38649 1.42441 130 145 145
-4.34989 -6.40610 1.42971 147 164 170
-4.34673 -6.40761 1.44967 147 162 168
-4.36681 -6.41765 1.43252 154 166 178
-4.41630 -6.43925 1.45949 162 173 188
-4.40208 -6.42969 1.43708 153 174 187
-4.43635 -6.44928 1.44237 169 186 198
0.97903 -4.23458 0.70283 45 51 44
0.99525 -4.22367 0.67726 42 43 42
0.97570 -4.23484 0.68028 41 43 46
0.95616 -4.24602 0.68330 41 42 51
0.94724 -4.33099 0.71630 51 41 55
0.93366 -4.34611 0.71920 57 44 60
0.92569 -4.36477 0.72197 73 61 69
0.91839 -4.38395 0.72474 107 101 106
0.90292 -4.39807 0.72771 126 130 130
0.88604 -4.41132 0.73071 130 126 118
0.86276 -4.42296 0.71084 138 140 139
0.86862 -4.42427 0.73372 135 131 129
0.84534 -4.43590 0.71385 140 147 141
-1.91771 -3.91051 0.93328 112 117 103
-1.90599 -3.90263 0.91480 108 111 107
-1.92012 -3.91070 0.91698 106 108 104
-1.93424 -3.91878 0.91916 104 106 96
-1.92819 -3.94525 0.93804 75 61 42
-1.94770 -3.94779 0.94011 59 36 34
-1.99095 -3.92508 0.94160 59 40 31
-2.02663 -3.91004 0.94322 60 43 33
-2.04297 -3.91821 0.92928 43 47 42
-3.11048 -4.40431 1.09682 26 32 29
-3.09919 -4.39671 1.07902 15 24 19
-3.12461 -4.41112 1.09886 51 54 40
-3.14054 -4.41908 1.08527 67 67 53
-3.45922 -4.14210 1.10014 112 100 79
-3.44898 -4.13520 1.08398 108 98 65
-3.46133 -4.14226 1.08589 103 96 63
-3.47384 -4.14431 1.10172 124 119 80
-3.48618 -4.15136 1.10362 135 125 90
-3.48828 -4.15153 1.08940 134 125 91
-3.58960 -4.12647 1.11039 117 111 80
-3.57956 -4.11971 1.09456 125 120 96
-3.59167 -4.12663 1.09643 124 120 91
-3.58858 -4.16366 1.11437 91 79 63
-3.59580 -4.18225 1.11707 73 61 59
-3.60587 -4.23052 1.12328 103 104 74
-3.62034 -4.23775 1.11092 126 123 93
-3.61622 -4.24241 1.12553 115 115 87
-3.63071 -4.24965 1.11316 126 124 96
-3.62862 -4.24943 1.12743 125 123 96
-3.64311 -4.25667 1.11507 127 125 98
-4.11344 -5.85810 1.34802 69 68 74
-4.09469 -5.84872 1.36403 128 119 93
-4.09741 -5.84894 1.34554 124 116 91
-4.10014 -5.84916 1.32706 116 110 80
-4.13219 -5.86747 1.33201 87 88 45
-4.12235 -5.90447 1.35391 85 96 70
-4.16238 -5.97836 1.36567 79 78 71
-4.16812 -6.04692 1.37371 101 94 82
-4.33590 -6.37350 1.42485 138 155 157
0.94918 -4.31113 0.69087 55 47 57
0.96890 -4.29986 0.68782 48 46 51
0.94367 -4.33113 0.69351 63 54 57
0.91722 -4.33829 0.69675 77 71 70
0.91500 -4.36048 0.69931 111 99 109
0.89183 -4.37206 0.67953 151 142 147
0.89153 -4.36949 0.70247 152 134 155
0.87726 -4.38428 0.70537 155 146 155
0.85409 -4.39587 0.68559 138 132 132
0.86548 -4.40069 0.70822 140 136 125
0.84227 -4.41229 0.68841 134 132 136
-1.94779 -3.95042 0.92379 87 74 72
-1.93602 -3.94250 0.90523 108 109 115
-1.95268 -3.96841 0.92616 85 87 79
-1.98641 -3.95573 0.92797 72 84 77
-2.00296 -3.96401 0.91384 32 27 38
-3.10461 -4.41992 1.08199 25 32 30
-3.09327 -4.41229 1.06412 20 22 18
-3.11852 -4.42727 1.08408 49 52 43
-3.59366 -4.15688 1.09983 121 116 91
-3.58356 -4.15008 1.08390 123 120 95
-3.59574 -4.15705 1.08578 122 122 99
-3.60792 -4.16401 1.08766 122 123 103
-3.60195 -4.17295 1.10232 118 112 91
-3.61624 -4.18009 1.09011 123 123 100
-3.60468 -4.20225 1.10569 119 116 88
-3.61906 -4.20945 1.09341 124 123 95
-3.61151 -4.22227 1.10845 125 121 87
-3.62595 -4.22948 1.09613 124 124 93
-4.13841 -5.92898 1.33913 95 77 60
-4.14809 -5.97354 1.34477 90 90 76
-4.15491 -6.03529 1.35197 105 110 97
-4.17416 -6.04491 1.33554 120 131 134
-4.16434 -6.08423 1.35805 117 118 111
-4.18373 -6.09392 1.34150 122 132 128
-4.19118 -6.14006 1.36650 115 123 112
-4.21070 -6.14982 1.34983 116 127 123
-4.32605 -6.33341 1.39967 124 138 150
-4.30616 -6.32347 1.41665 128 143 142
-4.30905 -6.32370 1.39704 121 136 145
-4.31195 -6.32393 1.37744 128 142 144
-4.34461 -6.33180 1.40123 137 153 163
-4.36144 -6.34247 1.40394 149 164 174
-4.38129 -6.35239 1.38699 163 178 187
0.93303 -4.28036 0.66615 59 52 59
0.95598 -4.26889 0.68574 44 45 48
0.95264 -4.26915 0.66312 54 51 52
0.93266 -4.30334 0.66855 69 60 69
0.91020 -4.33629 0.67409 112 108 108
0.88712 -4.34783 0.65439 142 138 130
0.91209 -4.36104 0.67646 136 129 127
0.88892 -4.37262 0.65668 144 140 130
0.87737 -4.38675 0.68243 148 140 144
0.87399 -4.38701 0.65957 145 140 128
0.85418 -4.39834 0.66263 146 141 132
-1.93548 -3.96615 0.90761 93 90 104
-1.92365 -3.95819 0.88897 112 110 107
-1.95216 -3.97449 0.89337 22 21 43
-1.94080 -3.98379 0.90994 78 81 96
-1.95754 -3.99215 0.89565 14 9 31
-1.99909 -3.94494 0.91150 51 53 57
-3.10247 -4.42853 1.06667 29 30 29
-3.09111 -4.42088 1.04875 20 19 17
-3.11823 -4.43243 1.06857 49 50 41
-3.13655 -4.43136 1.07021 66 67 49
-3.14788 -4.43898 1.08807 75 69 61
-3.15021 -4.43917 1.07232 75 69 57
-3.15253 -4.43935 1.05657 73 66 56
-4.12133 -5.42071 1.26617 124 119 90
-4.13868 -5.42938 1.25136 121 115 86
-4.12861 -5.90088 1.31635 98 95 54
-4.13922 -5.93961 1.32135 108 107 73
-4.14609 -5.99981 1.32821 110 113 103
-4.16524 -6.00938 1.31186 117 121 133
-4.15335 -6.05970 1.33507 111 123 124
-4.17269 -6.06937 1.31857 108 121 138
-4.33395 -6.29811 1.37688 131 145 151
-4.31994 -6.28868 1.35479 130 143 143
-4.35151 -6.30294 1.37905 143 160 166
-4.36959 -6.30360 1.38085 151 166 177
0.96487 -4.16505 0.62857 44 42 49
0.98752 -4.15373 0.64790 63 59 57
0.98422 -4.15399 0.62558 94 92 91
0.98092 -4.15425 0.60327 127 129 125
0.94882 -4.17585 0.65387 35 37 40
0.94553 -4.17611 0.63156 39 39 40
0.92716 -4.25603 0.64132 61 56 46
0.95003 -4.24460 0.66084 49 48 51
0.94670 -4.24486 0.63831 54 54 49
0.92504 -4.27779 0.64370 76 69 65
0.94927 -4.31582 0.64514 98 94 93
0.91190 -4.31624 0.64882 118 119 112
0.88887 -4.32776 0.62916 142 141 132
0.89994 -4.33227 0.65158 136 135 126
0.87688 -4.34380 0.63190 143 141 136
0.80850 -4.39312 0.66656 147 140 141
0.79214 -4.40413 0.69236 138 141 127
0.78878 -4.40440 0.66960 147 140 135
-1.93010 -3.97458 0.89123 71 71 81
-1.91824 -3.96660 0.87254 109 109 92
-2.05238 -3.93665 0.89934 38 41 53
-2.04077 -3.92883 0.88103 22 20 34
-2.05000 -3.93646 0.91549 30 24 34
-2.05476 -3.93683 0.88319 37 37 44
-2.06399 -3.94446 0.91765 30 27 23
-2.12182 -3.90707 0.90314 46 40 40
-2.13327 -3.91478 0.92120 30 23 23
-2.13798 -3.91515 0.88935 54 50 55
-3.10537 -4.42765 1.05081 29 25 27
-3.09401 -4.42000 1.03290 18 19 18
-3.14047 -4.42850 1.05431 65 68 49
-3.15643 -4.43648 1.04068 69 66 55
-3.20714 -4.40108 1.05806 65 64 38
-3.19138 -4.39321 1.07151 74 69 51
-3.20484 -4.40090 1.07359 72 69 46
-3.20943 -4.40126 1.04254 53 45 27
-3.21831 -4.40860 1.07567 75 72 48
-3.23791 -4.37432 1.05839 68 71 38
-3.24897 -4.38176 1.07583 79 76 54
-3.25965 -4.36506 1.05958 76 76 49
-3.27067 -4.37248 1.07695 85 81 61
-3.27293 -4.37266 1.06163 82 80 61
-4.12631 -5.92771 1.29991 109 108 94
-4.14527 -5.93719 1.28372 116 120 127
-4.34192 -6.26209 1.35428 136 152 145
-4.35843 -6.27366 1.35704 149 164 163
-4.37655 -6.27332 1.35877 158 170 174
-4.39617 -6.28313 1.34202 170 184 193
-4.39205 -6.29254 1.36219 162 176 188
-4.40598 -6.30191 1.38415 171 182 188
-4.40884 -6.30214 1.36478 166 179 198
-4.41170 -6.30236 1.34542 166 183 201
0.96151 -4.16527 0.60626 74 68 62
0.97756 -4.15447 0.58095 147 153 150
0.94592 -4.17855 0.60909 48 42 41
0.92656 -4.18961 0.61207 47 50 50
0.92326 -4.18987 0.58974 44 42 46
0.92186 -4.23219 0.61666 57 51 51
0.94464 -4.22080 0.63611 50 51 50
0.94133 -4.22106 0.61365 51 50 53
0.91595 -4.25153 0.61911 78 67 58
0.93765 -4.28776 0.62046 107 98 92
0.91867 -4.29940 0.62347 128 128 119
0.90943 -4.31705 0.62609 139 139 125
0.84437 -4.37069 0.63772 149 146 131
0.86410 -4.35941 0.63467 147 143 135
0.82129 -4.38223 0.61801 159 155 146
0.80991 -4.37259 0.64132 152 151 136
0.78688 -4.38411 0.62166 162 157 156
0.78852 -4.38275 0.64442 159 153 147
0.76550 -4.39426 0.62477 163 157 157
0.75574 -4.38555 0.64794 161 152 149
0.73611 -4.39677 0.65097 157 153 147
0.73276 -4.39703 0.62833 158 154 149
-1.92401 -3.98378 0.87477 90 88 69
-1.91212 -3.97578 0.85602 86 88 87
-1.92645 -3.98397 0.85824 83 78 68
-1.91821 -4.01337 0.87705 39 30 24
-1.93263 -4.02162 0.87928 16 9 18
-2.07143 -3.94192 0.88534 44 44 49
-2.05982 -3.93412 0.86705 27 29 29
-2.07381 -3.94211 0.86920 36 41 37
-2.08780 -3.95011 0.87136 42 43 48
-3.10468 -4.43354 1.03527 27 22 29
-3.09330 -4.42589 1.01733 18 19 19
-3.11819 -4.44177 1.03741 46 44 40
-3.17972 -4.42540 1.04192 63 58 39
-3.23792 -4.37901 1.04321 53 56 25
-3.26257 -4.36391 1.04419 66 72 42
-3.28203 -4.35895 1.04564 79 78 60
-3.29301 -4.36634 1.06295 89 85 66
-3.29526 -4.36652 1.04769 89 84 66
-4.33059 -6.23461 1.33083 136 146 148
-4.31101 -6.22483 1.34755 124 135 143
-4.31386 -6.22505 1.32825 129 136 146
-4.34711 -6.24569 1.33354 144 158 156
-4.36703 -6.23195 1.33419 157 171 174
-4.38318 -6.24528 1.33708 170 182 184
-4.40270 -6.25504 1.32042 176 190 196
0.99631 -4.18788 0.58218 101 105 92
1.01246 -4.17701 0.55672 152 161 169
0.93977 -4.17713 0.58689 54 52 49
0.91821 -4.20949 0.59209 61 58 48
0.93047 -4.23963 0.59366 89 82 64
0.93809 -4.26720 0.59547 117 109 94
0.91962 -4.27909 0.59845 135 129 117
0.91066 -4.29681 0.60101 143 142 130
0.89648 -4.31139 0.60380 147 148 132
0.87669 -4.32254 0.60684 149 146 137
0.85026 -4.35310 0.61236 156 151 148
0.82722 -4.36462 0.59269 165 160 154
0.82512 -4.36090 0.61563 159 154 144
0.80209 -4.37241 0.59597 165 160 154
-1.90835 -4.02667 0.86040 44 37 37
-1.92480 -4.03283 0.86263 15 11 22
-1.94174 -4.04130 0.84818 11 13 12
-3.10508 -4.43741 1.01960 26 20 31
-3.09369 -4.42974 1.00164 16 20 23
-3.12002 -4.44293 1.02162 45 42 40
-3.14136 -4.43609 1.02314 63 69 47
-3.15736 -4.44409 1.00948 69 69 55
-3.18513 -4.41950 1.02601 59 54 37
-3.23363 -4.35810 1.02517 43 29 18
-3.24727 -4.36506 1.02720 33 29 15
-3.25972 -4.37440 1.02933 47 50 30
-3.28303 -4.36167 1.03049 69 73 52
-3.29998 -4.36164 1.03220 86 83 61
-3.31094 -4.36902 1.04948 99 90 69
-3.31319 -4.36920 1.03424 96 89 68
-4.09957 -5.90887 1.25747 117 125 118
-4.11853 -5.91835 1.24129 126 132 140
-4.13358 -5.91885 1.26184 121 128 128
-4.15252 -5.92831 1.24568 119 128 133
-4.32157 -6.19197 1.30633 133 142 145
-4.30211 -6.18224 1.32295 127 135 145
-4.30494 -6.18246 1.30377 129 139 139
-4.33770 -6.20497 1.30918 147 159 159
-4.35653 -6.19880 1.31050 157 170 169
-4.37273 -6.21113 1.31329 169 182 186
-4.39217 -6.22085 1.29670 179 192 199
-4.38886 -6.22420 1.31614 180 195 196
-4.40830 -6.23392 1.29954 176 186 197
0.95200 -4.16408 0.56177 124 137 137
0.96805 -4.15329 0.53648 149 160 174
0.94172 -4.18048 0.56431 73 71 85
0.92529 -4.19330 0.56715 61 49 67
0.93745 -4.22324 0.56860 97 90 76
0.95107 -4.25429 0.57000 130 125 101
0.91575 -4.25596 0.57378 146 142 127
0.89675 -4.29059 0.57886 148 149 143
0.87381 -4.30206 0.55928 166 167 159
0.88746 -4.30816 0.58140 154 158 150
0.86449 -4.31965 0.56179 165 167 159
0.86709 -4.31892 0.58447 159 160 152
0.84412 -4.33041 0.56486 159 164 160
0.85301 -4.33361 0.58724 159 160 157
0.83002 -4.34511 0.56761 159 161 160
-1.91736 -3.99636 0.84162 100 100 100
-1.90298 -3.98813 0.83940 84 87 97
-1.90543 -3.98833 0.82281 102 113 102
-1.91981 -3.99655 0.82503 116 116 105
-1.91611 -4.02123 0.84373 69 72 68
-1.91192 -4.04948 0.84585 24 23 23
-1.92894 -4.05799 0.83133 14 13 6
-3.10433 -4.44343 1.00397 23 19 31
-3.09293 -4.43576 0.98599 17 22 22
-3.10667 -4.44362 0.98811 18 19 23
-3.11856 -4.45037 1.00606 41 37 38
-3.14247 -4.43863 1.00746 61 66 45
-3.15848 -4.44663 0.99380 71 67 48
-3.17973 -4.43481 1.01095 64 62 42
-3.25145 -4.36142 1.01170 29 18 11
-3.26354 -4.37144 1.01385 31 20 19
-3.28083 -4.37092 1.01558 43 50 43
-3.32138 -4.35707 1.01850 90 88 71
-3.33231 -4.36442 1.03572 105 96 72
-3.33455 -4.36460 1.02053 102 96 73
-4.29504 -6.14751 1.28010 127 136 137
-4.27567 -6.13782 1.29664 116 129 135
-4.27849 -6.13804 1.27755 121 129 135
-4.29222 -6.14728 1.29920 120 134 136
-4.31067 -6.16317 1.28312 135 145 143
-4.32752 -6.17077 1.28554 141 151 154
-4.34508 -6.17326 1.28757 153 165 167
-4.36444 -6.18294 1.27104 165 172 184
-4.36155 -6.18325 1.29016 162 173 176
-4.38091 -6.19293 1.27363 168 177 195
-4.37638 -6.20536 1.29368 171 183 191
-4.39579 -6.21507 1.27711 171 182 199
-4.48952 -6.14551 1.29992 168 185 199
-4.47051 -6.13601 1.31614 165 175 187
-4.47328 -6.13622 1.29741 161 176 193
-4.47605 -6.13644 1.27867 153 168 195
-4.50853 -6.15501 1.28369 178 192 209
-4.50727 -6.14158 1.30139 179 197 202
-4.52623 -6.15106 1.28520 182 196 204
0.96806 -4.17571 0.53843 133 140 146
0.98415 -4.16488 0.51306 148 156 162
0.97035 -4.19961 0.54027 112 108 111
0.95027 -4.21038 0.54331 118 110 111
0.93224 -4.22237 0.54624 139 137 127
0.90945 -4.23376 0.52678 160 161 153
0.91525 -4.23499 0.54911 152 151 139
0.89246 -4.24639 0.52965 165 164 151
0.90464 -4.25150 0.55166 158 156 145
0.88181 -4.26292 0.53217 165 165 153
0.89939 -4.27135 0.55393 157 157 147
0.87650 -4.28279 0.53440 164 165 158
0.88757 -4.28728 0.55656 159 161 154
0.86466 -4.29873 0.53699 166 168 158
-1.89681 -4.04462 0.82680 104 87 76
-1.88474 -4.03650 0.80777 106 107 101
-1.90059 -4.06450 0.82893 48 30 22
-1.93202 -4.07876 0.83346 16 21 16
-1.92954 -4.07856 0.85029 19 24 19
-1.94413 -4.08690 0.85254 29 32 29
-1.94661 -4.08710 0.83571 25 27 28
-3.12488 -4.44295 0.98996 35 35 28
-3.11350 -4.43529 0.97202 17 18 14
-3.14260 -4.44307 0.99183 60 64 36
-3.15862 -4.45108 0.97815 73 68 44
-3.17468 -4.44948 0.99574 70 68 45
-3.20084 -4.43250 0.99700 62 60 32
-3.21672 -4.44044 0.98344 69 66 38
-3.24825 -4.37253 0.99674 48 35 21
-3.26830 -4.36658 0.99832 32 18 24
-3.28290 -4.37150 1.00028 24 24 41
-3.29844 -4.37926 0.98702 30 24 34
-3.30258 -4.36592 1.00185 45 49 56
-3.32720 -4.34982 1.00303 71 75 71
-3.33880 -4.36057 1.00518 98 97 75
-3.34972 -4.36791 1.02239 111 104 78
-3.35196 -4.36809 1.00721 110 103 76
-4.29123 -6.07408 1.25391 125 132 137
-4.27208 -6.06450 1.27025 120 130 135
-4.27486 -6.06472 1.25138 120 129 133
-4.30574 -6.09565 1.25730 139 148 147
-4.31995 -6.11977 1.26089 149 158 150
-4.33503 -6.13857 1.26410 160 168 166
-4.35431 -6.14821 1.24765 161 173 187
-4.34950 -6.16214 1.26767 164 173 179
-4.36883 -6.17180 1.25117 167 179 185
0.95750 -4.17170 0.51647 143 145 148
0.97357 -4.16089 0.49113 170 170 162
0.93943 -4.18355 0.51938 153 154 138
0.92181 -4.19568 0.52228 161 161 147
0.89912 -4.20702 0.50291 163 163 157
0.90870 -4.21052 0.52492 157 158 155
0.88599 -4.22187 0.50553 160 163 150
-1.98462 -3.84028 0.80197 118 106 95
-1.96840 -3.83217 0.81581 117 117 105
-1.97076 -3.83236 0.79983 127 117 112
-1.97312 -3.83254 0.78385 125 117 113
-1.99611 -3.84801 0.82009 79 89 103
-2.00083 -3.84839 0.78812 75 75 73
-1.88434 -4.06077 0.80976 111 104 85
-1.87221 -4.05261 0.79065 106 105 108
-1.88588 -4.08317 0.81180 60 48 33
-1.90393 -4.08791 0.81412 18 13 16
-1.92109 -4.09649 0.79947 14 10 15
-1.92129 -4.09335 0.81643 14 17 21
-1.93664 -4.10096 0.81870 23 25 29
-1.94879 -4.10913 0.83786 35 35 29
-1.95129 -4.10933 0.82096 37 32 30
-1.95378 -4.10953 0.80407 31 26 37
-3.12540 -4.44662 0.97423 33 33 17
-3.11400 -4.43896 0.95628 21 16 19
-3.14256 -4.44783 0.97616 61 64 28
-3.18902 -4.46074 0.98219 79 84 61
-3.20502 -4.46873 0.96853 90 88 62
-3.26667 -4.37463 0.98325 55 45 33
-3.28986 -4.36209 0.98466 46 41 36
-3.32172 -4.36604 0.98839 39 36 49
-3.35973 -4.35656 0.99164 109 103 77
-3.37062 -4.36388 1.00880 116 109 83
-3.37285 -4.36406 0.99367 116 108 82
-3.37508 -4.36423 0.97854 117 107 81
-4.28086 -6.04457 1.23114 126 133 134
-4.26178 -6.03503 1.24743 117 131 131
-4.26455 -6.03525 1.22863 122 132 134
-4.29758 -6.05115 1.23347 135 139 139
-4.31119 -6.07824 1.23719 147 155 153
-4.32602 -6.09785 1.24042 154 166 163
-4.33941 -6.12794 1.24436 157 168 177
-4.35865 -6.13756 1.22794 166 179 189
-4.49862 -6.11519 1.26025 163 174 198
