ply
format ascii 1.0
element face 0
property list uchar int vertex_indices
element vertex 1326
property float x
property float y
property float z
property uchar diffuse_red
property uchar diffuse_green
property uchar diffuse_blue
end_header
2.34397 -2.87262 0.52920 103 82 53
2.35847 -2.86650 0.54058 108 87 59
2.35433 -2.86803 0.51342 120 92 61
2.32947 -2.87875 0.51782 107 84 58
2.32390 -2.90655 0.52784 124 99 55
2.30931 -2.91271 0.51639 134 102 54
2.21567 -3.03794 0.53052 148 122 99
2.23272 -3.07728 0.51844 188 184 161
2.21677 -3.07937 0.52219 195 183 158
2.20675 -3.08824 0.52308 189 171 159
2.19517 -3.09534 0.52472 188 178 164
2.18374 -3.10265 0.52627 188 178 163
2.15621 -3.09108 0.53570 193 181 166
2.11569 -3.06393 0.55152 200 189 180
2.09654 -3.06176 0.55693 202 189 177
2.07254 -3.05368 0.56475 206 198 180
2.05993 -3.05915 0.56698 220 207 177
2.07296 -3.09573 0.55648 165 155 116
2.06233 -3.10045 0.57267 109 100 94
2.06020 -3.10123 0.55873 116 100 84
1.85732 -2.95272 0.64042 124 116 115
1.85459 -2.96976 0.63783 153 137 123
1.84453 -2.97422 0.65316 156 138 129
1.84251 -2.97497 0.63996 159 137 123
1.84050 -2.97571 0.62676 155 136 126
1.53332 -3.09407 0.69738 184 177 193
1.51928 -3.10000 0.68636 191 189 200
1.53008 -3.11293 0.69457 187 185 200
1.51799 -3.11815 0.69670 160 162 190
1.51597 -3.11889 0.68349 176 174 191
1.26298 -2.91881 0.80184 122 147 184
1.25673 -2.93193 0.80092 127 134 159
1.24725 -2.93964 0.80190 121 96 130
1.23690 -2.94590 0.80338 126 108 130
1.23165 -2.96106 0.80180 129 112 136
1.23907 -2.99864 0.79257 136 131 160
1.22583 -3.00424 0.78217 149 152 172
1.24033 -3.02586 0.78696 145 150 172
1.22699 -3.03150 0.77648 148 156 178
1.23407 -3.04004 0.78583 146 152 176
1.21805 -3.06252 0.78564 132 140 164
1.22240 -3.09654 0.77791 92 95 133
1.20883 -3.10227 0.76725 57 56 97
1.23082 -3.13859 0.76754 58 60 110
1.21708 -3.14439 0.75676 60 62 93
1.21903 -3.14364 0.76964 56 57 100
1.20530 -3.14944 0.75885 57 61 89
1.19342 -3.23377 0.75881 49 46 89
1.20544 -3.22859 0.75668 45 50 89
1.20343 -3.22932 0.74355 45 47 87
1.19088 -3.25756 0.75485 62 61 91
1.17678 -3.26351 0.74378 76 84 104
1.18601 -3.27707 0.75233 75 78 105
1.17185 -3.28305 0.74121 81 84 105
1.16972 -3.30366 0.75141 83 86 105
1.16117 -3.31636 0.75117 88 94 108
1.14691 -3.32238 0.73997 93 99 119
1.14909 -3.35257 0.74729 89 93 115
1.14929 -3.38412 0.74111 69 67 95
1.15025 -3.41775 0.73433 48 46 77
1.13636 -3.48548 0.72479 49 51 87
1.15120 -3.47922 0.73644 44 50 82
1.14908 -3.48000 0.72255 46 47 79
1.14696 -3.48078 0.70866 50 48 84
1.13073 -3.50650 0.72218 57 60 99
1.12311 -3.52343 0.72088 66 74 111
1.11505 -3.53961 0.71983 66 74 107
1.10650 -3.55486 0.71910 64 66 101
1.10034 -3.57580 0.71664 51 53 83
1.08524 -3.58218 0.70479 42 45 71
1.09564 -3.60039 0.71309 42 45 74
1.08046 -3.60680 0.70117 37 45 61
1.08282 -3.64269 0.70822 40 49 68
1.08063 -3.64350 0.69387 38 46 65
1.06751 -3.64916 0.69620 39 45 64
1.07728 -3.66639 0.70506 38 49 72
1.06189 -3.67289 0.69297 41 45 71
1.07467 -3.69749 0.69970 41 45 77
1.05917 -3.70403 0.68753 43 47 71
1.07122 -3.72709 0.69485 41 45 77
1.05562 -3.73367 0.68261 47 48 64
1.05934 -3.73651 0.69611 45 47 64
1.05071 -3.75406 0.69495 54 56 67
1.03798 -3.76158 0.69681 80 88 110
1.03138 -3.78466 0.69405 77 80 95
1.02648 -3.81246 0.68993 60 64 87
1.02701 -3.85479 0.68157 47 47 81
1.01102 -3.86154 0.66902 42 41 74
0.99437 -3.93834 0.67385 24 28 72
1.00597 -3.93319 0.65618 41 39 66
1.01031 -4.02594 0.65269 87 102 130
0.99942 -4.04122 0.65256 132 144 160
0.98281 -4.04823 0.63952 137 146 158
0.97094 -4.05350 0.65759 136 145 155
0.97770 -4.11972 0.64297 110 116 119
0.98389 -4.18569 0.62855 57 55 57
0.96923 -4.19201 0.63114 49 50 56
0.96774 -4.23737 0.62272 84 88 90
0.96241 -4.27216 0.61735 110 112 109
0.94503 -4.27950 0.60371 122 122 121
0.80251 -4.35657 0.64262 131 131 127
0.80002 -4.35749 0.62629 134 137 128
0.78507 -4.36394 0.62893 132 136 134
0.73875 -4.36788 0.65703 135 134 127
0.75117 -4.36237 0.63812 138 140 131
0.73627 -4.36880 0.64076 136 134 127
0.70632 -4.37085 0.66490 135 136 141
0.69090 -4.37512 0.66809 129 124 129
0.67604 -4.38153 0.67072 126 124 130
0.61406 -4.39667 0.68392 125 123 129
0.62641 -4.39119 0.66511 132 145 143
0.59941 -4.40376 0.68636 123 124 122
0.56935 -4.41477 0.69206 130 131 129
0.56688 -4.41568 0.67587 130 134 130
0.55207 -4.42206 0.67849 125 128 138
0.54204 -4.43785 0.69469 120 121 139
0.53957 -4.43876 0.67846 124 124 127
0.52472 -4.44517 0.68109 124 125 128
0.52764 -4.44628 0.69681 129 133 142
0.51365 -4.45666 0.69843 133 136 144
0.49630 -4.46398 0.68482 126 127 131
0.37329 -4.47922 0.73062 117 118 120
0.38559 -4.47376 0.71189 128 131 124
0.37083 -4.48012 0.71450 124 122 121
0.35608 -4.48648 0.71711 122 122 121
0.09578 -4.62386 0.77483 125 119 118
0.10814 -4.61837 0.75600 125 122 118
0.09331 -4.62477 0.75862 123 121 118
0.07848 -4.63116 0.76125 122 116 119
0.08031 -4.62472 0.77869 120 117 108
-0.01372 -4.60915 0.80621 116 117 104
0.00336 -4.60194 0.81962 105 108 109
0.00092 -4.60284 0.80362 117 117 105
-0.01128 -4.60825 0.82221 110 112 98
-0.01616 -4.61005 0.79021 117 122 113
-0.02592 -4.61456 0.82480 112 110 100
-0.05963 -4.60493 0.81899 113 113 111
-0.05720 -4.60404 0.83491 114 114 118
-0.07177 -4.61032 0.83748 118 113 118
-0.07420 -4.61121 0.82157 117 117 111
-0.11659 -4.64806 0.82546 111 113 112
-0.09953 -4.64085 0.83885 113 114 112
-0.10197 -4.64175 0.82287 118 114 109
-0.11416 -4.64716 0.84143 112 119 116
-0.13065 -4.66250 0.82631 105 106 98
-0.14286 -4.66792 0.84491 103 110 99
-0.14530 -4.66882 0.82890 96 92 96
-0.15958 -4.68111 0.83024 102 102 105
-0.15714 -4.68020 0.84626 103 106 98
-0.17180 -4.68653 0.84886 98 100 94
-0.17669 -4.68833 0.81680 118 120 127
-0.24791 -4.71175 0.84730 114 116 102
-0.23571 -4.70634 0.82871 97 103 98
-0.25035 -4.71265 0.83129 105 107 105
-0.26270 -4.71468 0.85058 114 118 113
-0.27977 -4.72189 0.83718 95 91 96
-0.27738 -4.71954 0.85346 95 94 98
-0.28958 -4.72495 0.87204 96 97 93
-0.29202 -4.72585 0.85605 90 89 93
-0.29445 -4.72675 0.84006 92 91 89
2.65560 -2.57111 0.49317 114 91 68
2.66553 -2.56670 0.47804 159 129 93
2.65361 -2.57184 0.48015 165 133 98
2.64170 -2.57698 0.48226 174 139 104
2.64961 -2.58113 0.49276 134 113 86
2.63204 -2.58161 0.49727 156 126 101
2.61551 -2.58291 0.50134 164 132 104
2.59623 -2.59698 0.50361 177 146 104
2.57212 -2.60703 0.50794 188 159 107
2.55919 -2.62670 0.50744 192 165 122
2.53377 -2.65135 0.50923 192 167 132
2.51862 -2.65374 0.51273 181 152 121
2.50382 -2.65642 0.51607 159 126 97
2.48985 -2.66232 0.50511 125 98 77
2.49152 -2.66129 0.51834 135 106 83
2.47754 -2.66719 0.50737 124 99 74
2.48083 -2.66761 0.51989 123 95 77
2.46686 -2.67352 0.50891 121 95 75
2.44950 -2.71993 0.51776 123 96 64
2.44576 -2.73294 0.51617 108 78 48
2.44168 -2.74573 0.51471 74 50 34
2.42748 -2.75173 0.50356 72 47 45
2.43557 -2.75670 0.51414 71 57 43
2.43489 -2.77290 0.51112 109 91 68
2.43154 -2.78667 0.50927 127 100 78
2.42130 -2.79121 0.52486 132 102 70
2.41925 -2.79197 0.51144 130 100 75
2.41721 -2.79272 0.49802 129 98 77
2.34961 -2.88124 0.51205 116 93 54
2.33053 -2.91635 0.51011 115 90 65
2.34099 -2.91171 0.49418 101 81 59
2.23161 -3.05911 0.50781 134 109 82
2.24232 -3.05436 0.49149 131 107 73
2.24754 -3.09735 0.49608 164 147 129
2.22272 -3.08942 0.50415 177 168 157
2.21017 -3.09545 0.50625 175 164 152
2.20232 -3.10693 0.50603 177 169 152
2.20107 -3.12618 0.50256 180 168 146
2.18053 -3.12296 0.50857 177 163 147
2.16766 -3.12868 0.51082 175 158 162
2.13328 -3.10881 0.52375 178 166 167
2.08921 -3.07696 0.54159 191 181 166
2.06674 -3.07068 0.54872 204 195 171
2.05304 -3.07489 0.55148 194 180 148
2.01839 -3.05345 0.56479 125 104 101
2.00793 -3.05810 0.58073 109 102 97
2.00583 -3.05887 0.56701 102 99 93
1.87176 -2.99497 0.61477 146 131 125
1.27923 -2.90297 0.78819 133 147 183
1.28849 -2.89886 0.77409 138 151 189
1.27738 -2.90365 0.77605 133 149 186
1.27333 -2.91649 0.78707 112 124 168
1.26033 -2.92198 0.77686 130 145 175
1.26632 -2.92826 0.78658 127 151 178
1.26252 -2.94562 0.78414 132 142 164
1.24733 -2.94366 0.78851 128 111 150
1.24029 -2.95568 0.78798 132 117 140
1.25057 -2.99798 0.77693 136 136 159
1.23730 -3.00358 0.76652 147 155 173
1.24808 -3.01850 0.77352 141 150 170
1.23475 -3.02413 0.76306 151 155 178
1.22358 -3.05091 0.77354 134 142 175
1.22928 -3.08712 0.76489 89 92 134
1.23549 -3.12483 0.75581 61 53 100
1.22180 -3.13061 0.74506 63 65 98
1.20179 -3.25472 0.73897 55 53 94
1.19504 -3.27045 0.73763 69 76 101
1.17172 -3.31256 0.73541 87 91 107
1.16968 -3.31331 0.72205 90 94 109
1.15745 -3.31859 0.72421 93 98 116
1.16361 -3.32625 0.73483 91 97 111
1.14931 -3.33229 0.72360 92 100 122
1.15049 -3.36050 0.73150 94 101 122
1.14843 -3.36126 0.71801 94 104 126
1.14835 -3.38724 0.72678 88 90 109
1.14491 -3.44373 0.71651 58 55 83
1.13021 -3.44994 0.70498 49 51 87
1.13393 -3.48558 0.71112 53 56 90
1.13181 -3.48636 0.69723 51 59 91
1.11910 -3.49184 0.69948 58 67 92
1.12981 -3.50996 0.70738 63 71 98
1.12362 -3.53010 0.70502 65 75 98
1.10865 -3.53642 0.69327 52 60 81
1.11844 -3.55281 0.70189 54 63 89
1.10340 -3.55916 0.69008 56 58 91
1.11087 -3.57044 0.70039 54 54 93
1.10222 -3.58583 0.69961 47 47 81
1.08708 -3.59222 0.68773 43 45 65
1.05227 -3.76431 0.67743 52 53 64
1.04044 -3.77420 0.67857 76 90 108
1.03429 -3.79856 0.67537 69 73 93
1.03150 -3.83197 0.66950 54 53 84
1.01559 -3.83869 0.65701 43 42 75
1.02904 -3.86681 0.66326 46 44 77
1.01301 -3.87358 0.65067 43 42 76
0.99670 -3.95179 0.65494 24 30 69
1.00834 -3.94663 0.63721 40 38 65
1.01225 -4.03861 0.63370 86 100 127
1.00294 -4.05841 0.63223 132 144 157
0.98626 -4.06546 0.61914 138 146 159
0.97383 -4.06927 0.63771 135 144 155
0.98794 -4.15684 0.61671 106 115 121
0.98354 -4.19267 0.61078 65 63 60
0.96985 -4.20189 0.61254 74 71 71
0.96823 -4.24705 0.60404 106 109 109
0.95589 -4.26095 0.60453 119 120 116
0.93856 -4.26826 0.59092 122 126 127
0.88109 -4.29131 0.61812 123 128 122
0.89842 -4.28400 0.63173 119 120 114
0.89594 -4.28491 0.61550 121 125 117
0.89347 -4.28582 0.59927 119 126 120
0.88357 -4.29040 0.63435 120 123 119
0.82648 -4.33305 0.62419 131 131 135
0.84387 -4.32571 0.63784 126 127 128
0.84139 -4.32662 0.62155 126 128 129
0.82896 -4.33213 0.64047 128 130 131
0.81309 -4.34466 0.62540 133 133 130
0.71702 -4.35908 0.64772 138 137 142
0.71454 -4.35999 0.63150 146 150 147
0.70093 -4.36079 0.65160 136 139 144
0.68363 -4.36810 0.63802 114 109 108
0.68390 -4.35881 0.65645 126 123 114
0.66854 -4.36298 0.65965 129 133 133
0.65128 -4.37027 0.64611 131 137 130
0.65254 -4.36464 0.66351 131 134 130
0.60911 -4.38739 0.67040 122 125 131
0.62143 -4.38192 0.65163 135 145 149
0.59367 -4.39103 0.67372 126 125 122
0.57930 -4.39912 0.67589 122 122 122
0.56206 -4.40640 0.66235 126 132 132
0.24403 -4.47502 0.74873 124 124 117
0.26103 -4.46785 0.76207 126 128 124
0.25860 -4.46874 0.74615 126 128 122
0.25618 -4.46964 0.73023 123 122 123
0.22946 -4.48131 0.75130 119 116 108
0.22703 -4.48220 0.73538 112 108 107
0.06134 -4.61688 0.76856 120 120 114
0.07364 -4.61142 0.74982 124 117 118
0.04903 -4.62233 0.78730 106 110 109
0.04657 -4.62324 0.77117 108 108 96
-0.06144 -4.61303 0.80149 118 118 110
-0.06388 -4.61392 0.78555 112 112 109
-0.07656 -4.61283 0.80549 119 123 120
-0.09113 -4.61911 0.80807 130 133 124
-0.10463 -4.63966 0.80754 124 120 108
-0.11898 -4.64960 0.80934 114 108 102
-0.13605 -4.65680 0.79594 107 100 90
-0.13341 -4.65887 0.81128 103 103 94
-0.14802 -4.66551 0.81380 92 98 98
-0.16510 -4.67272 0.80040 104 107 105
-0.16283 -4.66907 0.81698 101 106 115
-0.17990 -4.67628 0.80358 111 109 115
-0.26534 -4.71031 0.83569 103 100 108
-0.28240 -4.71751 0.82230 96 92 96
2.62090 -2.57477 0.48818 177 141 110
2.63081 -2.57038 0.47310 182 153 104
2.61117 -2.58168 0.48935 179 146 114
2.59730 -2.58754 0.47846 186 158 118
2.55045 -2.60623 0.50042 192 164 132
2.54064 -2.62860 0.49851 192 167 130
2.53270 -2.63724 0.49886 182 157 136
2.52568 -2.64674 0.49880 164 138 125
2.51084 -2.64937 0.50218 140 113 96
2.49688 -2.65526 0.49122 124 97 78
2.50135 -2.65673 0.50320 127 99 81
2.48738 -2.66263 0.49223 124 99 75
2.45622 -2.71236 0.50390 132 103 71
2.46630 -2.70789 0.48856 125 97 52
2.45421 -2.71310 0.49070 131 102 53
2.44212 -2.71831 0.49283 129 103 66
2.45640 -2.72894 0.50052 128 100 64
2.45197 -2.74138 0.49919 119 92 54
2.44889 -2.75516 0.49723 97 71 43
2.43989 -2.78035 0.49453 83 62 65
2.35725 -2.89190 0.49388 122 95 52
2.34976 -2.90243 0.49373 114 87 57
2.33722 -2.92624 0.49225 104 84 57
2.33513 -2.92701 0.47850 101 84 34
2.22917 -3.05956 0.49391 130 106 78
2.23988 -3.05481 0.47760 116 104 77
2.22702 -3.06035 0.47987 114 98 76
2.22851 -3.07898 0.49018 135 111 91
2.21345 -3.08534 0.47836 126 111 108
2.24395 -3.11700 0.47847 138 119 109
2.26124 -3.15758 0.46575 138 118 109
2.25962 -3.17670 0.46233 129 113 109
2.26348 -3.20242 0.45614 122 102 103
2.25486 -3.21371 0.45615 114 91 97
2.25103 -3.23075 0.45373 105 92 108
2.16042 -3.14451 0.49494 130 121 128
2.12760 -3.12636 0.50724 150 146 141
2.09310 -3.10587 0.52045 161 157 134
2.08354 -3.11534 0.52107 172 165 143
2.05513 -3.10179 0.53128 129 133 124
1.99402 -3.04765 0.55827 103 100 85
1.87180 -2.97764 0.60455 81 70 79
1.86834 -2.99394 0.60218 132 119 119
1.87444 -3.02269 0.59479 155 135 128
1.86421 -3.02723 0.61037 154 136 127
1.86217 -3.02798 0.59696 156 134 124
1.86012 -3.02873 0.58356 154 133 122
1.28249 -2.93562 0.76828 124 141 177
1.29184 -2.93147 0.75404 136 150 185
1.28062 -2.93631 0.75602 130 149 179
1.26940 -2.94115 0.75800 132 147 174
1.27116 -2.96420 0.76552 134 144 170
1.26927 -2.96489 0.75318 136 148 175
1.26293 -2.97433 0.76565 135 139 164
1.25650 -2.98766 0.76466 139 143 161
1.24327 -2.99325 0.75427 148 155 175
1.23117 -3.04309 0.76019 148 156 176
1.24073 -3.03885 0.74562 153 157 178
1.23710 -3.07948 0.75131 92 97 152
1.24489 -3.11979 0.74115 55 52 99
1.23537 -3.12891 0.74182 51 44 87
1.21911 -3.15258 0.74135 60 60 92
1.20535 -3.15839 0.73054 47 48 84
1.21204 -3.16657 0.74040 52 53 88
1.20020 -3.17167 0.74249 47 50 86
1.19823 -3.17240 0.72956 44 48 85
1.20429 -3.23560 0.72856 48 47 80
1.21633 -3.23041 0.72643 43 50 83
1.21432 -3.23115 0.71328 44 50 83
1.20343 -3.26260 0.72336 64 65 97
1.19938 -3.28374 0.72017 74 82 106
1.18934 -3.29322 0.72091 76 84 101
1.18224 -3.30871 0.71967 82 87 102
1.14415 -3.38353 0.71466 100 107 124
1.15449 -3.37894 0.69891 91 102 126
1.13653 -3.39905 0.71354 94 97 111
1.14536 -3.44998 0.70098 67 69 93
1.13064 -3.45619 0.68942 45 50 81
1.12245 -3.53306 0.69031 60 62 86
1.12031 -3.53384 0.67628 59 60 87
1.10747 -3.53938 0.67855 54 60 86
1.10454 -3.59689 0.68219 49 49 77
1.08935 -3.60330 0.67028 42 46 62
1.07181 -3.77981 0.65403 46 49 71
1.08534 -3.77398 0.65164 44 47 67
1.08308 -3.77481 0.63686 44 49 71
1.05526 -3.77815 0.65873 55 56 73
1.04708 -3.79736 0.65702 70 80 95
1.04103 -3.82227 0.65360 57 59 86
1.02514 -3.82898 0.64113 41 43 69
1.03885 -3.85750 0.64710 46 44 76
1.02283 -3.86426 0.63453 41 42 75
1.00100 -3.97062 0.63432 30 40 70
1.01712 -4.05934 0.61224 91 109 131
0.99974 -4.05703 0.61728 134 146 159
0.98307 -4.06407 0.60419 136 145 161
0.97653 -4.08457 0.61786 133 144 155
0.99482 -4.18447 0.59295 105 113 122
0.98435 -4.20302 0.59198 77 73 62
0.97034 -4.21145 0.59397 89 85 77
0.96124 -4.23454 0.59173 113 115 122
0.94400 -4.24182 0.57819 126 127 135
0.94905 -4.24872 0.59209 122 124 126
0.93177 -4.25602 0.57852 126 128 132
0.87624 -4.28460 0.60406 125 134 134
0.85894 -4.29191 0.59048 132 139 142
0.86132 -4.29070 0.60676 129 139 136
0.84794 -4.30182 0.60805 129 131 125
0.83478 -4.31382 0.60911 128 130 127
0.81745 -4.32114 0.59550 141 149 146
0.81992 -4.32020 0.61174 138 143 140
0.80258 -4.32752 0.59813 145 149 140
0.80655 -4.33171 0.61295 142 145 135
0.79010 -4.33270 0.61708 138 143 130
0.77525 -4.33910 0.61971 130 130 133
0.77277 -4.34001 0.60348 133 129 136
0.69603 -4.35257 0.63787 131 130 142
0.70836 -4.34710 0.61909 142 145 151
0.66501 -4.35977 0.64460 130 138 136
0.64777 -4.36705 0.63107 129 135 133
0.60161 -4.36755 0.65974 128 134 138
0.61387 -4.36211 0.64106 137 146 145
0.58444 -4.37480 0.64626 132 135 135
0.58643 -4.37193 0.66286 135 139 133
0.56927 -4.37918 0.64939 127 132 128
0.57119 -4.37602 0.66605 125 130 125
0.55404 -4.38326 0.65259 127 134 135
0.24095 -4.47170 0.73383 120 114 117
0.25308 -4.46632 0.71535 128 127 128
0.16817 -4.50313 0.74669 121 119 129
0.18515 -4.49595 0.76002 118 117 118
0.18272 -4.49685 0.74411 121 116 122
0.18030 -4.49774 0.72821 123 118 123
0.17059 -4.50223 0.76259 120 118 121
0.15361 -4.50940 0.74926 127 127 132
0.13822 -4.50940 0.75331 123 124 119
0.14065 -4.50850 0.76920 121 123 122
0.13580 -4.51029 0.73743 119 116 118
0.12611 -4.51477 0.77177 123 123 120
0.12126 -4.51656 0.74000 117 118 111
0.04058 -4.59143 0.76255 115 110 101
0.02592 -4.59775 0.76514 111 109 109
0.02348 -4.59865 0.74912 113 114 111
-0.02047 -4.59120 0.77868 107 108 115
-0.00589 -4.58492 0.77610 112 109 99
-0.03748 -4.59839 0.76533 116 111 106
-0.07908 -4.61270 0.78980 111 112 119
-0.06694 -4.60732 0.77131 112 116 122
-0.08150 -4.61360 0.77388 107 106 112
-0.09607 -4.61988 0.77646 111 112 102
-0.09370 -4.61831 0.79252 119 119 120
-0.11069 -4.62548 0.77918 110 115 110
-0.10809 -4.62691 0.79458 118 117 107
-0.12253 -4.63493 0.79678 113 110 96
-0.15131 -4.65331 0.80067 105 110 95
-0.15374 -4.65421 0.78472 107 107 99
-0.16834 -4.66050 0.78730 100 103 111
-0.25365 -4.69346 0.81956 113 111 109
-0.23906 -4.68718 0.81698 106 104 107
-0.24149 -4.68807 0.80104 103 101 98
-0.27066 -4.70065 0.80620 95 90 88
-0.26810 -4.70298 0.82145 104 100 99
-0.29722 -4.71756 0.82619 96 93 98
-0.30939 -4.72296 0.84473 91 92 86
-0.31426 -4.72475 0.81282 105 111 113
-0.31176 -4.72610 0.82830 93 92 100
-0.32393 -4.73151 0.84685 99 99 92
-0.32636 -4.73240 0.83089 103 101 98
2.61499 -2.57224 0.47691 183 152 108
2.62488 -2.56785 0.46184 187 156 110
2.60114 -2.57809 0.46604 191 158 122
2.60649 -2.58016 0.47754 184 155 113
2.59262 -2.58601 0.46666 191 160 124
2.57194 -2.59646 0.48336 192 160 123
2.56996 -2.59719 0.47037 195 165 139
2.54284 -2.60213 0.48991 194 168 130
2.53066 -2.62239 0.48899 165 138 88
2.51792 -2.64240 0.48828 127 106 83
2.50397 -2.64829 0.47733 120 97 77
2.50647 -2.64800 0.49016 123 100 76
2.49252 -2.65389 0.47922 119 96 81
2.45999 -2.75150 0.48131 125 101 59
2.47016 -2.74699 0.46581 124 103 81
2.45518 -2.76373 0.48008 111 90 45
2.45390 -2.77938 0.47722 81 58 52
2.44451 -2.78744 0.47806 71 47 63
2.44107 -2.80124 0.47615 97 79 68
2.43655 -2.81409 0.47472 119 98 76
2.42624 -2.81866 0.49043 129 97 76
2.42418 -2.81942 0.47691 125 98 70
2.42212 -2.82018 0.46339 123 101 67
2.36422 -2.90190 0.47593 127 99 60
2.37467 -2.89726 0.46000 130 100 74
2.36213 -2.90267 0.46222 129 99 70
2.35629 -2.91205 0.47595 120 93 57
2.34760 -2.92147 0.47633 100 84 47
2.33292 -2.92767 0.46480 102 80 50
2.23060 -3.08459 0.47397 119 102 92
2.26705 -3.16764 0.44732 135 121 108
2.25741 -3.17752 0.44785 102 98 89
2.29264 -3.23992 0.42575 67 55 39
2.26671 -3.23110 0.43443 52 31 50
2.25104 -3.23771 0.42213 43 28 41
2.24276 -3.22442 0.44214 38 32 44
2.22307 -3.22266 0.44772 78 77 53
2.13007 -3.13271 0.49076 121 131 117
2.10428 -3.12276 0.49963 131 142 130
2.08799 -3.12416 0.50366 130 135 126
2.02324 -3.06608 0.53270 111 105 121
2.00854 -3.07228 0.52116 70 65 82
1.86348 -2.97039 0.59460 58 55 65
1.87356 -2.96592 0.57925 98 88 86
1.86147 -2.97114 0.58139 65 61 77
1.85970 -3.00710 0.58810 146 133 128
1.84546 -3.01311 0.57692 150 133 125
1.26791 -2.98683 0.74905 140 152 174
1.27737 -2.98263 0.73464 140 153 179
1.26602 -2.98752 0.73665 144 153 180
1.25466 -2.99242 0.73865 147 155 170
1.23154 -3.04789 0.74620 142 147 164
1.25089 -3.10862 0.72865 61 63 110
1.23723 -3.11439 0.71793 38 47 87
1.24215 -3.11909 0.72883 40 44 87
1.22847 -3.12486 0.71808 44 48 86
1.23202 -3.12707 0.72988 45 47 87
1.21832 -3.13285 0.71913 47 49 86
1.22668 -3.14400 0.72783 54 58 96
1.21293 -3.14981 0.71704 48 48 84
1.21631 -3.15174 0.72899 52 52 89
1.20255 -3.15755 0.71819 47 47 81
1.20649 -3.24449 0.71262 53 54 81
1.21655 -3.24003 0.69731 47 50 84
1.19242 -3.25044 0.70157 62 67 85
1.20424 -3.26888 0.70823 66 72 93
1.19717 -3.28413 0.70699 69 76 96
1.18958 -3.29851 0.70606 68 71 95
1.18283 -3.31474 0.70453 75 79 100
1.17526 -3.32950 0.70351 84 88 110
1.16674 -3.34251 0.70311 89 95 119
1.15442 -3.34782 0.70529 91 100 126
1.14415 -3.38865 0.69966 91 101 122
1.14340 -3.41881 0.69369 82 89 109
1.14692 -3.45860 0.68462 60 66 87
1.13217 -3.46483 0.67304 43 49 77
1.11518 -3.59163 0.66582 53 57 88
1.12603 -3.58682 0.64930 48 54 83
1.11301 -3.59243 0.65160 50 53 84
1.10939 -3.61382 0.66281 47 50 74
1.07727 -3.79967 0.63331 46 52 78
1.08860 -3.79464 0.61605 47 49 70
1.06140 -3.80637 0.62085 55 64 81
1.06096 -3.79877 0.63782 55 64 80
1.04998 -3.81117 0.63819 61 67 85
1.04365 -3.83554 0.63488 46 52 77
1.02771 -3.84227 0.62237 40 42 73
1.01420 -3.96949 0.61529 38 38 64
1.03058 -3.96258 0.62815 42 43 74
1.02824 -3.96344 0.61281 43 42 72
1.00268 -3.98238 0.61571 55 66 85
1.01067 -4.04907 0.59995 109 125 145
0.99402 -4.05610 0.58687 137 147 163
0.99879 -4.06189 0.60047 137 147 164
0.97871 -4.09847 0.59831 131 142 155
0.98921 -4.17629 0.57961 108 117 128
0.97790 -4.19230 0.57933 92 93 91
0.97078 -4.22086 0.57538 102 102 103
0.95443 -4.22248 0.57938 119 121 132
0.93724 -4.22974 0.56588 131 131 136
0.89952 -4.26052 0.58615 126 133 126
0.91676 -4.25324 0.59969 121 128 129
0.91430 -4.25415 0.58354 127 133 131
0.91183 -4.25506 0.56739 136 139 136
0.90198 -4.25962 0.60230 121 128 123
0.87035 -4.27455 0.59101 127 133 141
0.84078 -4.28730 0.59624 136 138 133
0.82353 -4.29459 0.58269 142 148 148
0.82792 -4.30012 0.59702 135 139 136
0.81065 -4.30741 0.58346 140 144 144
0.72966 -4.30437 0.62219 144 147 139
0.74435 -4.29804 0.61959 143 147 140
0.73211 -4.30347 0.63824 140 140 137
0.72721 -4.30527 0.60614 144 150 144
0.71497 -4.31070 0.62479 132 136 139
0.71252 -4.31161 0.60873 131 135 141
0.68868 -4.33504 0.62678 134 131 141
0.65850 -4.34497 0.63274 128 134 136
0.64133 -4.35222 0.61926 131 137 138
0.59638 -4.35699 0.64674 131 134 139
0.57926 -4.36422 0.63330 127 126 134
0.23723 -4.46426 0.71997 128 125 122
0.23480 -4.46515 0.70409 124 129 124
0.22027 -4.47142 0.70666 120 125 118
0.22333 -4.47472 0.72151 115 114 109
0.21121 -4.48009 0.73998 110 110 106
0.20636 -4.48188 0.70819 118 117 117
0.15015 -4.50264 0.73519 117 112 113
0.16226 -4.49727 0.71674 110 110 112
0.14773 -4.50353 0.71931 114 113 110
0.13320 -4.50980 0.72188 118 116 120
0.03583 -4.57080 0.75154 110 113 110
0.03340 -4.57170 0.73560 114 114 115
0.01881 -4.57799 0.73818 117 110 113
-0.00907 -4.57806 0.76196 115 112 110
0.00791 -4.57089 0.77529 111 108 105
0.00548 -4.57178 0.75939 111 113 110
-0.02390 -4.58141 0.76520 114 110 111
-0.12570 -4.62538 0.78319 110 108 106
-0.12813 -4.62627 0.76729 115 119 127
-0.14005 -4.63454 0.78511 112 110 94
-0.15703 -4.64171 0.77178 107 108 97
-0.28544 -4.70148 0.80994 96 96 96
-0.27330 -4.69610 0.79145 90 93 92
-0.30243 -4.70866 0.79660 102 100 103
-0.29998 -4.70866 0.81233 101 103 106
2.56437 -2.57731 0.47600 193 163 131
2.57422 -2.57294 0.46100 194 169 129
2.53691 -2.59946 0.47871 174 147 120
2.52890 -2.62332 0.47588 129 107 84
2.51500 -2.62918 0.46497 125 100 79
2.52384 -2.63444 0.47491 125 100 83
2.50991 -2.64032 0.46398 123 97 76
2.47115 -2.76460 0.46188 125 102 74
2.46910 -2.76535 0.44848 123 98 76
2.46834 -2.77879 0.45968 124 98 50
2.45679 -2.80185 0.45796 76 50 33
2.44237 -2.80794 0.44664 77 45 53
2.45444 -2.81678 0.45548 77 58 51
2.44205 -2.82214 0.45767 107 88 72
2.36489 -2.92380 0.45709 122 95 58
2.36278 -2.92457 0.44330 124 96 29
2.35017 -2.93001 0.44553 118 93 48
2.35620 -2.93330 0.45742 111 88 52
2.33081 -2.96283 0.45805 118 94 70
2.25294 -3.07270 0.45594 99 96 92
2.26802 -3.06633 0.46778 129 106 81
2.26587 -3.06713 0.45366 114 101 96
2.23251 -3.06977 0.46200 109 108 103
2.25549 -3.11621 0.44622 136 131 136
2.29170 -3.17838 0.42364 154 155 156
2.30921 -3.21969 0.41038 163 164 152
2.28503 -3.21302 0.41821 150 149 128
2.29995 -3.25195 0.40614 82 73 61
2.27030 -3.23880 0.41677 52 32 37
2.22670 -3.23047 0.43012 34 23 39
2.22447 -3.23129 0.41551 38 28 42
2.21110 -3.23706 0.41787 37 27 38
2.20839 -3.23031 0.43503 38 36 50
2.18915 -3.22892 0.44045 43 46 54
2.17074 -3.22847 0.44545 41 40 55
2.16195 -3.23973 0.44545 48 48 73
2.14642 -3.24629 0.43325 64 62 71
1.86126 -2.99157 0.57719 85 84 83
1.87139 -2.98708 0.56176 84 70 85
1.84151 -2.98702 0.58340 131 125 119
1.53195 -3.20549 0.62045 160 160 187
1.51751 -3.21159 0.60911 156 163 192
1.52279 -3.21603 0.62070 156 164 178
1.52286 -3.24164 0.61535 136 149 180
1.51246 -3.24625 0.63119 135 152 189
1.51038 -3.24702 0.61756 132 148 191
1.50830 -3.24779 0.60392 139 146 179
1.24259 -3.04626 0.73067 153 157 176
1.25409 -3.04130 0.72864 149 156 174
1.25218 -3.04201 0.71607 151 156 173
1.23388 -3.05624 0.73092 136 135 154
1.24909 -3.10962 0.71576 55 50 86
1.23543 -3.11539 0.70504 37 46 85
1.21441 -3.26450 0.69279 58 60 86
1.21238 -3.26525 0.67953 62 62 92
1.20079 -3.29603 0.68986 56 62 79
1.19875 -3.29678 0.67651 49 54 74
1.19350 -3.31113 0.68866 56 57 86
1.18743 -3.32886 0.68659 67 69 97
1.17308 -3.33492 0.67533 71 75 99
1.17940 -3.34283 0.68583 74 80 106
1.17425 -3.36287 0.68303 79 87 114
1.16278 -3.37010 0.68458 84 95 120
1.15419 -3.38339 0.68411 84 95 119
1.15423 -3.41502 0.67752 75 82 111
1.15986 -3.45905 0.66686 61 64 96
1.14509 -3.46528 0.65526 43 47 76
1.15151 -3.47376 0.66602 49 52 77
1.13669 -3.48002 0.65439 43 48 78
1.11264 -3.62709 0.64449 51 52 76
1.10947 -3.65585 0.63935 45 47 67
1.09847 -3.66073 0.65611 41 44 56
1.09627 -3.66154 0.64169 42 45 64
1.09407 -3.66235 0.62726 48 49 73
1.08063 -3.81440 0.61406 51 55 84
1.07836 -3.81524 0.59915 61 58 83
1.05503 -3.83047 0.61754 52 57 79
1.03909 -3.83720 0.60502 41 47 77
1.04806 -3.85344 0.61462 40 49 75
1.03205 -3.86020 0.60205 43 44 77
1.02587 -3.96423 0.59749 44 42 71
1.04225 -3.95731 0.61035 43 43 75
1.03991 -3.95818 0.59501 44 44 74
1.01877 -3.98897 0.59424 55 59 79
1.02784 -4.05812 0.57744 98 108 124
1.01112 -4.06518 0.56431 138 147 163
1.01187 -4.05978 0.58135 130 140 158
0.99517 -4.06683 0.56824 135 145 161
0.99157 -4.09560 0.57931 132 143 160
0.98391 -4.12098 0.57607 125 138 153
0.96703 -4.12811 0.56282 113 125 138
0.97780 -4.15133 0.57138 112 122 137
0.97383 -4.18845 0.56472 110 118 126
0.96490 -4.21168 0.56227 118 125 128
0.94938 -4.21562 0.56558 127 131 133
0.93221 -4.22287 0.55211 128 130 130
0.89348 -4.25024 0.57328 135 141 138
0.90577 -4.24479 0.55457 135 139 142
0.89103 -4.25114 0.55717 137 143 147
0.87628 -4.25750 0.55978 141 145 147
0.88126 -4.26460 0.57355 134 138 140
0.86382 -4.26238 0.57866 135 138 143
0.84662 -4.26964 0.56516 145 150 147
0.84727 -4.26284 0.58297 139 144 145
0.83010 -4.27009 0.56949 152 158 148
0.83473 -4.27636 0.58350 145 150 145
0.74063 -4.29437 0.60483 138 143 145
0.75530 -4.28805 0.60224 133 131 141
0.75286 -4.28895 0.58620 132 133 132
0.69651 -4.31300 0.61271 140 146 152
0.70874 -4.30757 0.59409 128 132 137
0.68228 -4.32100 0.61484 146 146 148
0.60481 -4.33609 0.63234 131 138 134
0.62188 -4.32888 0.64574 129 136 136
0.61944 -4.32978 0.62976 130 131 129
0.61700 -4.33068 0.61378 128 126 126
0.00219 -4.56405 0.74551 110 110 112
-0.00023 -4.56494 0.72964 107 101 100
-0.02783 -4.56615 0.75307 138 138 132
-0.04096 -4.58757 0.75212 127 122 114
-0.05308 -4.59295 0.77057 109 107 107
-0.05550 -4.59384 0.75469 116 110 114
-0.05792 -4.59473 0.73880 120 113 120
-0.11418 -4.61194 0.76656 117 123 115
-0.09966 -4.60568 0.76399 117 121 116
-0.14310 -4.62617 0.77130 117 111 106
-0.14552 -4.62707 0.75543 113 111 109
-0.16005 -4.63333 0.75800 104 106 107
2.55637 -2.57294 0.46578 191 170 130
2.55646 -2.58812 0.46255 177 156 106
2.55736 -2.60412 0.45892 154 133 76
2.53478 -2.61541 0.46259 128 102 85
2.52090 -2.62127 0.45169 125 101 73
2.47833 -2.79089 0.44061 124 100 67
2.48863 -2.78632 0.42492 122 100 81
2.47627 -2.79165 0.42710 126 103 78
2.47413 -2.80395 0.43897 116 95 59
2.46324 -2.81072 0.44046 97 66 49
2.44758 -2.84769 0.43684 113 96 67
2.43717 -2.85231 0.45269 127 101 67
2.43509 -2.85308 0.43904 128 100 70
2.37773 -2.92152 0.43994 128 100 45
2.39036 -2.91607 0.43771 129 100 68
2.38825 -2.91685 0.42391 129 101 72
2.35071 -2.94915 0.44134 111 84 55
2.33592 -2.95540 0.42973 100 81 62
2.33398 -2.96918 0.44159 109 82 69
2.32788 -2.98169 0.44058 121 100 65
2.31726 -2.98640 0.45676 129 102 77
2.31514 -2.98719 0.44283 127 102 74
2.28584 -3.07257 0.43262 110 91 83
2.30097 -3.06619 0.44450 126 101 82
2.29881 -3.06698 0.43033 115 102 82
2.28800 -3.07178 0.44679 122 104 87
2.26254 -3.06661 0.44013 109 102 107
2.31257 -3.18462 0.40177 176 171 175
2.29699 -3.19119 0.38955 183 182 200
2.32435 -3.21923 0.39130 182 180 188
2.30863 -3.22587 0.37896 186 184 194
2.31869 -3.23407 0.38968 183 180 185
2.30526 -3.23998 0.39202 184 180 172
2.28790 -3.24130 0.39640 137 133 111
1.86201 -2.99588 0.56241 70 60 72
1.87216 -2.99138 0.54696 94 84 80
1.83745 -3.00609 0.56683 147 132 119
1.82731 -3.01059 0.58228 153 129 123
1.82528 -3.01134 0.56898 153 131 118
1.82325 -3.01209 0.55568 151 132 125
1.53065 -3.25847 0.59568 155 161 189
1.52856 -3.25925 0.58197 155 164 193
1.51602 -3.26465 0.58419 156 160 182
1.24731 -3.05880 0.71382 153 156 175
1.25694 -3.05453 0.69916 152 155 174
1.24539 -3.05951 0.70120 151 156 176
1.23860 -3.06888 0.71402 139 137 151
1.24950 -3.11461 0.70143 55 47 74
1.19510 -3.31916 0.67276 52 54 84
1.20534 -3.31462 0.65717 52 57 80
1.19157 -3.34208 0.66886 66 68 96
1.17962 -3.37889 0.66428 71 75 95
1.17075 -3.39166 0.66395 74 82 100
1.16329 -3.40753 0.66260 74 84 105
1.16385 -3.47281 0.64864 50 50 87
1.14902 -3.47907 0.63700 41 45 73
1.12469 -3.62478 0.62700 61 61 89
1.13781 -3.61912 0.62468 49 53 77
1.11974 -3.64929 0.62314 64 68 88
1.11544 -3.67567 0.61872 55 54 74
1.09293 -3.81162 0.59601 51 52 68
1.10887 -3.80489 0.60852 41 49 73
1.10659 -3.80573 0.59359 43 50 68
1.09065 -3.81245 0.58108 53 57 72
1.06620 -3.82486 0.60037 53 54 81
1.05025 -3.83159 0.58786 43 43 75
1.05492 -3.83677 0.60087 46 47 78
1.03895 -3.84351 0.58834 42 45 72
1.03563 -3.95393 0.58127 49 43 76
1.05199 -3.94702 0.59411 42 42 76
1.04966 -3.94788 0.57879 45 42 77
1.04732 -3.94875 0.56347 52 46 84
1.03006 -3.98251 0.57672 52 51 85
1.03699 -4.04529 0.56159 90 98 120
1.02415 -4.05546 0.56288 126 137 155
1.00745 -4.06252 0.54976 135 144 161
0.99055 -4.10036 0.56239 130 141 157
1.00256 -4.09504 0.54409 134 144 160
0.98281 -4.12562 0.55912 118 131 147
0.96580 -4.17303 0.55365 127 139 136
0.95688 -4.19612 0.55116 136 143 136
0.94134 -4.19983 0.55454 132 135 133
0.85558 -4.24465 0.56804 143 147 144
0.86781 -4.23922 0.54941 145 148 147
0.85314 -4.24555 0.55201 146 150 147
0.83846 -4.25188 0.55460 142 146 147
0.69060 -4.30097 0.60034 139 150 152
0.70279 -4.29556 0.58177 128 131 131
0.68816 -4.30187 0.58436 137 144 144
0.67551 -4.30551 0.60342 145 150 149
0.65845 -4.31272 0.59003 125 128 133
0.66211 -4.31652 0.60469 133 131 132
0.64503 -4.32373 0.59128 129 135 133
0.59715 -4.31564 0.62228 121 124 128
0.58219 -4.32022 0.62532 121 119 123
0.56821 -4.32886 0.62724 126 131 141
0.55608 -4.33425 0.64571 128 131 131
0.55366 -4.33514 0.62981 130 134 134
0.53750 -4.33443 0.63429 128 131 124
0.53992 -4.33354 0.65016 128 133 131
0.52055 -4.34159 0.62098 122 118 124
0.52197 -4.33625 0.63807 123 117 120
0.50987 -4.34162 0.65649 125 125 126
0.50745 -4.34251 0.64063 124 120 123
0.50503 -4.34340 0.62477 121 120 121
0.47747 -4.35058 0.64696 116 121 121
0.49438 -4.34344 0.66024 123 124 125
0.49197 -4.34433 0.64440 122 124 122
0.47988 -4.34969 0.66280 118 122 125
0.46538 -4.35594 0.66537 119 124 125
0.46297 -4.35684 0.64952 114 119 124
-0.01684 -4.54958 0.73734 120 129 116
-0.03370 -4.55670 0.72410 129 128 133
-0.04459 -4.57501 0.73939 126 121 119
-0.06150 -4.58215 0.72612 121 118 121
-0.10224 -4.60444 0.74862 118 116 106
-0.08773 -4.59818 0.74606 125 120 115
-0.09015 -4.59907 0.73020 114 113 105
-0.10466 -4.60533 0.73277 115 115 108
-0.11917 -4.61158 0.73533 111 109 99
-0.11780 -4.59644 0.75448 104 103 95
-0.13467 -4.60357 0.74123 112 107 107
-0.13260 -4.59790 0.75814 107 105 112
-0.14946 -4.60502 0.74490 118 108 115
-0.20647 -4.59896 0.77771 108 105 113
-0.18972 -4.59189 0.79086 114 112 111
-0.19211 -4.59277 0.77517 111 110 110
-0.20407 -4.59808 0.79339 101 103 105
-0.21843 -4.60427 0.79593 102 109 102
-0.22082 -4.60515 0.78025 105 117 101
-0.23434 -4.62912 0.77880 107 115 95
-0.24635 -4.63445 0.79710 98 97 95
-0.24875 -4.63533 0.78135 99 95 93
-0.25116 -4.63622 0.76560 99 96 97
2.56413 -2.58189 0.44851 162 138 108
2.55864 -2.59239 0.44773 140 114 93
2.54481 -2.59823 0.43687 125 100 72
2.55573 -2.60515 0.44577 130 103 77
2.54185 -2.61101 0.43488 123 100 68
2.53573 -2.60330 0.45156 126 99 75
2.52189 -2.60914 0.44070 124 100 63
2.46976 -2.83699 0.41911 86 64 33
2.45932 -2.84436 0.42034 72 58 46
2.45121 -2.85401 0.42046 91 81 64
2.38412 -2.94947 0.41802 126 99 63
2.39472 -2.94477 0.40187 129 99 76
2.38200 -2.95025 0.40412 127 99 74
2.36173 -2.96362 0.42101 116 93 54
2.34210 -2.98078 0.42261 101 80 64
2.33998 -2.98156 0.40867 104 84 36
2.33318 -2.99036 0.42295 109 89 71
2.31827 -2.99666 0.41125 112 92 78
2.32995 -3.00608 0.42045 121 96 78
2.31927 -3.01082 0.43673 129 102 69
2.31713 -3.01161 0.42271 124 98 77
2.31499 -3.01240 0.40870 116 95 83
2.30195 -3.07364 0.41347 108 98 104
2.31711 -3.06724 0.42537 123 103 75
2.31495 -3.06804 0.41118 109 97 98
2.28542 -3.07531 0.41757 118 113 117
2.29526 -3.10645 0.40823 144 145 142
2.33135 -3.16751 0.38538 167 173 171
2.31581 -3.17407 0.37318 187 188 193
2.33432 -3.19174 0.37937 184 184 183
2.32504 -3.20222 0.37962 184 183 196
2.31412 -3.25376 0.37149 185 182 187
2.32542 -3.24875 0.35427 186 184 190
2.31186 -3.25459 0.35667 184 183 191
2.30664 -3.26675 0.37071 167 165 153
2.31147 -3.29437 0.36347 115 102 83
1.86149 -2.99855 0.54829 66 58 55
1.87163 -2.99405 0.53283 98 94 87
1.85945 -2.99930 0.53498 70 69 74
1.85153 -3.00668 0.54923 100 90 94
1.83180 -3.00213 0.55552 141 125 123
1.24282 -3.08067 0.69734 149 152 160
1.25250 -3.07638 0.68260 149 155 175
1.25192 -3.12327 0.68574 66 63 95
1.24373 -3.13488 0.68545 34 44 80
1.23392 -3.13923 0.70040 44 47 83
1.23195 -3.13995 0.68753 41 46 77
1.22999 -3.14068 0.67466 41 44 77
1.22755 -3.27050 0.66066 52 52 88
1.24175 -3.26450 0.67181 45 47 80
1.23972 -3.26525 0.65851 46 47 80
1.21537 -3.27575 0.66281 61 64 93
1.21334 -3.27650 0.64951 59 63 89
1.20394 -3.34168 0.65173 59 62 90
1.21424 -3.33711 0.63603 54 57 85
1.19816 -3.36029 0.64928 72 74 100
1.18368 -3.36641 0.63792 76 83 108
1.19044 -3.37520 0.64816 74 79 102
1.18483 -3.39463 0.64550 68 71 89
1.17900 -3.41387 0.64293 64 70 86
1.17257 -3.43210 0.64075 64 74 93
1.15787 -3.43830 0.62921 55 57 75
1.16884 -3.45628 0.63656 58 60 88
1.16403 -3.47850 0.63308 47 47 80
1.14918 -3.48477 0.62142 45 46 71
1.13152 -3.61066 0.61344 58 59 74
1.14680 -3.60421 0.62543 48 53 80
1.14462 -3.60501 0.61112 49 52 75
1.13196 -3.64721 0.60546 74 80 97
1.12597 -3.66954 0.60228 77 88 101
1.11886 -3.68961 0.59988 66 67 83
1.11059 -3.70722 0.59833 56 54 80
1.09500 -3.71380 0.58609 53 55 76
1.10567 -3.73307 0.59410 54 55 71
1.09448 -3.73803 0.61115 40 47 64
1.09224 -3.73886 0.59647 47 49 65
1.10176 -3.80037 0.58069 49 54 73
1.09949 -3.80120 0.56579 52 59 77
1.08567 -3.83985 0.57654 58 56 75
1.06965 -3.84662 0.56396 41 44 73
1.07100 -3.84343 0.57972 46 47 75
1.05498 -3.85019 0.56715 42 41 74
1.04100 -3.97515 0.55950 60 56 94
1.02456 -3.98209 0.54659 74 82 122
1.04284 -4.02380 0.54855 66 75 108
1.03456 -4.04606 0.54599 104 115 142
1.02194 -4.05682 0.54708 128 138 159
0.98954 -4.10518 0.54542 133 144 156
0.98009 -4.12565 0.54357 124 135 143
0.97196 -4.15023 0.54048 118 128 138
0.95499 -4.15739 0.52716 136 141 143
0.96180 -4.16935 0.53910 134 145 139
0.94479 -4.17653 0.52575 148 153 145
0.95212 -4.19017 0.53724 146 150 139
0.93732 -4.19598 0.53998 137 137 135
0.92572 -4.21149 0.53977 127 129 129
0.91350 -4.21692 0.55839 130 132 134
0.91105 -4.21782 0.54236 127 129 133
0.77140 -4.24834 0.57343 141 146 141
0.78840 -4.24116 0.58678 140 142 143
0.78597 -4.24205 0.57086 139 145 146
0.77383 -4.24744 0.58936 140 142 138
0.75925 -4.25373 0.59193 138 140 133
0.75662 -4.25393 0.57621 130 135 133
0.74205 -4.26021 0.57879 132 137 128
0.67176 -4.30142 0.58887 130 133 130
0.65472 -4.30861 0.57550 125 131 131
0.60879 -4.30827 0.60437 126 129 126
0.62575 -4.30111 0.61769 129 132 139
0.62333 -4.30200 0.60180 132 135 140
0.59182 -4.31544 0.59105 111 112 121
0.59229 -4.30657 0.60918 111 114 122
0.54767 -4.32076 0.61815 131 135 129
0.53076 -4.32790 0.60487 121 122 123
0.53515 -4.33565 0.61832 128 131 123
0.51820 -4.34281 0.60502 118 120 123
0.49038 -4.34902 0.62752 117 120 114
0.47344 -4.35616 0.61423 106 106 111
0.47561 -4.35410 0.63040 111 112 110
0.45995 -4.35487 0.63446 106 110 117
0.44787 -4.36023 0.65285 118 119 125
0.44304 -4.36201 0.62119 115 120 121
0.44725 -4.36978 0.63468 113 118 125
0.43273 -4.37604 0.63724 119 127 128
0.00864 -4.52793 0.71887 115 111 118
0.00623 -4.52882 0.70311 110 106 115
-0.00567 -4.53534 0.72113 113 104 107
-0.01995 -4.54309 0.72332 121 127 120
-0.04802 -4.56453 0.72627 122 120 120
-0.19503 -4.58422 0.76165 114 110 117
-0.17832 -4.57716 0.77477 108 111 110
-0.18071 -4.57804 0.75912 113 113 110
-0.18309 -4.57892 0.74347 112 110 111
-0.19742 -4.58510 0.74600 114 115 118
-0.20874 -4.60202 0.76152 116 121 125
-0.22284 -4.61351 0.76285 103 105 111
-0.23962 -4.62059 0.74968 104 96 105
-0.23688 -4.62703 0.76373 106 105 104
-0.25369 -4.63412 0.75054 101 96 97
2.56637 -2.57111 0.43695 144 120 100
2.55260 -2.57692 0.42615 125 104 83
2.47387 -2.82635 0.40628 123 98 58
2.48425 -2.82174 0.39046 129 101 69
2.47289 -2.84277 0.40296 105 80 45
2.46038 -2.86574 0.40133 83 66 58
2.44710 -2.87046 0.40390 111 89 64
2.38372 -2.97071 0.39919 125 97 65
2.39437 -2.96598 0.38295 129 101 79
2.37177 -2.97709 0.40103 118 93 57
2.35944 -2.98309 0.40306 109 88 42
2.34158 -3.00235 0.40369 103 86 67
2.32662 -3.00867 0.39194 110 95 83
2.32282 -3.06001 0.39618 103 95 101
2.33797 -3.05362 0.40807 122 100 84
2.33580 -3.05441 0.39389 110 95 94
2.32499 -3.05921 0.41037 114 100 93
2.31890 -3.07555 0.39385 110 107 108
2.35342 -3.13376 0.37179 137 130 130
2.35756 -3.15883 0.36519 169 161 155
2.34923 -3.17019 0.36497 183 181 185
2.33365 -3.17676 0.35274 190 193 205
2.33760 -3.17788 0.36644 187 190 193
2.32269 -3.20292 0.36501 187 185 192
2.32034 -3.22144 0.36161 186 180 188
2.30557 -3.26899 0.35523 187 191 181
2.29862 -3.28271 0.35411 150 136 144
2.29645 -3.30224 0.35044 86 83 86
1.85510 -3.01467 0.53281 73 70 78
1.86528 -3.01015 0.51729 84 83 82
1.84084 -3.02069 0.52162 99 99 102
1.83131 -3.00487 0.54139 123 115 111
1.82842 -3.02227 0.53838 150 133 125
1.81824 -3.02678 0.55388 152 130 128
1.81621 -3.02753 0.54054 153 132 128
1.81417 -3.02828 0.52720 152 132 125
1.24812 -3.09442 0.67985 154 158 169
1.25784 -3.09010 0.66504 150 155 174
1.24104 -3.10778 0.67885 86 90 112
1.24790 -3.14683 0.66846 42 43 78
1.23410 -3.15266 0.65763 42 42 80
1.24570 -3.28132 0.63969 48 47 85
1.25997 -3.27530 0.65090 46 46 77
1.25793 -3.27605 0.63753 44 45 82
1.25589 -3.27680 0.62416 42 45 83
1.23456 -3.28871 0.64110 57 58 91
1.20942 -3.35755 0.63287 67 69 99
1.20705 -3.38322 0.62791 77 80 108
1.19025 -3.41084 0.62643 66 71 96
1.18428 -3.42995 0.62388 55 64 85
1.16957 -3.43616 0.61233 51 58 72
1.16607 -3.48817 0.61610 52 49 75
1.14354 -3.60829 0.59598 49 52 70
1.15883 -3.60184 0.60797 45 50 83
1.15664 -3.60264 0.59366 45 50 76
1.15446 -3.60345 0.57934 44 47 70
1.13805 -3.63120 0.59246 61 67 79
1.14014 -3.67176 0.58304 85 97 109
1.12825 -3.68073 0.58430 85 92 104
1.11381 -3.72090 0.57944 59 54 88
1.10201 -3.76859 0.57222 51 53 75
1.09975 -3.76942 0.55743 53 61 80
1.09423 -3.82767 0.56143 51 55 75
1.07823 -3.83442 0.54887 44 44 71
1.08697 -3.84959 0.55861 48 48 73
1.07090 -3.85638 0.54600 37 40 78
1.05393 -3.88860 0.55905 44 43 70
1.04239 -3.89371 0.57662 46 45 78
1.03778 -3.89542 0.54637 65 59 92
1.04938 -3.91863 0.55372 52 44 82
1.05988 -3.98862 0.53559 68 67 102
1.05723 -4.02519 0.52833 80 87 122
1.03058 -4.04260 0.53175 97 99 134
1.02219 -4.06493 0.52914 121 129 155
1.00990 -4.07680 0.52988 133 141 159
0.99766 -4.08895 0.53054 138 148 159
0.98088 -4.09603 0.51737 154 164 156
0.98673 -4.10492 0.53002 144 157 156
0.97644 -4.12297 0.52887 145 152 146
0.96591 -4.14061 0.52787 134 136 142
0.94899 -4.14776 0.51458 138 139 148
0.93121 -4.18586 0.52739 145 148 143
0.94338 -4.18046 0.50886 144 152 152
0.92878 -4.18675 0.51144 143 149 148
0.91418 -4.19305 0.51402 140 142 148
0.91871 -4.19852 0.52801 136 138 140
0.90166 -4.20572 0.51462 141 143 150
0.90371 -4.20365 0.53095 133 135 141
0.88666 -4.21084 0.51757 141 143 147
0.83509 -4.19594 0.55123 140 143 148
0.84959 -4.18969 0.54866 144 149 145
0.82059 -4.20219 0.55379 135 140 147
0.76605 -4.23915 0.56050 143 153 148
0.77817 -4.23377 0.54204 138 137 137
0.76363 -4.24004 0.54461 142 151 150
0.75032 -4.24125 0.56430 127 132 134
0.73337 -4.24841 0.55100 128 128 133
0.73537 -4.24602 0.56731 131 134 131
0.72327 -4.25139 0.58574 137 141 139
0.72085 -4.25228 0.56988 140 143 144
0.67667 -4.26874 0.57825 136 140 142
0.69118 -4.26248 0.57569 138 142 137
0.65974 -4.27589 0.56496 117 117 129
0.66294 -4.27800 0.57995 123 121 123
0.64600 -4.28515 0.56665 127 130 130
0.62086 -4.30272 0.58595 132 136 133
0.63541 -4.29645 0.58338 130 133 129
0.60389 -4.30988 0.57264 124 127 119
0.60454 -4.30181 0.59058 125 129 124
0.58760 -4.30896 0.57728 114 111 120
0.57385 -4.30744 0.59766 120 124 123
0.55973 -4.31528 0.59978 118 121 116
0.54281 -4.32242 0.58649 106 110 121
0.54389 -4.31578 0.60396 119 124 122
0.52700 -4.32291 0.59069 112 116 122
0.50265 -4.34447 0.60887 116 114 112
0.51475 -4.33910 0.59044 114 119 119
0.48571 -4.35162 0.59557 107 109 112
0.48727 -4.34676 0.61253 109 110 109
0.47035 -4.35391 0.59925 105 108 117
0.45673 -4.35194 0.61968 108 111 125
0.45431 -4.35283 0.60386 113 112 126
0.43984 -4.35907 0.60642 118 118 118
0.27697 -4.39075 0.65991 119 118 124
0.29372 -4.38368 0.67306 114 115 117
0.29133 -4.38456 0.65737 122 119 117
0.27936 -4.38987 0.67559 114 115 122
0.26500 -4.39606 0.67813 125 125 125
0.26261 -4.39694 0.66244 124 125 128
0.25051 -4.41726 0.66129 120 121 126
0.23851 -4.42259 0.67957 107 107 118
0.23371 -4.42436 0.64809 123 117 122
0.23654 -4.42624 0.66311 114 113 122
0.22453 -4.43157 0.68141 114 109 117
0.22213 -4.43245 0.66566 118 113 119
0.21972 -4.43334 0.64991 125 118 116
0.10388 -4.45878 0.69195 111 113 111
0.12061 -4.45172 0.70508 114 111 114
0.11822 -4.45260 0.68941 111 111 112
0.10149 -4.45966 0.67628 111 111 103
0.09193 -4.46408 0.71015 118 123 126
0.08954 -4.46496 0.69448 116 119 121
-0.02261 -4.54130 0.70820 119 120 117
-0.03718 -4.54594 0.71113 129 130 122
-0.05400 -4.55304 0.69793 105 105 123
-0.05088 -4.56025 0.71172 106 105 118
-0.06553 -4.56413 0.71484 115 117 109
-0.07997 -4.57036 0.71740 125 123 129
-0.08237 -4.57124 0.70162 127 129 125
-0.21174 -4.59139 0.74851 121 120 118
-0.19980 -4.58609 0.73032 107 110 116
-0.21413 -4.59227 0.73285 116 115 112
-0.22593 -4.60047 0.75037 111 103 110
2.48041 -2.83536 0.38849 127 100 66
2.49083 -2.83074 0.37262 126 101 68
2.47833 -2.83613 0.37483 127 102 71
2.47869 -2.85112 0.38546 117 94 58
2.47479 -2.86490 0.38347 95 71 53
2.45609 -2.88209 0.38475 84 69 67
2.44918 -2.89315 0.38418 115 95 79
2.39385 -2.98423 0.37905 132 100 76
2.40455 -2.97948 0.36275 129 100 74
2.39171 -2.98501 0.36502 128 102 71
2.37887 -2.99055 0.36729 124 99 63
2.38267 -2.99150 0.38048 123 94 62
2.36768 -2.99783 0.36871 116 95 64
2.36784 -2.99495 0.38376 117 92 55
2.35286 -3.00128 0.37200 110 95 76
2.36107 -3.00691 0.38295 113 91 54
2.35050 -3.01491 0.38405 117 92 77
2.33334 -3.03529 0.38421 108 94 85
2.33840 -3.06038 0.37726 109 101 103
2.35688 -3.10039 0.36336 126 125 140
2.35046 -3.11346 0.36221 156 153 156
2.36620 -3.15117 0.34955 180 179 177
2.35066 -3.15773 0.33736 194 193 204
2.35738 -3.16193 0.34957 190 189 190
2.34548 -3.16929 0.35118 190 190 200
2.33105 -3.19474 0.34946 190 190 188
2.32549 -3.20950 0.34770 191 179 145
2.32711 -3.23266 0.34212 189 170 110
2.32422 -3.25081 0.33889 189 180 165
2.32004 -3.26762 0.33630 189 187 194
2.30956 -3.27718 0.33703 199 200 200
2.30975 -3.29942 0.33205 162 156 175
2.30517 -3.31619 0.32958 123 110 119
2.30175 -3.33450 0.32645 65 58 40
2.28746 -3.33985 0.32915 47 38 45
2.27596 -3.34495 0.34666 38 35 34
2.27698 -3.34983 0.32979 45 34 41
1.85498 -3.01790 0.51838 57 58 71
1.86517 -3.01338 0.50286 97 97 99
1.83656 -3.03639 0.51930 142 130 124
1.25277 -3.10703 0.66267 155 159 171
1.26252 -3.10271 0.64781 150 156 173
1.25554 -3.13845 0.65495 117 115 131
1.25235 -3.15935 0.65118 55 43 79
1.23850 -3.16520 0.64031 42 42 75
1.24834 -3.29106 0.62306 49 51 90
1.25857 -3.28652 0.60749 43 47 76
1.23403 -3.29710 0.61182 76 79 97
1.23642 -3.29700 0.62499 65 70 99
1.22852 -3.31082 0.62407 61 64 91
1.21826 -3.31537 0.63969 54 59 83
1.22350 -3.33048 0.62108 51 53 82
1.21746 -3.34836 0.61876 53 53 84
1.21305 -3.36973 0.61522 70 71 100
1.21128 -3.39676 0.60971 78 81 107
1.20366 -3.41222 0.60836 71 77 104
1.19686 -3.42957 0.60636 60 67 96
1.19017 -3.44734 0.60424 50 58 83
1.17452 -3.47882 0.60152 61 66 76
1.16790 -3.49743 0.59920 61 66 80
1.16356 -3.52123 0.59510 51 51 72
1.15285 -3.52599 0.61142 43 47 75
1.15070 -3.52678 0.59737 45 47 75
1.14856 -3.52757 0.58332 46 45 71
1.14364 -3.61422 0.57990 46 47 67
1.15457 -3.60937 0.56324 44 43 69
1.14090 -3.64344 0.57417 57 63 83
1.14395 -3.68639 0.56381 88 101 117
1.12839 -3.69296 0.55159 90 93 114
1.13171 -3.69470 0.56530 89 94 110
1.12139 -3.70753 0.56526 79 84 104
1.11449 -3.72861 0.56247 65 65 94
1.11094 -3.75797 0.55692 56 58 82
1.10357 -3.81753 0.54572 51 59 79
1.08760 -3.82428 0.53318 45 45 73
1.09786 -3.84308 0.54161 48 49 74
1.06657 -3.88627 0.54055 45 43 84
1.06419 -4.00700 0.51442 80 93 107
1.06182 -4.00787 0.49888 69 81 95
1.05311 -4.02145 0.51424 82 86 114
1.03974 -4.02997 0.51599 72 68 119
1.02986 -4.04801 0.51468 98 98 135
1.02219 -4.07235 0.51137 121 129 152
1.00935 -4.08280 0.51255 135 139 156
0.99668 -4.09380 0.51356 146 153 157
0.97988 -4.10089 0.50037 152 157 162
0.97319 -4.12145 0.51383 160 163 153
0.97078 -4.12234 0.49803 157 159 161
0.96224 -4.13788 0.51317 148 146 148
0.84470 -4.18266 0.53525 134 138 140
0.86158 -4.17553 0.54851 141 147 144
0.85917 -4.17642 0.53269 142 145 146
0.82781 -4.18979 0.52200 121 130 133
0.82781 -4.18107 0.54021 125 130 136
0.81475 -4.19183 0.54138 132 136 139
0.80270 -4.19717 0.55974 136 145 146
0.80029 -4.19806 0.54394 138 147 148
0.79788 -4.19895 0.52814 141 146 146
0.74287 -4.22448 0.55372 130 133 134
0.74046 -4.22537 0.53791 128 133 136
0.71273 -4.23261 0.56013 139 144 144
0.71032 -4.23349 0.54434 138 144 141
0.70069 -4.23795 0.57847 139 145 142
0.69828 -4.23884 0.56268 138 146 142
0.68226 -4.23924 0.56696 138 141 139
0.67985 -4.24012 0.55119 131 134 137
0.66952 -4.25184 0.56763 131 131 142
0.65266 -4.25896 0.55439 116 119 122
0.61371 -4.28475 0.57553 123 127 125
0.62578 -4.27940 0.55715 125 124 114
0.61130 -4.28564 0.55971 116 121 126
0.59682 -4.29188 0.56227 127 128 121
0.56714 -4.29035 0.58698 127 135 129
0.56473 -4.29124 0.57121 129 138 135
0.55384 -4.30143 0.58814 116 117 115
0.53698 -4.30855 0.57491 110 108 126
0.49866 -4.33823 0.59502 118 116 110
0.51073 -4.33287 0.57662 118 122 116
0.49624 -4.33912 0.57918 121 121 116
0.35357 -4.39978 0.62089 119 116 120
0.37048 -4.39265 0.63416 117 117 111
0.35599 -4.39889 0.63672 112 114 114
0.35116 -4.40067 0.60506 125 129 129
0.34150 -4.40514 0.63928 114 118 121
0.33667 -4.40692 0.60762 123 127 130
0.27381 -4.38707 0.64544 126 128 136
0.28577 -4.38176 0.62723 123 124 128
0.27142 -4.38795 0.62977 129 131 139
0.25708 -4.39413 0.63230 134 135 138
0.26017 -4.39755 0.64683 130 131 136
0.24665 -4.40898 0.64798 126 125 125
0.22988 -4.41606 0.63481 123 117 117
0.11521 -4.44865 0.67499 113 111 109
0.12953 -4.44248 0.67245 118 121 122
0.12714 -4.44336 0.65680 118 118 117
0.09850 -4.45571 0.66187 111 109 98
0.08599 -4.45627 0.68126 115 118 116
0.08360 -4.45715 0.66562 114 114 109
0.07407 -4.46156 0.69942 120 120 117
0.07188 -4.46411 0.68336 120 122 124
0.05995 -4.46941 0.70153 114 114 115
0.05518 -4.47116 0.67025 102 99 105
0.05840 -4.47754 0.68405 108 106 113
0.04645 -4.48284 0.70225 115 115 119
