ply
format ascii 1.0
element face 0
property list uchar int vertex_indices
element vertex 1228
property float x
property float y
property float z
property uchar diffuse_red
property uchar diffuse_green
property uchar diffuse_blue
end_header
-2.38163 -4.26718 0.10235 148 138 125
-2.38571 -4.26506 0.11290 152 140 143
-2.53230 -4.19180 0.05456 159 150 128
-2.53859 -4.19233 0.03982 163 160 140
-2.54257 -4.18088 0.05088 157 147 125
-2.55287 -4.18039 0.04645 148 139 121
-2.56323 -4.18471 0.04166 119 111 102
-2.63648 -4.20454 0.00855 101 98 88
-2.64700 -4.20573 0.00391 131 132 101
-2.65336 -4.20626 -0.01099 160 154 129
-2.65765 -4.20951 -0.00097 151 146 116
-2.66818 -4.21001 -0.00557 150 143 130
-2.67456 -4.21053 -0.02050 168 163 141
-2.82941 -4.23280 -0.07699 169 161 133
-2.83588 -4.23334 -0.09214 187 179 160
-3.19345 -4.08818 -0.22449 220 216 206
-3.20316 -4.08371 -0.22838 226 222 211
-3.21528 -4.09008 -0.23407 206 194 188
-3.28569 -4.02717 -0.26015 194 186 181
-3.28172 -4.02934 -0.27041 189 178 173
-3.29190 -4.02768 -0.27470 190 182 180
-3.29425 -4.01910 -0.26329 194 189 193
-3.30346 -4.01378 -0.26691 206 200 194
-3.38270 -4.03133 -0.30246 212 207 203
-3.39287 -4.02938 -0.30672 203 199 188
-3.39912 -4.02990 -0.32136 191 190 171
-3.41242 -4.02283 -0.31473 211 208 198
-3.42318 -4.02295 -0.31940 213 207 201
-3.43319 -4.02050 -0.32356 200 190 182
-3.46735 -3.99217 -0.33636 208 208 203
-3.47391 -3.97917 -0.33829 221 222 214
-3.48009 -3.97968 -0.35276 226 222 211
-3.53410 -3.99944 -0.36578 221 225 216
-3.55255 -3.99029 -0.37313 199 196 196
-3.55877 -3.99080 -0.38771 217 212 218
-3.63484 -3.97880 -0.40796 238 226 226
-3.62065 -3.98264 -0.41394 232 228 228
-3.63086 -3.98097 -0.41824 226 221 219
-3.64107 -3.97931 -0.42255 224 224 219
-3.64018 -3.96415 -0.40924 235 232 225
-3.64638 -3.96466 -0.42377 220 215 218
-3.67113 -3.93260 -0.42043 242 242 233
-3.67728 -3.93311 -0.43484 228 212 206
-3.72888 -3.94243 -0.44613 226 215 220
-3.72493 -3.94459 -0.45635 229 221 222
-3.73507 -3.94294 -0.46062 236 234 230
-3.87398 -3.87924 -0.50453 221 219 211
-3.86396 -3.88087 -0.50031 217 214 212
-3.86006 -3.88301 -0.51040 222 223 217
-3.87007 -3.88138 -0.51462 227 224 217
-3.88508 -3.87993 -0.50939 223 223 211
-3.89119 -3.88044 -0.52371 231 237 227
-1.92495 -4.37530 0.29240 159 155 128
-1.91024 -4.37928 0.28620 156 139 125
-1.92082 -4.37756 0.28174 150 135 135
-1.93141 -4.37583 0.27728 165 148 131
-1.93463 -4.37879 0.28795 162 146 125
-1.94109 -4.37933 0.27280 165 154 123
-2.21131 -4.32293 0.17209 145 129 112
-2.21543 -4.32067 0.18274 153 133 122
-2.21775 -4.32346 0.15699 152 140 129
-2.22102 -4.33053 0.16732 152 142 133
-2.22749 -4.33106 0.15217 143 134 132
-2.29040 -4.38733 0.13303 169 148 126
-2.29700 -4.38787 0.11757 173 157 135
-2.30147 -4.38183 0.12864 166 146 126
-2.30806 -4.38238 0.11320 175 169 148
-2.31293 -4.36962 0.12457 178 171 148
-2.31950 -4.37016 0.10918 176 164 150
-2.36152 -4.25381 0.11206 174 166 148
-2.35746 -4.25603 0.10156 179 177 149
-2.37105 -4.27103 0.10665 166 156 127
-2.39179 -4.27311 0.09751 160 151 143
-2.40639 -4.26916 0.10366 167 157 142
-2.40229 -4.27140 0.09308 171 159 139
-2.39820 -4.27364 0.08250 162 148 134
-2.54885 -4.18213 0.03612 161 154 129
-2.53455 -4.18600 0.03009 167 160 144
-2.55920 -4.18628 0.03133 132 117 97
-2.56964 -4.19455 0.02619 109 93 92
-2.58401 -4.19066 0.03224 99 98 92
-2.57998 -4.19286 0.02183 104 93 90
-2.62188 -4.20404 0.00283 101 90 94
-2.61553 -4.20351 0.01769 98 97 88
-2.61148 -4.20573 0.00722 103 92 90
-2.63230 -4.20326 -0.00163 115 112 103
-2.64251 -4.19621 -0.00554 145 145 118
-2.66338 -4.19512 -0.01451 163 157 135
-2.66972 -4.19564 -0.02936 170 166 144
-3.15098 -4.05889 -0.21590 217 211 193
-3.16119 -4.05722 -0.22020 212 211 202
-3.15721 -4.05940 -0.23048 214 209 207
-3.17558 -4.07543 -0.22779 213 210 202
-3.18859 -4.08654 -0.23425 217 208 209
-3.19842 -4.08261 -0.23822 221 214 209
-3.20471 -4.08313 -0.25296 192 193 192
-3.21033 -4.08815 -0.24380 200 197 187
-3.21663 -4.08868 -0.25856 205 203 199
-3.21954 -4.08147 -0.24730 193 191 184
-3.23388 -4.07759 -0.24125 203 204 196
-3.22583 -4.08199 -0.26204 198 192 195
-3.29804 -4.01020 -0.27607 198 187 185
-3.29409 -4.01236 -0.28627 206 193 181
-3.30868 -4.01052 -0.28071 204 196 192
-3.31486 -4.01104 -0.29519 207 201 185
-3.31904 -4.00974 -0.28515 213 209 194
-3.32918 -4.00809 -0.28942 219 215 196
-3.34024 -4.00987 -0.29435 215 210 196
-3.34420 -4.00770 -0.28412 211 205 188
-3.34643 -4.01038 -0.30885 194 187 177
-3.35084 -4.00987 -0.29895 210 207 187
-3.35704 -4.01038 -0.31346 192 186 172
-3.37312 -4.01356 -0.30888 197 190 180
-3.40377 -4.00900 -0.32183 197 196 186
-3.39980 -4.01117 -0.33209 188 184 174
-3.40998 -4.00951 -0.33638 183 179 169
-3.41446 -4.00906 -0.32647 192 190 188
-3.42067 -4.00958 -0.34103 180 178 161
-3.42392 -4.00495 -0.33027 184 181 180
-3.43464 -4.00511 -0.33493 196 199 180
-3.52784 -3.99482 -0.37459 213 207 200
-3.64492 -3.93243 -0.42075 234 237 230
-3.63093 -3.93622 -0.42664 216 208 205
-3.66168 -3.92051 -0.42714 233 230 224
-3.65777 -3.92265 -0.43724 229 225 218
-3.66780 -3.92101 -0.44147 230 229 215
-3.78387 -3.88042 -0.47717 227 214 214
-3.77002 -3.88417 -0.48300 241 240 228
-3.80084 -3.87049 -0.48379 222 217 224
-3.81466 -3.86675 -0.47797 217 209 209
-3.81078 -3.86887 -0.48798 222 226 224
-3.80690 -3.87099 -0.49800 222 216 217
-2.18950 -4.29493 0.17148 161 148 120
-2.17903 -4.29663 0.17589 147 134 112
-2.19588 -4.29546 0.15653 173 164 139
-2.19916 -4.30128 0.16679 164 154 122
-2.20934 -4.30274 0.16226 162 152 122
-2.36698 -4.27278 0.09612 175 160 138
-2.35241 -4.27672 0.08998 182 177 160
-2.36290 -4.27502 0.08556 177 167 159
-2.37338 -4.27331 0.08114 176 174 151
-2.37713 -4.27851 0.09127 169 162 133
-2.38765 -4.27648 0.08686 168 151 144
-2.39405 -4.27701 0.07185 165 158 153
-2.54486 -4.18880 0.02540 166 158 139
-2.53054 -4.19268 0.01936 173 163 146
-2.54084 -4.19100 0.01502 161 147 132
-2.55515 -4.18576 0.02116 157 142 113
-2.56564 -4.19967 0.01553 133 111 90
-2.57604 -4.20135 0.01088 127 115 94
-2.59045 -4.19746 0.01695 104 94 91
-2.58642 -4.20060 0.00643 131 121 94
-2.60083 -4.19670 0.01250 104 94 89
-2.59686 -4.20206 0.00179 126 113 92
-2.60732 -4.20406 -0.00292 125 111 100
-2.61782 -4.20636 -0.00765 125 113 106
-2.62794 -4.19569 -0.01122 136 131 119
-2.63814 -4.18925 -0.01515 151 143 132
-2.64446 -4.18977 -0.02995 154 136 125
-2.64822 -4.18026 -0.01883 156 143 134
-2.65880 -4.18468 -0.02377 163 159 140
-2.77482 -4.19396 -0.07487 175 169 146
-2.76438 -4.19566 -0.07047 178 174 149
-2.78933 -4.19003 -0.06875 168 155 149
-2.78526 -4.19226 -0.07927 168 158 149
-2.78119 -4.19449 -0.08979 173 165 151
-3.13437 -4.05054 -0.21988 189 175 170
-3.12024 -4.05437 -0.22583 201 197 173
-3.13041 -4.05271 -0.23012 191 174 172
-3.14667 -4.05940 -0.22590 211 205 193
-3.15289 -4.05991 -0.24048 216 206 208
-3.16892 -4.06490 -0.23599 201 194 189
-3.27323 -4.01323 -0.27728 206 196 185
-3.25916 -4.01704 -0.28321 217 215 203
-3.26928 -4.01539 -0.28748 205 201 199
-3.27941 -4.01374 -0.29175 209 206 201
-3.30273 -4.00495 -0.28945 206 198 189
-3.28868 -4.00875 -0.29537 210 204 188
-3.29879 -4.00710 -0.29963 219 215 198
-3.30890 -4.00546 -0.30390 217 210 193
-3.33563 -4.00961 -0.30410 194 190 186
-3.34182 -4.01012 -0.31859 198 198 196
-3.37835 -4.01061 -0.32273 186 185 169
-3.38455 -4.01112 -0.33726 203 198 182
-3.42773 -3.99747 -0.34315 182 185 166
-3.43392 -3.99799 -0.35766 204 201 189
-3.54427 -3.96227 -0.39103 230 224 213
-3.63928 -3.93004 -0.42979 229 231 228
-3.62531 -3.93382 -0.43567 223 228 227
-3.64540 -3.93055 -0.44414 239 238 233
-3.64824 -3.92559 -0.43333 231 229 216
-3.65436 -3.92609 -0.44767 247 248 241
-3.77988 -3.88232 -0.48714 206 203 202
-3.79027 -3.88166 -0.49160 204 203 200
-3.83011 -3.87511 -0.50840 219 214 219
-3.82403 -3.87461 -0.49415 232 232 225
-3.82015 -3.87673 -0.50419 219 214 217
-3.83400 -3.87298 -0.49836 239 238 222
-3.82623 -3.87724 -0.51844 211 209 207
-2.16663 -4.28106 0.17042 149 131 111
-2.16029 -4.28054 0.18528 162 149 133
-2.15218 -4.28498 0.16433 154 140 127
-2.17069 -4.27884 0.18090 149 136 116
-2.17534 -4.29525 0.16548 150 126 103
-2.55110 -4.18305 0.01120 175 163 131
-2.53680 -4.18692 0.00518 159 147 133
-2.55737 -4.18357 -0.00349 180 168 142
-2.56145 -4.18730 0.00636 169 152 117
-2.56773 -4.18782 -0.00837 175 162 143
-2.57178 -4.18761 0.00184 163 150 118
-2.57807 -4.18814 -0.01289 181 169 152
-2.58183 -4.17129 -0.00121 170 161 126
-2.59222 -4.17546 -0.00606 164 153 123
-2.60242 -4.17049 -0.01009 160 147 121
-2.61272 -4.16982 -0.01452 158 148 122
-2.62316 -4.17376 -0.01938 155 149 131
-2.63387 -4.18444 -0.02491 157 145 136
-2.64017 -4.18497 -0.03967 160 151 134
-2.65442 -4.17836 -0.03335 156 145 130
-2.66498 -4.18199 -0.03824 172 164 146
-2.67935 -4.17810 -0.03218 167 161 145
-2.67532 -4.18031 -0.04260 175 167 143
-2.67128 -4.18251 -0.05301 175 165 139
-2.73794 -4.17897 -0.06972 186 172 162
-2.74831 -4.17729 -0.07409 184 176 160
-2.74427 -4.17950 -0.08454 171 165 155
-3.14130 -4.05465 -0.23501 201 195 200
-3.14751 -4.05516 -0.24956 214 204 201
-3.16301 -4.05786 -0.24472 210 198 189
-3.15903 -4.06004 -0.25500 214 205 196
-3.18565 -4.06497 -0.25514 188 181 168
-3.19395 -4.05441 -0.25789 184 184 188
-3.20416 -4.05275 -0.26220 207 202 197
-3.20018 -4.05493 -0.27248 201 196 190
-3.35933 -3.99683 -0.32513 198 192 168
-3.34528 -4.00063 -0.33105 204 198 181
-3.35539 -3.99898 -0.33531 207 206 186
-3.36935 -3.99485 -0.32932 199 195 177
-3.39930 -3.98863 -0.34184 191 192 175
-3.38525 -3.99243 -0.34776 206 207 186
-3.39536 -3.99078 -0.35202 197 199 186
-3.41961 -3.98569 -0.35043 197 200 180
-3.50665 -3.95911 -0.38612 209 211 195
-3.49659 -3.96075 -0.38188 210 205 196
-3.50273 -3.96126 -0.39626 217 221 211
-3.51855 -3.96299 -0.39162 215 222 210
-3.54483 -3.94653 -0.40170 229 230 227
-3.55013 -3.93127 -0.40276 239 235 229
-3.56402 -3.92751 -0.39691 222 217 221
-3.56012 -3.92965 -0.40698 219 209 204
-3.55622 -3.93178 -0.41705 223 221 203
-3.62775 -3.91202 -0.43495 244 248 240
-3.61388 -3.91577 -0.44080 212 206 219
-3.62386 -3.91414 -0.44500 236 242 237
-3.76291 -3.87879 -0.49103 239 233 227
-3.75685 -3.87829 -0.47683 233 233 227
-3.75297 -3.88041 -0.48684 228 226 218
-3.74910 -3.88253 -0.49685 240 241 236
-3.75904 -3.88091 -0.50104 242 242 236
-3.77572 -3.88382 -0.49701 213 202 201
-3.78376 -3.87776 -0.50001 198 200 189
-3.79048 -3.86881 -0.50221 217 220 207
-3.81507 -3.87620 -0.51350 222 218 213
-3.83828 -3.88021 -0.52392 212 209 211
-3.84437 -3.88071 -0.53819 217 218 218
-2.18266 -4.28673 0.15091 174 156 130
-2.18902 -4.28725 0.13602 172 154 130
-2.25258 -4.31143 0.11836 158 139 128
-2.24615 -4.31090 0.13341 153 140 121
-2.24204 -4.31315 0.12280 159 139 124
-2.23793 -4.31540 0.11219 163 151 137
-2.25669 -4.30919 0.12897 147 140 124
-2.26722 -4.30747 0.12453 154 145 129
-2.54709 -4.18565 0.00081 172 162 141
-2.54308 -4.18784 -0.00955 172 163 149
-2.55336 -4.18617 -0.01389 177 165 145
-2.58820 -4.17753 -0.01641 185 169 148
-2.57391 -4.18140 -0.02243 179 162 150
-2.58420 -4.17972 -0.02676 183 166 148
-2.59448 -4.17805 -0.03110 180 166 143
-2.59815 -4.16081 -0.01931 184 169 138
-2.60439 -4.16133 -0.03393 178 167 147
-2.60837 -4.15862 -0.02358 179 170 142
-2.61461 -4.15913 -0.03819 172 161 150
-2.61842 -4.15076 -0.02728 169 160 147
-2.62464 -4.15127 -0.04187 167 158 150
-2.62872 -4.15199 -0.03188 166 155 145
-2.63495 -4.15250 -0.04648 165 162 146
-2.73268 -4.16252 -0.07805 167 161 153
-3.11551 -4.05257 -0.23541 199 201 172
-3.10932 -4.05206 -0.22090 202 202 183
-3.10536 -4.05423 -0.23112 197 198 181
-3.10140 -4.05639 -0.24135 205 205 188
-3.13785 -4.05946 -0.24572 202 197 200
-3.14407 -4.05998 -0.26028 211 200 185
-3.16746 -4.04993 -0.25781 212 201 186
-3.15332 -4.05376 -0.26377 202 199 194
-3.16350 -4.05210 -0.26806 209 203 193
-3.17451 -4.03362 -0.25949 192 184 168
-3.18348 -4.02660 -0.26279 191 192 187
-3.18964 -4.02711 -0.27724 203 200 189
-3.35791 -3.97016 -0.33395 211 213 198
-3.37138 -3.98074 -0.34072 211 208 192
-3.42198 -3.97360 -0.36215 208 201 192
-3.43777 -3.95621 -0.36754 209 212 203
-3.47787 -3.94985 -0.38447 218 213 199
-3.48881 -3.95106 -0.38933 217 210 189
-3.49493 -3.95157 -0.40366 224 218 215
-3.50588 -3.93883 -0.39573 203 205 201
-3.50198 -3.94097 -0.40579 205 200 204
-3.51677 -3.93988 -0.40056 216 213 213
-3.52552 -3.93456 -0.40391 223 219 220
-3.53321 -3.92625 -0.40656 243 242 234
-3.76524 -3.87060 -0.50287 241 240 223
-3.75146 -3.87433 -0.50867 227 221 217
-3.76137 -3.87272 -0.51285 233 231 221
-3.77701 -3.87329 -0.50822 223 216 209
-3.81019 -3.87609 -0.52291 227 226 225
-2.73889 -4.16179 -0.09263 165 160 161
-2.74517 -4.16231 -0.10736 185 177 153
-2.74944 -4.16359 -0.09739 176 172 154
-2.75573 -4.16412 -0.11213 170 162 150
-3.08594 -4.08654 -0.23729 195 195 180
-3.07969 -4.08602 -0.22265 191 184 169
-3.07170 -4.09039 -0.24329 208 201 187
-3.08993 -4.08435 -0.22697 185 185 178
-3.10018 -4.08269 -0.23129 186 191 184
-3.09547 -4.08102 -0.24096 198 199 183
-3.10171 -4.08154 -0.25558 208 202 187
-3.11181 -4.05611 -0.24587 212 209 188
-3.11801 -4.05663 -0.26039 225 215 203
-3.12454 -4.06768 -0.25245 214 206 190
-3.13077 -4.06819 -0.26703 212 203 193
-3.16438 -4.00653 -0.26439 209 209 193
-3.16047 -4.00867 -0.27449 222 222 208
-3.17452 -4.00545 -0.26872 206 206 196
-3.18064 -4.00596 -0.28305 198 192 182
-3.34139 -3.96445 -0.33785 194 187 176
-3.33141 -3.96608 -0.33364 198 186 168
-3.33750 -3.96658 -0.34790 185 180 179
-3.35229 -3.96611 -0.34275 207 211 198
-3.35839 -3.96662 -0.35703 204 203 193
-3.36411 -3.97098 -0.34833 212 215 195
-3.37022 -3.97148 -0.36265 200 195 187
-3.37190 -3.96151 -0.35089 200 195 183
-3.47174 -3.94501 -0.39296 231 232 218
-3.47783 -3.94552 -0.40724 234 230 221
-3.51123 -3.93711 -0.40948 216 215 210
-3.49735 -3.94087 -0.41533 214 209 210
-3.52008 -3.93214 -0.41290 228 228 224
-3.52617 -3.93264 -0.42716 236 232 228
-3.76948 -3.86693 -0.51587 226 223 221
-3.75572 -3.87065 -0.52166 241 244 241
-3.76562 -3.86904 -0.52584 237 238 237
-3.77551 -3.86743 -0.53001 243 236 233
-3.82126 -3.88777 -0.54030 244 243 236
-3.80737 -3.89153 -0.54615 237 235 233
-3.81736 -3.88990 -0.55037 233 225 231
-3.82735 -3.88828 -0.55458 230 226 226
-2.23665 -4.28551 0.10331 154 141 125
-2.24302 -4.28604 0.08840 166 156 137
-2.24708 -4.28389 0.09891 167 151 131
-2.25345 -4.28442 0.08400 166 161 135
-2.51856 -4.16823 -0.00894 162 158 139
-2.52877 -4.16754 -0.01333 167 163 148
-2.55957 -4.18008 -0.02795 175 162 142
-2.56983 -4.17841 -0.03227 174 162 147
-2.56583 -4.18060 -0.04261 178 169 157
-2.60997 -4.13697 -0.04596 163 149 136
-2.59982 -4.13862 -0.04168 170 154 138
-2.61616 -4.13748 -0.06047 146 140 120
-2.62012 -4.13536 -0.05025 156 148 136
-2.70291 -4.15025 -0.08778 165 159 149
-2.70916 -4.15077 -0.10242 181 169 149
-2.72368 -4.15148 -0.09697 166 164 153
-2.72994 -4.15200 -0.11163 183 177 168
-3.04783 -4.07374 -0.23133 195 189 180
-3.04162 -4.07322 -0.21678 206 203 182
-3.03368 -4.07757 -0.23729 190 181 168
-3.05180 -4.07157 -0.22107 201 192 177
-3.06198 -4.06991 -0.22536 214 209 184
-3.05801 -4.07208 -0.23562 210 211 192
-3.07827 -4.06823 -0.24411 217 212 192
-3.06412 -4.07206 -0.25007 202 197 191
-3.08865 -4.06772 -0.24860 215 211 192
-3.09486 -4.06823 -0.26314 207 197 188
-3.14709 -3.99412 -0.26730 209 204 198
-3.13712 -3.99574 -0.26310 201 202 199
-3.16657 -3.98867 -0.27530 208 203 198
-3.17265 -3.98918 -0.28955 196 187 172
-3.32498 -3.95881 -0.34172 202 198 182
-3.31503 -3.96043 -0.33752 216 210 196
-3.31115 -3.96255 -0.34755 215 206 198
-3.33105 -3.95931 -0.35594 186 177 175
-3.34568 -3.95842 -0.35072 196 196 192
-3.35175 -3.95893 -0.36496 200 197 190
-3.37421 -3.94883 -0.36229 201 195 184
-3.36038 -3.95257 -0.36812 203 199 193
-3.38416 -3.94721 -0.36649 203 198 180
-3.50518 -3.93276 -0.41800 222 219 216
-3.49133 -3.93650 -0.42383 221 219 211
-3.50129 -3.93488 -0.42804 218 214 213
-3.51262 -3.92365 -0.42041 229 232 226
-2.19960 -4.20847 0.11486 161 149 127
-2.19340 -4.20796 0.12938 174 158 131
-2.18944 -4.21013 0.11914 172 158 140
-2.18548 -4.21230 0.10891 167 153 134
-2.20356 -4.20631 0.12510 162 150 128
-2.19564 -4.21064 0.10462 164 153 128
-2.23510 -4.25952 0.09442 153 145 133
-2.24141 -4.26005 0.07963 170 157 140
-2.49421 -4.16981 -0.01025 178 170 136
-2.48004 -4.17364 -0.01622 187 177 155
-2.49024 -4.17198 -0.02052 184 172 149
-2.51459 -4.16764 -0.01896 176 166 145
-2.52081 -4.16816 -0.03353 196 187 161
-2.52479 -4.16430 -0.02309 181 177 149
-2.53100 -4.16481 -0.03766 195 184 160
-2.55555 -4.17996 -0.03805 187 174 163
-2.56180 -4.18048 -0.05271 184 172 165
-2.59594 -4.14425 -0.05228 179 162 141
-2.58974 -4.14374 -0.03775 173 162 141
-2.58577 -4.14591 -0.04799 184 172 147
-2.58181 -4.14807 -0.05823 182 169 150
-2.59197 -4.14642 -0.06252 184 169 147
-2.60579 -4.13034 -0.05525 162 150 132
-2.62517 -4.09972 -0.06077 153 147 127
-2.62126 -4.10186 -0.07088 160 150 126
-2.63912 -4.09594 -0.05489 166 160 138
-2.63521 -4.09809 -0.06500 164 159 139
-2.63129 -4.10023 -0.07511 166 160 144
-2.67765 -4.13957 -0.08756 167 154 143
-2.66349 -4.14340 -0.09353 180 173 146
-2.67368 -4.14175 -0.09783 179 163 152
-2.69838 -4.14254 -0.09691 176 166 159
-2.70460 -4.14306 -0.11150 180 161 155
-2.71845 -4.13354 -0.10482 177 174 161
-2.71448 -4.13572 -0.11509 182 172 162
-2.72467 -4.13406 -0.11939 180 173 167
-2.73905 -4.13332 -0.11381 183 175 156
-2.74527 -4.13383 -0.12839 171 170 152
-3.05322 -4.06948 -0.24505 203 210 201
-3.07115 -4.05270 -0.25128 224 219 197
-3.08061 -4.04744 -0.25491 224 218 202
-3.08677 -4.04795 -0.26935 208 204 198
-3.11250 -4.05071 -0.26917 210 202 192
-3.12263 -4.04907 -0.27344 203 195 192
-3.11868 -4.05123 -0.28365 193 191 194
-3.13024 -3.98308 -0.27041 199 193 199
-3.12419 -3.98258 -0.25623 214 205 188
-3.12032 -3.98470 -0.26623 209 201 197
-3.11645 -3.98681 -0.27623 208 199 202
-3.12637 -3.98520 -0.28041 199 187 187
-3.13810 -3.97137 -0.27272 213 209 203
-3.14413 -3.97187 -0.28685 218 219 199
-3.14499 -3.95539 -0.27420 222 222 210
-3.15785 -3.96800 -0.28103 200 191 190
-3.16388 -3.96851 -0.29517 207 199 181
-3.20944 -3.96927 -0.30372 212 208 200
-3.20339 -3.96877 -0.28954 200 195 198
-3.19952 -3.97089 -0.29953 210 204 190
-3.19565 -3.97300 -0.30953 201 197 184
-3.21331 -3.96715 -0.29372 214 217 210
-3.22323 -3.96554 -0.29791 195 190 195
-3.21877 -3.96514 -0.30740 194 186 191
-3.23255 -3.96141 -0.30159 199 195 185
-3.22684 -3.95569 -0.31002 196 196 196
-3.24058 -3.95197 -0.30423 203 200 163
-3.23672 -3.95408 -0.31419 211 210 195
-3.23287 -3.95619 -0.32415 219 206 208
-3.36538 -3.93360 -0.36848 212 211 205
-3.37141 -3.93410 -0.38261 213 210 203
-3.37358 -3.92613 -0.37134 207 207 196
-3.38730 -3.92242 -0.36556 198 197 179
-3.38345 -3.92452 -0.37550 195 196 184
-3.40365 -3.92286 -0.38418 211 207 181
-3.38992 -3.92657 -0.38996 208 204 173
-3.39980 -3.92497 -0.39412 216 210 190
-3.41361 -3.92154 -0.38841 206 197 188
-3.42670 -3.93041 -0.39498 206 198 186
-3.43684 -3.92955 -0.39934 204 197 193
-3.44289 -3.93006 -0.41350 209 205 202
-3.50419 -3.91215 -0.42711 222 220 218
-3.51620 -3.91682 -0.43282 231 230 227
-3.52612 -3.91521 -0.43700 241 240 234
-3.52225 -3.91732 -0.44698 240 238 232
-2.45961 -4.17923 -0.00783 164 154 137
-2.45339 -4.17872 0.00674 167 155 149
-2.44941 -4.18089 -0.00353 161 153 138
-2.46359 -4.17706 0.00244 169 159 147
-2.50035 -4.17933 -0.02569 184 171 151
-2.48615 -4.18318 -0.03167 182 165 155
-2.49637 -4.18152 -0.03598 183 168 158
-2.60196 -4.13743 -0.06599 177 168 142
-2.58787 -4.14124 -0.07193 184 172 156
-2.61177 -4.12370 -0.06891 162 154 124
-2.61793 -4.12421 -0.08335 171 150 129
-2.68377 -4.13817 -0.10189 174 164 156
-2.67980 -4.14034 -0.11215 174 171 156
-2.73358 -4.11306 -0.12119 173 166 152
-2.72963 -4.11522 -0.13140 162 152 145
-2.84903 -4.13410 -0.17385 181 170 154
-2.86329 -4.13024 -0.16785 182 169 135
-2.85929 -4.13243 -0.17818 182 167 127
-2.85529 -4.13462 -0.18851 194 191 162
-3.03597 -4.05449 -0.24775 188 181 174
-3.04776 -4.06280 -0.25375 195 195 197
-3.05553 -4.04753 -0.25562 196 196 195
-3.07561 -4.04373 -0.26404 218 216 203
-3.08177 -4.04424 -0.27845 206 204 198
-3.09292 -4.02510 -0.26975 208 209 195
-3.09904 -4.02561 -0.28409 191 190 177
-3.13016 -3.95349 -0.27890 203 198 195
-3.11651 -3.95718 -0.28465 204 195 183
-3.13616 -3.95398 -0.29294 214 217 195
-3.14979 -3.95016 -0.28716 210 201 191
-3.15578 -3.95065 -0.30120 206 198 192
-3.20086 -3.95073 -0.30958 199 196 189
-3.18716 -3.95443 -0.31535 207 200 189
-3.21106 -3.95060 -0.31403 190 177 185
-3.22064 -3.94783 -0.31795 207 200 204
-3.22665 -3.94833 -0.33204 216 206 209
-3.24006 -3.94343 -0.32602 217 203 201
-3.24390 -3.94133 -0.31610 205 197 189
-3.25375 -3.93972 -0.32025 195 181 178
-3.25047 -3.94411 -0.33065 200 177 178
-3.26417 -3.94041 -0.32487 205 196 173
-3.25930 -3.93837 -0.33394 209 197 178
-3.27298 -3.93466 -0.32817 208 206 181
-3.26914 -3.93676 -0.33809 209 203 181
-3.26530 -3.93887 -0.34800 212 207 197
-3.34981 -3.93078 -0.37281 191 191 193
-3.33994 -3.93239 -0.36865 192 190 192
-3.34596 -3.93289 -0.38275 184 183 178
-3.35862 -3.92546 -0.37614 207 208 205
-3.36463 -3.92596 -0.39022 215 213 200
-3.40608 -3.91142 -0.39552 212 202 199
-3.40224 -3.91352 -0.40542 212 211 204
-3.41207 -3.91192 -0.40957 218 209 207
-3.43465 -3.93711 -0.41060 213 209 205
-3.44071 -3.93761 -0.42479 221 217 203
-3.49380 -3.89467 -0.43226 210 214 214
-3.52205 -3.88630 -0.44379 221 214 211
-3.53569 -3.88261 -0.43805 220 221 221
-3.53186 -3.88471 -0.44793 215 211 203
-3.59269 -3.88040 -0.47414 230 223 200
-3.58670 -3.87990 -0.46009 231 226 226
-3.58286 -3.88200 -0.46999 229 232 217
-3.60416 -3.88319 -0.47944 239 231 227
-3.61017 -3.88369 -0.49351 231 224 212
-2.23015 -4.22989 0.07574 163 154 143
-2.22616 -4.23207 0.06543 159 148 128
-2.23726 -4.26355 0.06913 167 155 143
-2.24358 -4.26407 0.05434 167 153 132
-2.25566 -4.28814 0.05851 149 129 137
-2.44574 -4.17123 -0.01271 167 155 142
-2.43954 -4.17072 0.00181 179 166 146
-2.43558 -4.17289 -0.00843 176 165 153
-2.43161 -4.17505 -0.01866 181 165 154
-2.44177 -4.17340 -0.02295 182 168 155
-2.46575 -4.18412 -0.02283 183 175 157
-2.50670 -4.16163 -0.03845 187 175 164
-2.49258 -4.16545 -0.04440 173 158 155
-2.50274 -4.16380 -0.04869 181 167 157
-2.53724 -4.17044 -0.05276 188 176 164
-2.52703 -4.17210 -0.04845 199 186 163
-2.52305 -4.17428 -0.05873 191 183 163
-2.54747 -4.17329 -0.05754 178 165 165
-2.55371 -4.17381 -0.07215 165 154 146
-2.55779 -4.18101 -0.06286 175 161 158
-2.57204 -4.17716 -0.05686 182 172 157
-2.56804 -4.17935 -0.06719 173 163 155
-2.59868 -4.16939 -0.07959 184 172 154
-2.58445 -4.17324 -0.08559 189 177 163
-2.60841 -4.14821 -0.08166 174 158 138
-2.61462 -4.14873 -0.09620 170 151 135
-3.02270 -4.06306 -0.25450 186 175 173
-3.00864 -4.06686 -0.26043 198 191 185
-3.01875 -4.06522 -0.26469 184 174 176
-3.03261 -4.06016 -0.25855 182 176 176
-3.04365 -4.06407 -0.26380 198 195 192
-3.05148 -4.04901 -0.26567 202 202 197
-3.05763 -4.04952 -0.28008 210 200 184
-3.07094 -4.04174 -0.27344 209 208 191
-3.07708 -4.04225 -0.28784 206 205 195
-3.20472 -3.94189 -0.32175 188 172 182
-3.21498 -3.94214 -0.32627 206 195 200
-3.23473 -3.93936 -0.33465 220 208 196
-3.25414 -3.93515 -0.34272 211 200 192
-3.33363 -3.92553 -0.37658 190 186 181
-3.32763 -3.92503 -0.36253 201 199 188
-3.32379 -3.92713 -0.37243 204 198 184
-3.35175 -3.91684 -0.38363 198 198 189
-3.37199 -3.91573 -0.39239 221 216 197
-3.36816 -3.91783 -0.40229 224 222 214
-3.39199 -3.91373 -0.40095 204 203 190
-3.44772 -3.89390 -0.42333 221 217 211
-3.43793 -3.89550 -0.41920 223 219 205
-3.46134 -3.89022 -0.41760 226 223 207
-3.45370 -3.89440 -0.43733 211 197 200
-3.47492 -3.88244 -0.43407 202 197 193
-3.51729 -3.88568 -0.45299 237 236 230
-3.53666 -3.88180 -0.46108 230 224 215
-3.55028 -3.87811 -0.45534 227 227 222
-3.54646 -3.88020 -0.46521 227 227 223
-3.54264 -3.88230 -0.47509 220 214 219
-3.58569 -3.87387 -0.48176 230 227 205
-3.59709 -3.87658 -0.48704 213 209 194
-3.60308 -3.87708 -0.50107 225 227 218
-2.20830 -4.20900 0.07575 171 157 131
-2.19419 -4.21282 0.06980 179 166 144
-2.20434 -4.21116 0.06552 182 166 137
-2.21449 -4.20951 0.06124 158 146 135
-2.26236 -4.28450 0.04390 154 141 127
-2.25830 -4.28673 0.03339 148 132 114
-2.45193 -4.17207 -0.02726 178 166 153
-2.43780 -4.17589 -0.03322 180 162 150
-2.47245 -4.15723 -0.03468 190 172 161
-2.47863 -4.15775 -0.04915 164 147 148
-2.48263 -4.15201 -0.03859 171 152 155
-2.53326 -4.17494 -0.06329 179 174 158
-2.53949 -4.17546 -0.07789 167 157 150
-2.54353 -4.18286 -0.06865 165 152 146
-2.56410 -4.18682 -0.07811 169 162 151
-2.57837 -4.18295 -0.07209 175 165 153
-2.57432 -4.18155 -0.08203 177 168 155
-2.59506 -4.18911 -0.09195 186 173 164
-2.60491 -4.16925 -0.09414 174 159 151
-2.72390 -4.08953 -0.13783 165 159 150
-2.70995 -4.09331 -0.14371 174 168 157
-2.71999 -4.09167 -0.14794 175 172 156
-2.73394 -4.08790 -0.14206 166 156 153
-2.82827 -4.11427 -0.18632 194 187 170
-2.81810 -4.11593 -0.18203 189 176 166
-2.82430 -4.11644 -0.19657 204 201 183
-2.83448 -4.11479 -0.20085 202 197 183
-3.02922 -4.06572 -0.26934 192 189 185
-3.01515 -4.06953 -0.27527 195 193 182
-3.03894 -4.06169 -0.27318 214 217 202
-3.04763 -4.05165 -0.27591 216 210 197
-3.05378 -4.05216 -0.29033 207 201 194
-3.15986 -3.94223 -0.31344 203 197 189
-3.15006 -3.94382 -0.30931 213 207 198
-3.16368 -3.94014 -0.30357 200 202 198
-3.17347 -3.93854 -0.30770 198 194 193
-3.19055 -3.94327 -0.32703 194 188 178
-3.19654 -3.94376 -0.34105 179 171 157
-3.21988 -3.93800 -0.33934 198 200 198
-3.22953 -3.93573 -0.34334 205 196 186
-3.23896 -3.93255 -0.34713 204 202 194
-3.25798 -3.92697 -0.35488 207 204 199
-3.26395 -3.92747 -0.36888 182 175 172
-3.26562 -3.91685 -0.35715 194 184 184
-3.28422 -3.91006 -0.36459 200 206 205
-3.29336 -3.90613 -0.36818 204 206 200
-3.30691 -3.90247 -0.36247 204 196 177
-3.30311 -3.90455 -0.37229 199 197 187
-3.31483 -3.91029 -0.37806 210 208 195
-3.32080 -3.91078 -0.39203 224 223 211
-3.32554 -3.91209 -0.38295 212 209 191
-3.33150 -3.91259 -0.39693 220 217 206
-3.33554 -3.91129 -0.38726 209 205 188
-3.34151 -3.91179 -0.40125 214 211 203
-3.34602 -3.91217 -0.39196 207 200 190
-3.35200 -3.91266 -0.40595 214 208 203
-3.35676 -3.91388 -0.39685 215 210 202
-3.37712 -3.91325 -0.40573 202 193 191
-3.38776 -3.91448 -0.41054 186 181 185
-3.39730 -3.91193 -0.41445 206 205 202
-3.40713 -3.91033 -0.41859 217 211 206
-3.43334 -3.89512 -0.42847 215 209 198
-3.42355 -3.89671 -0.42434 216 211 200
-3.42952 -3.89721 -0.43833 214 207 199
-3.47646 -3.86956 -0.44466 200 201 205
-3.49497 -3.89431 -0.45545 236 235 229
-3.50447 -3.89177 -0.45934 243 239 233
-3.57874 -3.86742 -0.48934 244 243 231
-1.87910 -4.21673 0.20792 153 140 122
-1.86910 -4.21836 0.21214 139 118 121
-1.86520 -4.22049 0.20206 146 131 113
-1.88300 -4.21459 0.21800 156 138 126
-1.88910 -4.21510 0.20370 172 163 130
-1.88520 -4.21723 0.19363 155 149 129
-2.26968 -4.27281 0.02994 160 139 127
-2.25524 -4.27672 0.02385 143 135 119
-2.27602 -4.27334 0.01510 158 150 149
-2.41830 -4.15506 -0.02233 181 166 146
-2.41437 -4.15721 -0.03249 181 167 155
-2.42839 -4.15341 -0.02658 182 165 151
-2.42446 -4.15557 -0.03674 174 164 150
-2.46856 -4.15640 -0.04457 189 175 165
-2.48875 -4.15595 -0.05341 173 161 153
-2.49888 -4.15430 -0.05767 181 171 159
-2.49493 -4.15646 -0.06787 181 175 168
-2.51910 -4.16544 -0.06780 176 169 157
-2.50892 -4.16709 -0.06351 176 167 154
-2.51513 -4.16761 -0.07805 168 157 146
-2.52530 -4.16595 -0.08234 168 157 148
-2.52928 -4.17517 -0.07336 175 167 156
-2.54983 -4.19087 -0.08414 173 165 152
-2.55609 -4.19139 -0.09882 201 188 156
-2.56008 -4.18778 -0.08831 184 178 152
-2.57032 -4.18382 -0.09237 190 179 154
-2.57657 -4.18434 -0.10703 203 194 173
-2.58066 -4.18704 -0.09727 196 185 165
-2.59109 -4.19355 -0.10259 196 186 166
-2.60110 -4.17939 -0.10542 180 168 157
-2.61128 -4.17467 -0.10937 165 155 143
-2.62553 -4.17081 -0.10336 170 155 130
-2.62166 -4.17749 -0.11425 166 155 130
-2.63593 -4.17363 -0.10823 166 154 133
-2.64187 -4.16533 -0.12178 165 162 153
-2.65211 -4.16366 -0.12609 175 172 160
-2.64811 -4.16584 -0.13640 178 169 156
-2.72843 -4.06567 -0.14876 173 165 154
-2.74227 -4.06192 -0.14293 171 158 149
-2.73839 -4.06405 -0.15296 171 149 147
-2.73450 -4.06617 -0.16300 169 146 150
-2.81111 -4.08531 -0.18730 194 184 174
-2.80497 -4.08480 -0.17292 184 174 167
-2.80105 -4.08695 -0.18306 182 172 156
-2.79712 -4.08910 -0.19320 183 175 157
-3.02437 -4.06234 -0.27853 206 205 189
-3.01033 -4.06615 -0.28445 189 189 169
-3.02043 -4.06450 -0.28871 201 199 183
-3.03592 -4.06940 -0.28439 210 209 196
-3.04378 -4.05430 -0.28617 209 199 193
-3.04993 -4.05481 -0.30058 207 205 196
-3.14616 -3.94551 -0.31909 208 202 187
-3.14018 -3.94501 -0.30510 210 206 201
-3.13636 -3.94710 -0.31496 210 203 187
-3.13254 -3.94919 -0.32483 214 207 181
-3.15213 -3.94600 -0.33309 191 183 178
-3.16551 -3.94124 -0.32713 188 185 163
-3.17148 -3.94174 -0.34112 185 180 171
-3.17517 -3.93907 -0.33113 191 193 181
-3.18687 -3.94604 -0.33705 180 177 158
-3.21523 -3.93659 -0.34847 179 182 180
-3.22503 -3.93497 -0.35260 189 186 181
-3.23377 -3.92895 -0.35578 201 207 196
-3.24319 -3.92586 -0.35957 206 214 201
-3.25283 -3.92374 -0.36358 192 192 183
-3.26956 -3.90943 -0.36935 188 180 183
-3.26576 -3.91151 -0.37916 194 189 186
-3.27550 -3.90993 -0.38327 191 185 184
-3.27925 -3.90765 -0.37341 194 192 194
-3.28519 -3.90814 -0.38733 191 187 181
-3.28687 -3.89794 -0.37568 195 190 190
-3.30767 -3.89988 -0.38504 216 217 211
-3.36098 -3.90822 -0.40941 218 213 211
-3.35716 -3.91031 -0.41927 205 197 199
-3.36694 -3.90871 -0.42339 204 203 205
-3.38393 -3.91656 -0.42043 179 170 183
-3.39347 -3.91400 -0.42434 194 189 194
-3.40445 -3.91628 -0.42942 212 210 201
-3.41812 -3.91258 -0.42366 214 210 201
-3.41429 -3.91467 -0.43357 220 221 206
-3.45154 -3.86959 -0.44494 205 195 187
-3.46711 -3.85472 -0.45013 206 203 205
-3.48325 -3.87262 -0.45922 237 238 230
-3.49302 -3.87116 -0.46336 243 238 231
-3.49843 -3.85682 -0.46414 211 203 199
-3.50903 -3.85787 -0.46891 214 213 204
-3.51494 -3.85836 -0.48278 226 228 221
-3.59146 -3.85822 -0.50520 219 215 206
-3.60501 -3.85455 -0.49949 246 250 235
-3.60121 -3.85663 -0.50931 242 241 233
-3.59741 -3.85871 -0.51913 238 242 238
-2.18430 -4.17729 0.06651 160 149 140
-2.17818 -4.17679 0.08085 172 157 139
-2.17036 -4.18107 0.06064 153 143 132
-2.18821 -4.17515 0.07662 171 161 148
-2.19433 -4.17566 0.06228 180 165 144
-2.26645 -4.26473 0.02030 158 146 133
-2.26241 -4.26693 0.00987 161 154 143
-2.45460 -4.15575 -0.05003 185 175 169
-2.46076 -4.15626 -0.06447 188 172 169
-2.53552 -4.18287 -0.08878 173 166 156
-2.53153 -4.18505 -0.09909 180 170 159
-2.54176 -4.18339 -0.10340 188 178 168
-2.54581 -4.19090 -0.09424 188 179 161
-2.55207 -4.19142 -0.10890 197 186 166
-2.56639 -4.19209 -0.10343 203 190 161
-2.56238 -4.19429 -0.11379 201 192 169
-2.58729 -4.20722 -0.11438 198 190 171
-2.59360 -4.20775 -0.12915 183 173 154
-2.59736 -4.19346 -0.11723 181 168 160
-2.60364 -4.19398 -0.13194 188 179 151
-2.60775 -4.19524 -0.12201 171 164 151
-2.61404 -4.19576 -0.13674 195 180 161
-2.61805 -4.19326 -0.12631 177 170 147
-2.62434 -4.19378 -0.14104 194 179 171
-2.62830 -4.18973 -0.13042 177 162 151
-2.70422 -4.06404 -0.14941 170 161 154
-2.69816 -4.06354 -0.13521 177 173 151
-2.69428 -4.06566 -0.14522 181 176 155
-2.71028 -4.06454 -0.16361 158 147 141
-2.71417 -4.06263 -0.15363 172 166 151
-2.80638 -4.07857 -0.19607 181 177 162
-2.79243 -4.08235 -0.20195 193 181 175
-2.81707 -4.08389 -0.20139 194 190 174
-2.82713 -4.08225 -0.20563 199 189 168
-3.03239 -4.07417 -0.29508 198 188 181
-3.01830 -4.07798 -0.30102 201 199 183
-3.02844 -4.07633 -0.30530 196 189 184
-3.14210 -3.94646 -0.32872 193 188 172
-3.12849 -3.95014 -0.33446 222 224 204
-3.19182 -3.94191 -0.35009 199 196 159
-3.19780 -3.94241 -0.36410 202 197 173
-3.22088 -3.93566 -0.36217 193 185 176
-3.22685 -3.93616 -0.37617 204 195 184
-3.22940 -3.92874 -0.36513 201 200 186
-3.23876 -3.92542 -0.36887 204 203 192
-3.24605 -3.91378 -0.37074 181 175 165
-3.25558 -3.91135 -0.37466 184 182 175
-3.26152 -3.91185 -0.38857 200 196 192
-3.29166 -3.89415 -0.38857 199 199 190
-3.27818 -3.89780 -0.39425 196 198 186
-3.28788 -3.89622 -0.39834 190 190 185
-3.30370 -3.90133 -0.39470 207 206 204
-3.31316 -3.89874 -0.39856 211 206 203
-3.31909 -3.89923 -0.41246 196 191 181
-3.32409 -3.90154 -0.40370 205 200 196
-3.33505 -3.90437 -0.40885 206 208 204
-3.37460 -3.89982 -0.42574 203 199 202
-3.37079 -3.90191 -0.43558 214 209 205
-3.38469 -3.89933 -0.43013 204 197 196
-3.39064 -3.89982 -0.44408 196 186 186
-3.40861 -3.91070 -0.44197 210 211 195
-3.41843 -3.90910 -0.44611 220 220 207
-3.45453 -3.86102 -0.45648 205 202 198
-3.46188 -3.85234 -0.45872 213 216 201
-3.46777 -3.85283 -0.47252 234 232 220
-3.47511 -3.86157 -0.46561 230 232 220
-3.48526 -3.86137 -0.47005 238 241 238
-3.58625 -3.85649 -0.51396 227 226 219
-3.59219 -3.85698 -0.52787 243 249 238
-2.18917 -4.18966 0.05133 176 162 149
-2.20316 -4.18587 0.05722 184 166 141
-2.19924 -4.18802 0.04708 178 158 151
-2.19531 -4.19017 0.03694 171 151 149
-2.41259 -4.10085 -0.03665 169 158 153
-2.39883 -4.10457 -0.04245 164 152 141
-2.41862 -4.10135 -0.05080 181 173 159
-2.43196 -4.11143 -0.04646 187 178 159
-2.43803 -4.11194 -0.06066 193 183 170
-2.47159 -4.11338 -0.06416 185 171 159
-2.45773 -4.11713 -0.07000 188 176 165
-2.46770 -4.11551 -0.07420 187 174 161
-2.49156 -4.10779 -0.07230 179 169 159
-2.48767 -4.10992 -0.08234 168 155 141
-2.50152 -4.10617 -0.07650 179 166 150
-2.57282 -4.20395 -0.11954 199 188 168
-2.57912 -4.20448 -0.13427 181 169 151
-2.73901 -4.04407 -0.17386 176 169 151
-2.75275 -4.04036 -0.16806 191 193 165
-2.74890 -4.04247 -0.17802 189 190 166
-2.74504 -4.04458 -0.18798 196 200 170
-2.80131 -4.06779 -0.20414 169 163 159
-2.79742 -4.06993 -0.21421 169 161 158
-2.81170 -4.07044 -0.20904 175 169 159
-2.82343 -4.08669 -0.21613 194 191 173
-2.83742 -4.08290 -0.21024 193 186 164
-2.83350 -4.08505 -0.22038 190 190 172
-2.82957 -4.08720 -0.23052 190 190 176
-3.13775 -3.94600 -0.33805 199 196 181
-3.12416 -3.94968 -0.34378 213 216 210
-3.13394 -3.94809 -0.34790 209 203 193
-3.21534 -3.93043 -0.37041 212 204 187
-3.23393 -3.92330 -0.37776 200 195 188
-3.23012 -3.92538 -0.38759 198 192 179
-3.23988 -3.92380 -0.39171 202 202 196
-3.24434 -3.92438 -0.38248 186 183 177
-3.25030 -3.92487 -0.39644 212 209 200
-3.25158 -3.91261 -0.38428 197 198 189
-3.25752 -3.91311 -0.39819 196 187 185
-3.29796 -3.89607 -0.40277 191 185 189
-3.29417 -3.89814 -0.41254 188 179 175
-3.30388 -3.89656 -0.41664 196 186 180
-3.30675 -3.89108 -0.40605 201 192 190
-3.31266 -3.89157 -0.41990 197 191 184
-3.32803 -3.89480 -0.41588 197 194 184
-3.32424 -3.89688 -0.42567 194 189 173
-3.33882 -3.89705 -0.42090 203 196 192
-3.34476 -3.89754 -0.43480 202 201 189
-3.38007 -3.89865 -0.43928 211 204 197
-3.37626 -3.90073 -0.44911 206 201 195
-3.38602 -3.89915 -0.45322 205 199 196
-3.40269 -3.90583 -0.45010 197 191 189
-3.40866 -3.90632 -0.46410 216 209 207
-3.45275 -3.86930 -0.46785 214 205 196
-3.43927 -3.87295 -0.47353 206 204 202
-3.45867 -3.86979 -0.48171 225 225 221
-3.46095 -3.86312 -0.47073 231 230 214
-2.17322 -4.21125 0.04412 162 153 131
-2.16927 -4.21341 0.03392 174 164 150
-2.17940 -4.21176 0.02965 173 161 158
-2.40937 -4.08603 -0.04484 171 160 152
-2.39568 -4.08973 -0.05061 178 171 155
-2.47808 -4.08760 -0.07537 175 165 151
-2.48411 -4.08810 -0.08950 164 154 138
-2.55847 -4.20549 -0.12528 196 190 174
-2.56475 -4.20601 -0.14001 181 174 153
-2.56890 -4.21355 -0.13087 187 175 157
-2.62044 -4.20033 -0.15202 182 167 167
-2.61012 -4.20201 -0.14766 188 171 158
-2.60610 -4.20422 -0.15806 183 180 167
-2.62674 -4.20086 -0.16676 167 147 153
-2.63070 -4.19660 -0.15609 175 163 165
-2.63699 -4.19712 -0.17083 176 170 164
-2.71568 -4.05424 -0.17620 165 152 153
-2.72470 -4.03909 -0.17833 168 158 145
-2.73424 -4.03278 -0.18177 184 188 164
-2.75425 -4.03398 -0.19076 198 190 146
-2.75810 -4.03188 -0.18083 181 177 149
-2.76796 -4.03027 -0.18498 156 156 142
-2.76495 -4.04308 -0.19659 169 161 160
-2.77870 -4.03935 -0.19080 186 179 180
-2.77484 -4.04147 -0.20076 177 172 162
-2.77098 -4.04358 -0.21073 168 171 160
-2.80742 -4.06839 -0.21844 168 166 154
-2.81858 -4.07912 -0.22468 190 197 180
-2.82471 -4.07963 -0.23902 192 192 172
-3.14329 -3.94443 -0.35158 222 214 186
-3.13948 -3.94651 -0.36143 229 230 200
-3.14988 -3.92787 -0.35247 199 193 178
-3.15582 -3.92836 -0.36637 189 177 169
-3.16916 -3.92391 -0.36050 194 183 175
-3.16537 -3.92598 -0.37029 199 194 181
-3.18982 -3.92610 -0.36989 199 199 189
-3.19966 -3.92498 -0.37410 213 215 203
-3.22063 -3.92810 -0.38374 210 202 186
-3.22659 -3.92860 -0.39769 194 184 161
-3.28184 -3.88963 -0.40606 197 196 186
-3.27217 -3.89120 -0.40198 201 206 193
-3.26840 -3.89327 -0.41172 208 215 191
-3.33076 -3.88379 -0.42694 199 195 180
-3.33666 -3.88428 -0.44077 209 210 188
-3.39513 -3.89541 -0.45679 207 203 201
-3.40108 -3.89590 -0.47072 224 216 211
-3.44746 -3.86664 -0.47637 211 207 202
-3.43400 -3.87028 -0.48204 211 210 205
-3.45336 -3.86713 -0.49021 227 226 217
-3.46289 -3.85147 -0.48133 223 222 219
-3.46877 -3.85196 -0.49511 212 215 208
-3.46799 -3.83618 -0.48171 217 212 202
-1.85455 -4.17616 0.17776 145 129 123
-2.15689 -4.23486 0.03669 170 159 138
-2.15068 -4.23434 0.05125 163 150 135
-2.14670 -4.23652 0.04099 169 152 135
-2.16310 -4.23537 0.02214 184 167 154
-2.40569 -4.08385 -0.05429 164 154 146
-2.39203 -4.08755 -0.06005 184 177 153
-2.40186 -4.08595 -0.06420 154 142 139
-2.41542 -4.08517 -0.05876 179 165 151
-2.42142 -4.08567 -0.07282 166 157 141
-2.42514 -4.08723 -0.06332 179 164 155
-2.46440 -4.08859 -0.08084 179 172 161
-2.45452 -4.09020 -0.07668 179 173 165
-2.46054 -4.09070 -0.09079 177 163 154
-2.47042 -4.08909 -0.09496 180 170 151
-2.47427 -4.08708 -0.08502 170 163 149
-2.54421 -4.22132 -0.13285 187 174 163
-2.52983 -4.22521 -0.13891 176 164 159
-2.54017 -4.22353 -0.14327 179 168 159
-2.69130 -4.04643 -0.17586 176 161 147
-2.71101 -4.04300 -0.18414 182 169 159
-2.72036 -4.03342 -0.18707 166 154 134
-2.72636 -4.03392 -0.20112 161 163 162
-2.72938 -4.01974 -0.18933 172 177 165
-2.73912 -4.01733 -0.19334 192 199 174
-2.74509 -4.01783 -0.20733 176 166 163
-2.74901 -4.01705 -0.19767 193 186 163
-2.75949 -4.02434 -0.20322 168 162 163
-2.76548 -4.02484 -0.21726 170 170 160
-2.79235 -4.05858 -0.22206 175 163 155
-2.78240 -4.06020 -0.21787 167 163 152
-2.80288 -4.06344 -0.22734 182 179 159
-2.80897 -4.06395 -0.24159 186 183 172
-2.81393 -4.07333 -0.23347 186 191 175
-2.82004 -4.07384 -0.24777 186 185 166
-3.14419 -3.92093 -0.36029 193 181 181
-3.15011 -3.92142 -0.37414 185 173 164
-3.17346 -3.91704 -0.37274 192 188 183
-3.18395 -3.91898 -0.37762 204 206 188
-3.19536 -3.92484 -0.38340 209 211 187
-3.20129 -3.92533 -0.39731 197 197 171
-3.20531 -3.92419 -0.38772 207 206 183
-3.21125 -3.92468 -0.40164 202 198 176
-3.28693 -3.88702 -0.41913 200 193 173
-3.29659 -3.88545 -0.42320 200 193 177
-3.29282 -3.88751 -0.43293 200 194 176
-3.31290 -3.87128 -0.42863 200 196 176
-3.30327 -3.87285 -0.42457 197 192 178
-3.29952 -3.87490 -0.43426 195 189 175
-3.31877 -3.87177 -0.44238 217 216 190
-2.67757 -4.04975 -0.18157 192 177 159
-2.66387 -4.05345 -0.18735 183 168 160
-2.67373 -4.05185 -0.19150 183 173 160
-2.69675 -4.03680 -0.18838 170 156 144
-2.71548 -4.01888 -0.19436 186 179 158
-2.75439 -4.00967 -0.21039 176 169 166
-3.01283 -3.99543 -0.32296 209 206 197
-3.02654 -3.99172 -0.31719 210 203 196
-3.02269 -3.99382 -0.32712 208 204 200
-3.01885 -3.99593 -0.33705 208 200 188
-3.03834 -3.96694 -0.33056 208 205 197
-3.03237 -3.96645 -0.31658 212 205 195
-3.02856 -3.96854 -0.32644 208 203 196
-3.04216 -3.96486 -0.32071 215 211 200
-3.05194 -3.96326 -0.32483 215 214 193
-3.04676 -3.95758 -0.33308 210 208 191
-3.06032 -3.95391 -0.32736 206 201 171
-3.05271 -3.95807 -0.34702 195 188 174
-3.05557 -3.95071 -0.33609 200 198 173
-3.06911 -3.94705 -0.33038 190 184 177
-3.06151 -3.95120 -0.35000 206 206 180
-3.06517 -3.94837 -0.34003 197 198 175
-3.07871 -3.94470 -0.33433 192 189 168
-3.08471 -3.94551 -0.34831 185 177 168
-3.09824 -3.94185 -0.34261 165 163 177
-3.09444 -3.94393 -0.35242 164 152 159
-3.10379 -3.94034 -0.35609 185 181 189
-3.11732 -3.93668 -0.35039 206 203 196
-3.11352 -3.93876 -0.36019 202 200 203
-3.13055 -3.92377 -0.36579 207 205 185
-3.12086 -3.92535 -0.36170 193 185 179
-3.12677 -3.92584 -0.37555 199 191 175
-3.13763 -3.90975 -0.36711 192 179 179
-3.15688 -3.90635 -0.37519 189 184 171
-3.15312 -3.90841 -0.38491 178 166 157
-3.16699 -3.90685 -0.37973 176 173 169
-3.17738 -3.90856 -0.38455 199 202 177
-3.18847 -3.91327 -0.39007 197 202 174
-3.19438 -3.91376 -0.40392 204 206 182
-3.30496 -3.85793 -0.43447 203 198 185
-3.29165 -3.86153 -0.44008 204 200 181
-3.30123 -3.85997 -0.44411 203 201 193
-3.32303 -3.85096 -0.44157 207 207 182
-3.33632 -3.84736 -0.43597 199 197 187
-3.33259 -3.84940 -0.44560 200 198 183
-3.32886 -3.85144 -0.45523 196 194 178
-3.42224 -3.87941 -0.48918 207 206 188
-3.41253 -3.88098 -0.48509 201 200 183
-3.40875 -3.88306 -0.49486 207 207 188
-3.42602 -3.87734 -0.47941 213 212 198
-3.42815 -3.87990 -0.50304 230 230 206
-3.43160 -3.87677 -0.49299 220 219 203
-3.56547 -3.76710 -0.53803 237 231 208
-3.57856 -3.76356 -0.53252 208 201 206
-3.57671 -3.77039 -0.54344 214 208 204
-3.58982 -3.76684 -0.53791 229 232 226
-3.57872 -3.74942 -0.54161 232 238 235
-3.59174 -3.74589 -0.53612 230 231 218
-3.59283 -3.76021 -0.54926 241 240 231
-3.60591 -3.75667 -0.54374 196 191 184
-3.60709 -3.77114 -0.55699 207 203 201
-3.61654 -3.76960 -0.56097 228 231 218
-2.21236 -4.10721 0.00566 164 155 136
-2.22597 -4.10353 0.01140 169 159 134
-2.22215 -4.10562 0.00153 170 154 127
-2.68304 -4.03964 -0.19401 187 176 154
-2.69255 -4.03223 -0.19723 182 168 147
-2.70265 -4.03574 -0.20218 189 190 182
-2.71129 -4.01473 -0.20321 199 197 172
-2.73097 -4.01391 -0.21182 177 172 150
-2.73693 -4.01441 -0.22578 190 194 163
-2.74000 -4.00199 -0.21424 185 181 168
-2.74876 -3.98716 -0.21614 194 191 174
-2.75467 -3.98765 -0.22999 182 180 161
-2.76000 -4.00556 -0.22358 174 175 161
-3.00677 -3.98373 -0.33007 200 194 182
-3.01276 -3.98423 -0.34410 203 196 180
-3.02613 -3.97893 -0.33802 201 184 185
-3.03212 -3.97942 -0.35203 180 168 168
-3.03480 -3.97066 -0.34076 195 187 181
-3.04254 -3.95727 -0.34240 193 185 170
-3.06905 -3.93764 -0.35154 199 194 181
-3.05556 -3.94129 -0.35722 212 208 186
-3.07496 -3.93813 -0.36540 181 171 173
-3.08772 -3.93068 -0.35889 182 175 173
-3.09829 -3.93365 -0.36397 187 180 185
-3.10686 -3.92634 -0.36679 198 199 205
-3.11537 -3.91895 -0.36958 195 190 184
-3.13091 -3.89757 -0.37362 208 201 177
-3.14004 -3.89375 -0.37716 191 176 158
-3.16110 -3.89922 -0.38723 178 178 170
-3.16698 -3.89971 -0.40098 195 191 174
-3.17129 -3.90016 -0.39187 196 196 179
-3.17716 -3.90065 -0.40563 194 185 170
-3.18106 -3.89923 -0.39608 195 194 179
-3.30876 -3.85095 -0.44625 209 206 192
-3.29548 -3.85454 -0.45184 202 191 188
-3.30503 -3.85299 -0.45587 205 196 185
-3.31458 -3.85143 -0.45989 203 195 178
-3.45685 -3.84260 -0.51079 206 211 203
-3.54419 -3.77554 -0.54057 203 206 199
-3.54994 -3.77601 -0.55404 227 226 216
-3.56903 -3.76178 -0.54975 224 225 219
-3.56536 -3.76379 -0.55922 228 224 218
-3.57730 -3.75730 -0.55282 214 208 213
-3.60419 -3.74945 -0.56370 234 233 230
-3.61723 -3.74593 -0.55820 218 218 215
-3.61570 -3.75333 -0.56931 240 238 225
-2.65951 -4.04378 -0.19544 177 168 161
-2.64586 -4.04748 -0.20119 188 189 176
-2.66962 -4.04838 -0.20056 179 174 163
-2.67562 -4.04888 -0.21462 198 186 173
-2.67874 -4.03230 -0.20240 198 191 175
-2.68471 -4.03280 -0.21640 203 193 172
-2.68850 -4.03012 -0.20644 199 189 166
-2.70756 -4.01816 -0.21326 185 177 145
-2.72619 -4.00144 -0.21924 181 184 163
-2.74458 -3.98374 -0.22498 191 186 172
-2.74080 -3.98581 -0.23472 190 177 163
-2.76593 -4.00587 -0.23749 189 178 147
-2.77651 -4.01421 -0.24333 177 175 162
-2.78248 -4.01471 -0.25731 196 196 182
-2.98400 -3.99355 -0.33261 181 173 171
-2.99318 -3.98774 -0.33589 182 173 171
-2.99917 -3.98824 -0.34991 186 184 176
-3.02229 -3.98092 -0.34788 199 180 179
-3.06434 -3.93467 -0.36021 199 194 187
-3.09253 -3.92546 -0.37146 206 202 187
-3.11101 -3.91802 -0.37864 182 178 178
-3.12529 -3.89057 -0.38122 219 207 185
-3.13113 -3.89105 -0.39490 199 192 187
-3.13602 -3.89448 -0.38652 201 184 168
-3.14575 -3.89356 -0.39071 191 182 174
-3.15160 -3.89404 -0.40442 203 198 183
-3.15596 -3.89487 -0.39543 195 192 181
-3.19212 -3.87882 -0.40928 203 193 177
-3.20542 -3.87522 -0.40367 196 185 176
-3.19943 -3.86759 -0.41099 201 193 186
-3.21269 -3.86400 -0.40540 205 195 192
-3.20897 -3.86603 -0.41501 196 187 186
-3.35196 -3.80832 -0.47058 208 202 182
-3.34620 -3.80784 -0.45710 199 189 179
-3.33885 -3.81187 -0.47610 215 212 191
-3.35563 -3.80631 -0.46108 196 191 184
-3.36506 -3.80477 -0.46506 206 203 191
-3.35718 -3.79261 -0.47075 215 213 190
-3.37022 -3.78908 -0.46525 211 208 189
-3.36760 -3.79455 -0.47564 210 208 194
-3.41719 -3.82667 -0.50205 220 215 197
-3.46069 -3.83694 -0.52277 204 208 187
-3.46653 -3.83743 -0.53646 208 212 194
-3.57259 -3.75651 -0.56143 207 205 205
-3.59111 -3.75286 -0.56915 226 227 224
-3.60699 -3.74248 -0.57478 251 247 239
-2.18478 -4.11770 -0.00611 177 166 149
-2.17115 -4.12139 -0.01185 179 163 138
-2.19459 -4.11613 -0.01024 182 171 150
-2.20526 -4.10614 -0.01358 177 171 143
-2.56782 -4.10067 -0.17398 193 183 176
-2.56175 -4.10016 -0.15976 200 191 178
-2.55787 -4.10229 -0.16979 196 184 183
-2.57170 -4.09854 -0.16396 199 190 178
-2.57775 -4.09776 -0.17799 191 179 159
-2.59158 -4.09402 -0.17216 173 163 164
-2.58770 -4.09614 -0.18218 178 167 161
-2.58382 -4.09826 -0.19220 170 160 153
-2.65605 -4.05459 -0.20672 182 179 168
-2.65221 -4.05669 -0.21664 188 181 177
-2.66206 -4.05509 -0.22080 199 191 179
-2.66612 -4.05790 -0.21166 186 178 167
-2.67214 -4.05839 -0.22576 197 189 177
-2.70400 -4.02451 -0.22381 182 171 149
-2.70997 -4.02500 -0.23778 191 192 182
-2.73148 -3.99244 -0.23151 192 185 158
-2.76058 -3.98810 -0.24383 195 187 148
-2.77129 -3.99909 -0.25014 188 175 163
-2.77723 -3.99959 -0.26405 197 192 187
-2.94744 -3.97746 -0.32540 199 183 171
-2.94149 -3.97697 -0.31147 207 204 182
-2.93388 -3.98113 -0.33112 193 184 180
-2.95124 -3.97538 -0.31558 200 193 171
-2.94364 -3.97954 -0.33523 193 186 182
-2.96100 -3.97379 -0.31969 190 180 167
-2.96786 -3.98047 -0.33491 198 199 187
-2.97986 -3.99363 -0.34209 207 205 184
-2.98921 -3.98894 -0.34559 199 195 176
-2.99520 -3.98944 -0.35961 194 190 177
-3.00932 -3.98877 -0.35450 203 208 193
-3.01532 -3.98926 -0.36854 216 211 192
-3.01809 -3.98076 -0.35728 214 207 189
-3.02636 -3.97002 -0.35944 191 180 177
-3.03232 -3.97052 -0.37340 202 196 193
-3.03366 -3.95396 -0.36042 199 195 186
-3.03959 -3.95446 -0.37432 216 211 207
-3.04215 -3.94531 -0.36298 213 211 197
-3.05080 -3.93784 -0.36578 210 203 194
-3.05889 -3.92752 -0.36792 197 186 183
-3.07715 -3.91879 -0.37481 184 175 164
-3.08617 -3.91402 -0.37815 202 202 192
-3.09380 -3.90223 -0.37988 197 195 179
-3.09965 -3.90271 -0.39359 187 178 173
-3.13903 -3.88156 -0.39708 200 198 189
-3.13530 -3.88360 -0.40670 200 201 191
-3.14485 -3.88205 -0.41072 208 203 181
-3.15751 -3.87565 -0.40446 204 202 186
-3.15379 -3.87769 -0.41407 208 206 193
-3.16648 -3.87154 -0.40787 201 196 178
-3.17229 -3.87203 -0.42149 201 198 185
-3.19319 -3.85882 -0.41796 205 204 197
-3.20183 -3.85359 -0.42106 188 179 173
-3.21502 -3.85002 -0.41550 198 194 193
-3.21194 -3.85463 -0.42570 187 184 177
-3.22514 -3.85106 -0.42014 206 205 194
-3.22392 -3.86331 -0.43225 201 197 185
-3.23717 -3.85972 -0.42666 205 201 190
-3.23345 -3.86176 -0.43627 215 209 196
-3.22974 -3.86379 -0.44587 214 210 195
-3.25184 -3.85597 -0.44363 203 197 187
-3.24603 -3.85549 -0.43002 193 185 180
-3.24232 -3.85752 -0.43961 202 195 188
-3.23860 -3.85956 -0.44921 210 201 197
-3.26869 -3.84441 -0.44949 212 208 179
-3.28189 -3.84084 -0.44393 205 198 181
-3.27819 -3.84287 -0.45350 202 188 179
-3.34151 -3.78711 -0.47380 215 214 193
-3.32851 -3.79063 -0.47928 213 212 194
-3.34896 -3.77914 -0.47599 228 231 210
-3.56655 -3.75221 -0.56893 216 208 208
-3.58226 -3.74134 -0.57439 230 233 223
-3.58796 -3.74182 -0.58772 229 229 224
-3.59275 -3.74281 -0.57926 240 244 235
-3.61227 -3.74188 -0.58780 240 233 227
