ply
format ascii 1.0
element face 0
property list uchar int vertex_indices
element vertex 1278
property float x
property float y
property float z
property uchar diffuse_red
property uchar diffuse_green
property uchar diffuse_blue
end_header
-3.88266 -4.51852 0.10176 199 202 198
-3.89302 -4.51821 0.08286 203 203 198
-3.98402 -4.57510 0.06752 207 213 208
-3.96504 -4.57808 0.05698 208 211 202
-3.97980 -4.57643 0.05265 213 214 206
-3.99455 -4.57478 0.04831 211 212 206
-5.15480 -4.27929 -0.26575 216 218 214
-5.14468 -4.27960 -0.24729 214 218 222
-5.14062 -4.28088 -0.26159 210 212 215
-5.13656 -4.28215 -0.27588 208 207 215
-5.15074 -4.28057 -0.28005 212 213 214
-5.16806 -4.27599 -0.26953 211 203 207
-5.17817 -4.27568 -0.28799 207 202 210
-1.89462 -4.12078 0.71321 116 96 76
-1.87872 -4.12328 0.70438 119 105 87
-1.89108 -4.12189 0.70074 121 108 85
-1.90345 -4.12051 0.69711 115 102 87
-1.90282 -4.13240 0.70993 106 85 69
-2.62143 -3.79597 0.51649 23 20 22
-2.60661 -3.79829 0.50826 23 23 16
-2.61813 -3.79700 0.50487 22 20 19
-2.63195 -3.80209 0.51289 36 31 40
-2.64206 -3.81164 0.50918 59 56 53
-2.65333 -3.81274 0.50570 71 69 66
-2.66824 -3.81040 0.51398 72 72 71
-2.66492 -3.81144 0.50229 74 72 70
-2.66161 -3.81249 0.49061 74 71 67
-2.99048 -4.17003 0.37924 110 126 139
-3.01688 -4.14282 0.37316 187 188 196
-3.03024 -4.11205 0.37126 202 201 214
-3.05585 -4.10205 0.36423 224 224 229
-3.51471 -4.28470 0.21316 225 229 230
-3.49727 -4.28744 0.20347 226 232 235
-3.53689 -4.35923 0.20130 198 202 200
-3.55206 -4.36916 0.19604 166 170 164
-3.73907 -4.47948 0.13198 159 155 155
-3.75178 -4.46797 0.12895 169 171 161
-3.76198 -4.46766 0.11034 180 190 169
-3.76130 -4.43780 0.12817 175 173 155
-3.77548 -4.43621 0.12400 180 176 165
-3.77142 -4.43749 0.10969 184 183 170
-3.85306 -4.46350 0.09870 199 198 197
-3.84896 -4.46478 0.08428 201 204 201
-3.86328 -4.46318 0.08007 203 206 202
-4.23681 -4.41098 -0.01341 214 216 208
-4.23273 -4.41226 -0.02781 226 228 219
-1.89804 -4.17508 0.69475 83 69 57
-1.88190 -4.17761 0.68579 116 104 98
-1.89445 -4.17620 0.68210 97 87 68
-1.95350 -4.15224 0.67967 21 14 17
-1.94458 -4.15251 0.69594 13 10 8
-1.94100 -4.15363 0.68334 17 10 10
-1.95707 -4.15111 0.69227 17 15 18
-1.94992 -4.15336 0.66708 33 23 29
-1.96179 -4.16476 0.67625 32 23 28
-1.97075 -4.16448 0.65992 57 48 47
-1.97864 -4.14891 0.67232 42 33 37
-2.62815 -3.80674 0.50114 34 26 37
-2.61328 -3.80907 0.49288 29 23 26
-2.63819 -3.81686 0.49736 56 49 51
-2.64950 -3.81773 0.49388 70 66 62
-2.65779 -3.81747 0.47877 71 70 68
-2.98688 -4.16707 0.36644 100 111 131
-2.97023 -4.16968 0.35719 38 43 60
-3.01296 -4.15538 0.35942 182 184 191
-3.02631 -4.12895 0.35732 198 198 209
-3.03934 -4.11262 0.35457 210 212 222
-3.05213 -4.11075 0.35085 221 219 228
-3.06125 -4.11047 0.33421 229 229 234
-3.06497 -4.10001 0.34775 230 229 237
-3.08136 -4.09744 0.35686 239 239 242
-3.07771 -4.09858 0.34401 236 235 241
-3.07406 -4.09973 0.33116 235 235 239
-3.51255 -4.30169 0.19782 225 230 231
-3.49503 -4.30444 0.18809 225 230 235
-3.53294 -4.36055 0.18735 199 199 199
-3.54281 -4.36025 0.16935 161 161 164
-3.54765 -4.36661 0.18247 163 165 163
-3.56316 -4.37897 0.17688 143 147 145
-3.57309 -4.37867 0.15877 135 138 130
-3.71021 -4.50962 0.12291 149 149 147
-3.69992 -4.50994 0.14168 141 143 145
-3.69580 -4.51124 0.12715 141 143 141
-3.69167 -4.51253 0.11262 143 142 138
-3.71434 -4.50833 0.13744 149 150 149
-3.72198 -4.49098 0.12072 161 163 159
-3.73547 -4.48390 0.11716 159 158 162
-3.74570 -4.48359 0.09850 165 173 175
-3.74706 -4.46538 0.11501 170 176 177
-3.75725 -4.46507 0.09643 181 179 176
-3.77436 -4.37090 0.11367 180 180 185
-3.79100 -4.38449 0.10765 189 190 187
-3.80539 -4.38506 0.10326 200 200 187
-3.82467 -4.41210 0.09546 200 198 193
-3.83475 -4.41179 0.07708 202 200 195
-5.14487 -4.25044 -0.29150 220 221 221
-5.12677 -4.25328 -0.30155 220 222 228
-1.95951 -4.16158 0.66354 44 41 38
-1.94339 -4.16411 0.65460 46 42 37
-1.95592 -4.16271 0.65092 43 41 32
-1.96845 -4.16131 0.64724 47 32 42
-2.62361 -3.81676 0.48917 35 26 38
-2.60870 -3.81910 0.48089 30 22 29
-2.63405 -3.82401 0.48545 51 46 50
-2.64520 -3.82629 0.48190 65 64 62
-2.65350 -3.82603 0.46676 74 71 71
-2.98272 -4.18429 0.35229 92 106 124
-3.00907 -4.16552 0.34577 182 185 191
-3.02234 -4.14615 0.34324 197 197 207
-3.03539 -4.13344 0.34027 210 210 218
-3.04827 -4.12963 0.33667 220 220 227
-3.05743 -4.12934 0.31995 229 230 232
-3.51117 -4.32631 0.18153 226 227 230
-3.49355 -4.32908 0.17174 226 230 234
-3.52511 -4.32696 0.17726 199 199 201
-3.55793 -4.36960 0.16406 139 139 140
-3.55396 -4.37085 0.15008 140 135 140
-3.56783 -4.36930 0.14600 140 139 136
-3.70482 -4.50252 0.10941 144 145 142
-3.68632 -4.50542 0.09914 143 154 157
-3.70070 -4.50381 0.09491 144 146 153
-3.71738 -4.48905 0.10665 163 170 164
-3.72955 -4.47365 0.10415 165 167 162
-3.75986 -4.39421 0.10109 191 192 177
-3.75584 -4.39547 0.08694 194 193 196
-3.76848 -4.36116 0.10102 194 195 187
-3.78611 -4.38078 0.09418 192 194 195
-3.80006 -4.37895 0.09010 209 212 202
-3.81005 -4.37864 0.07188 208 212 205
-3.81671 -4.39193 0.08406 213 210 197
-3.82674 -4.39162 0.06578 212 217 210
-3.93136 -4.39022 0.04951 200 205 201
-3.94948 -4.38738 0.05957 202 204 198
-3.94545 -4.38865 0.04538 214 220 212
-3.97296 -4.38256 0.03752 213 213 206
-3.96291 -4.38287 0.05584 209 209 204
-3.95889 -4.38414 0.04166 220 221 211
-3.97699 -4.38130 0.05171 208 209 208
-3.98703 -4.38099 0.03338 208 206 201
-3.99917 -4.37102 0.03048 211 211 204
-3.99515 -4.37228 0.01632 213 217 217
-4.01422 -4.37375 0.02572 216 218 211
-4.02425 -4.37344 0.00741 214 216 216
-5.13539 -4.24152 -0.30326 220 222 224
-5.11734 -4.24435 -0.31328 221 222 226
-5.13138 -4.24278 -0.31741 224 227 224
-2.61975 -3.82173 0.47733 35 23 37
-2.60482 -3.82407 0.46905 27 21 28
-2.63054 -3.82642 0.47368 47 40 49
-2.64177 -3.82812 0.47015 63 62 61
-2.96514 -4.21257 0.34120 40 49 62
-2.95580 -4.21285 0.35824 45 44 47
-2.95205 -4.21403 0.34504 51 53 51
-2.94831 -4.21521 0.33185 54 52 48
-2.96140 -4.21375 0.32800 42 46 58
-2.97861 -4.19863 0.33824 85 99 114
-2.99140 -4.20684 0.33371 145 156 166
-3.01850 -4.15503 0.32967 195 195 210
-3.03156 -4.14468 0.32655 207 207 218
-3.04450 -4.13796 0.32317 220 221 225
-3.50448 -4.30156 0.17065 228 231 231
-3.48698 -4.30431 0.16093 224 230 236
-3.52199 -4.33548 0.16261 201 203 204
-3.70918 -4.46360 0.09558 166 162 163
-3.71935 -4.46329 0.07703 177 175 164
-3.72148 -4.44951 0.09299 173 174 164
-3.73162 -4.44920 0.07450 174 167 161
-3.73596 -4.44970 0.08859 174 176 171
-3.74290 -4.40369 0.09020 184 188 176
-3.76480 -4.36423 0.08675 194 199 190
-3.77474 -4.36392 0.06862 212 212 199
-3.78255 -4.38460 0.07973 197 199 196
-3.79619 -4.38094 0.07589 206 210 203
-3.92849 -4.39700 0.03452 200 201 199
-3.92446 -4.39827 0.02030 199 193 190
-3.94285 -4.39660 0.03021 201 203 208
-3.95368 -4.38000 0.02826 203 203 211
-3.98425 -4.38780 0.01837 219 222 216
-4.01250 -4.38492 0.01005 210 214 218
-4.00847 -4.38619 -0.00416 199 196 194
-4.02256 -4.38461 -0.00830 204 203 205
-5.14503 -4.24050 -0.32136 224 227 219
-5.12698 -4.24334 -0.33138 224 227 224
-5.14102 -4.24177 -0.33550 225 228 223
-5.15869 -4.23825 -0.32531 216 221 212
-5.17272 -4.23668 -0.32944 203 206 205
-2.61485 -3.83410 0.46516 30 19 31
-2.59987 -3.83645 0.45684 24 20 23
-2.61151 -3.83515 0.45342 27 18 23
-2.63764 -3.83516 0.45815 59 54 57
-2.64915 -3.83495 0.45468 71 68 65
-2.66415 -3.83260 0.46301 76 71 73
-2.66081 -3.83365 0.45125 76 68 67
-2.65747 -3.83470 0.43950 75 69 65
-2.98705 -4.23018 0.31883 139 150 163
-3.01431 -4.18058 0.31475 193 196 208
-3.02750 -4.16780 0.31183 207 208 218
-3.04065 -4.15217 0.30916 218 219 223
-3.05358 -4.14856 0.30554 227 227 230
-3.07017 -4.14596 0.31475 234 233 239
-3.06648 -4.14712 0.30175 234 234 239
-3.06278 -4.14828 0.28874 233 234 236
-3.50125 -4.30912 0.15620 228 230 234
-3.48372 -4.31188 0.14646 225 232 236
-3.51791 -4.33535 0.14893 203 202 203
-3.52947 -4.31456 0.14718 161 160 158
-3.55142 -4.38440 0.13463 132 134 136
-3.56533 -4.38285 0.13054 127 131 137
-3.56135 -4.38410 0.11652 131 133 133
-3.62788 -4.42821 0.10774 145 143 140
-3.61782 -4.42852 0.12608 141 140 145
-3.61379 -4.42978 0.11188 146 147 152
-3.63192 -4.42694 0.12194 137 136 140
-3.64197 -4.42663 0.10360 143 145 137
-3.68979 -4.45924 0.08634 148 148 143
-3.67556 -4.46083 0.09052 141 137 139
-3.70249 -4.44765 0.08347 169 164 167
-3.74411 -4.43709 0.07173 175 165 159
-3.75422 -4.43678 0.05329 204 210 196
-3.74715 -4.36858 0.07659 194 191 189
-3.75967 -4.35875 0.07362 211 210 204
-3.79022 -4.37113 0.06331 202 196 199
-3.78623 -4.37239 0.04924 193 196 192
-3.80018 -4.37083 0.04514 201 201 196
-3.90863 -4.39149 0.02568 203 197 192
-3.89456 -4.39306 0.02981 200 201 196
-3.93959 -4.40154 0.01544 190 190 188
-3.99520 -4.39139 -0.00057 210 210 202
-2.62106 -3.84913 0.44929 35 23 37
-2.60602 -3.85149 0.44094 26 21 23
-2.63148 -3.85737 0.44540 53 50 48
-2.64361 -3.85294 0.44210 68 68 57
-2.65197 -3.85269 0.42685 73 71 63
-2.85968 -4.57310 0.31299 32 34 26
-2.84947 -4.57341 0.33160 30 29 19
-2.84538 -4.57469 0.31719 31 33 17
-2.84129 -4.57598 0.30278 31 31 23
-2.86377 -4.57181 0.32740 30 32 27
-2.87329 -4.58456 0.30784 40 39 41
-2.89173 -4.58166 0.31808 42 39 41
-2.88762 -4.58295 0.30363 51 46 57
-2.88352 -4.58424 0.28918 59 58 53
-2.95675 -4.24075 0.31280 50 45 55
-2.94357 -4.24223 0.31667 56 52 48
-2.93980 -4.24341 0.30339 52 50 48
-2.98311 -4.23744 0.30508 132 144 155
-3.01008 -4.20571 0.29969 190 193 202
-3.02365 -4.17688 0.29811 205 204 216
-3.03672 -4.16970 0.29477 216 216 222
-3.04979 -4.15811 0.29182 225 225 229
-3.05902 -4.15783 0.27499 235 234 236
-3.49610 -4.29837 0.14389 226 231 232
-3.47862 -4.30112 0.13419 226 231 236
-3.51358 -4.33289 0.13554 203 204 201
-3.52078 -4.27297 0.13864 165 166 157
-3.54405 -4.35621 0.12423 137 141 134
-3.55390 -4.35590 0.10625 132 138 136
-3.60746 -4.41328 0.09994 128 135 137
-3.59343 -4.41485 0.10406 124 124 138
-3.62261 -4.42018 0.09473 145 159 146
-3.63265 -4.41987 0.07642 153 164 156
-3.63792 -4.42776 0.08941 149 160 155
-3.65604 -4.42491 0.09947 143 143 139
-3.64798 -4.42745 0.07106 159 169 153
-3.65187 -4.42513 0.08541 150 152 152
-3.66683 -4.42969 0.08046 155 156 151
-3.68321 -4.44351 0.07426 157 158 157
-3.69662 -4.43691 0.07077 174 173 167
-3.71002 -4.43054 0.06726 189 190 168
-3.72011 -4.43023 0.04887 198 202 188
-3.72430 -4.42990 0.06298 185 183 178
-3.72884 -4.36900 0.06697 198 201 197
-3.73878 -4.36870 0.04884 199 197 193
-3.75849 -4.37659 0.05730 204 205 202
-3.75450 -4.37784 0.04322 198 194 200
-3.77417 -4.38496 0.05180 189 194 198
-3.90497 -4.39455 0.01122 209 216 211
-3.92160 -4.40519 0.00523 203 204 192
-3.93716 -4.41041 0.00004 193 197 182
-3.94726 -4.41010 -0.01838 202 197 192
-3.94847 -4.39565 -0.00209 197 204 197
-3.96355 -4.39857 -0.00693 211 214 213
-3.99114 -4.39257 -0.01478 217 216 207
-3.98710 -4.39384 -0.02900 219 220 219
-4.00121 -4.39226 -0.03315 220 219 219
-5.03651 -4.19208 -0.31463 204 208 209
-5.01874 -4.19487 -0.32450 204 204 209
-5.03256 -4.19332 -0.32856 204 208 209
-5.04638 -4.19178 -0.33262 210 215 208
-5.05033 -4.19054 -0.31870 214 217 216
-5.06810 -4.18775 -0.30883 220 224 230
-5.06019 -4.19023 -0.33668 213 215 212
-2.61580 -3.86406 0.43681 32 24 35
-2.60070 -3.86643 0.42842 27 25 25
-2.61244 -3.86511 0.42497 31 25 35
-2.62697 -3.86697 0.43314 47 46 42
-2.63890 -3.86438 0.42975 64 67 52
-2.64728 -3.86413 0.41446 71 72 65
-2.85640 -4.56002 0.29965 35 37 33
-2.83808 -4.56289 0.28948 38 35 17
-2.87003 -4.56994 0.29459 47 46 43
-2.88022 -4.56963 0.27600 63 62 56
-2.95305 -4.23996 0.29968 57 47 59
-2.93610 -4.24262 0.29027 52 51 50
-2.94928 -4.24114 0.28640 54 48 52
-2.96655 -4.22825 0.29664 59 66 77
-3.01983 -4.18341 0.28456 203 205 210
-3.03289 -4.17875 0.28102 215 215 222
-3.04600 -4.16673 0.27813 224 225 229
-3.49288 -4.30607 0.12940 226 231 232
-3.47537 -4.30881 0.11968 225 231 235
-3.50912 -4.32907 0.12234 203 205 203
-3.53984 -4.35524 0.11059 135 138 136
-3.54969 -4.35494 0.09263 138 138 141
-3.61876 -4.42276 0.08038 150 156 149
-3.66296 -4.43214 0.06607 164 166 146
-3.65892 -4.43341 0.05185 163 172 169
-3.67791 -4.43628 0.06115 162 159 152
-3.69132 -4.42984 0.05766 183 186 182
-3.70139 -4.42953 0.03928 196 200 183
-3.70224 -4.40743 0.05640 193 198 180
-3.71226 -4.40712 0.03812 195 195 184
-3.78450 -4.38661 0.03329 188 190 188
-3.79449 -4.38630 0.01506 215 212 202
-3.86846 -4.37695 0.00864 202 200 198
-3.85045 -4.37978 -0.00136 210 208 203
-3.86445 -4.37821 -0.00547 213 209 206
-3.87845 -4.37665 -0.00959 208 209 207
-3.91667 -4.40219 -0.00834 223 221 208
-3.89853 -4.40504 -0.01842 211 214 213
-3.91264 -4.40346 -0.02257 215 215 216
-3.93119 -4.40256 -0.01279 219 215 200
-3.94127 -4.40225 -0.03117 201 196 193
-3.95871 -4.39617 -0.02058 204 204 202
-3.95468 -4.39744 -0.03480 202 200 203
-3.96878 -4.39586 -0.03894 207 209 216
-3.97114 -4.38703 -0.02352 216 219 217
-3.98118 -4.38672 -0.04184 209 212 220
-2.62101 -3.88721 0.42025 43 41 45
-2.63396 -3.87733 0.41725 59 64 55
-2.64238 -3.87707 0.40190 71 71 67
-2.85189 -4.56883 0.28471 43 37 38
-2.86611 -4.56811 0.28044 54 52 48
-2.87630 -4.56780 0.26186 72 68 64
-2.96256 -4.23643 0.28280 50 57 68
-2.94563 -4.23909 0.27340 54 55 52
-3.00205 -4.23149 0.27124 188 190 202
-3.01579 -4.20093 0.26998 200 202 208
-3.02898 -4.19122 0.26690 211 212 220
-3.04219 -4.17634 0.26430 223 223 227
-3.05519 -4.17284 0.26067 233 233 236
-3.07188 -4.17022 0.26994 242 242 242
-3.06817 -4.17139 0.25686 240 240 243
-3.06445 -4.17255 0.24378 239 240 243
-3.50820 -4.35862 0.10491 204 201 202
-3.51488 -4.29212 0.10924 166 167 161
-3.67328 -4.43352 0.04746 167 173 163
-3.65512 -4.43637 0.03738 154 152 149
-3.68706 -4.42964 0.04364 190 190 175
-3.69713 -4.42933 0.02527 199 201 185
-4.42753 -4.24105 -0.16386 207 212 213
-4.44520 -4.23828 -0.15404 217 224 214
-4.44127 -4.23952 -0.16790 213 219 220
-4.43734 -4.24075 -0.18175 209 209 213
-2.61547 -3.90407 0.40742 42 38 46
-2.62721 -3.90374 0.40387 58 59 57
-2.83324 -4.57649 0.27413 44 40 29
-2.82304 -4.57680 0.29273 38 34 18
-2.81895 -4.57808 0.27833 40 36 25
-2.81487 -4.57937 0.26393 41 38 34
-2.84782 -4.56985 0.27034 52 48 47
-2.86233 -4.56382 0.26651 64 62 55
-2.87251 -4.56351 0.24796 76 72 69
-2.97059 -4.27982 0.26174 106 114 130
-2.98289 -4.31508 0.25448 162 164 174
-2.99768 -4.25759 0.25569 188 187 197
-3.01171 -4.21840 0.25530 200 199 204
-3.02504 -4.20478 0.25259 210 212 217
-3.03833 -4.18752 0.25026 221 223 227
-3.04762 -4.18723 0.23330 231 231 231
-3.05135 -4.18556 0.24648 232 231 234
-3.06065 -4.18528 0.22953 239 237 241
-3.48654 -4.32282 0.10009 228 232 233
-3.46897 -4.32558 0.09033 226 231 234
-3.50225 -4.34085 0.09351 203 200 201
-3.51624 -4.34167 0.08916 161 156 160
-3.52604 -4.34137 0.07127 131 129 141
-3.53398 -4.37592 0.08034 137 135 143
-3.54785 -4.37437 0.07627 135 139 147
-3.54388 -4.37562 0.06229 132 140 150
-3.66956 -4.43698 0.03292 173 172 164
-3.66551 -4.43825 0.01868 177 179 166
-3.67964 -4.43667 0.01452 175 174 180
-3.68216 -4.42507 0.03026 192 196 188
-3.69221 -4.42476 0.01191 193 190 181
-3.79309 -4.32265 0.00661 209 212 207
-3.77931 -4.32419 0.01066 196 194 203
-3.77537 -4.32543 -0.00323 184 183 199
-3.79703 -4.32141 0.02050 217 221 203
-3.80687 -4.32111 0.00256 210 215 199
-4.30887 -4.28461 -0.14693 201 200 188
-4.29899 -4.28491 -0.12890 209 213 210
-4.29502 -4.28615 -0.14286 206 208 196
-4.31283 -4.28336 -0.13297 208 206 205
-4.37899 -4.23691 -0.16357 207 206 199
-4.36528 -4.23844 -0.15954 203 211 206
-4.61031 -4.24253 -0.23469 206 206 207
-4.59649 -4.24407 -0.23063 211 214 207
-4.62017 -4.24222 -0.25268 185 185 189
-4.87029 -4.17707 -0.30748 201 201 202
-4.86052 -4.17737 -0.28965 205 207 208
-4.85660 -4.17861 -0.30345 207 203 201
-4.85268 -4.17984 -0.31726 206 204 200
-4.87421 -4.17584 -0.29367 206 209 207
-4.86638 -4.17831 -0.32128 198 195 194
-4.98434 -4.17376 -0.34193 212 217 221
-4.99806 -4.17223 -0.34596 219 225 222
-4.99413 -4.17346 -0.35980 222 224 221
-5.07320 -4.14945 -0.36662 218 223 218
-5.06344 -4.14975 -0.34881 217 221 220
-5.05952 -4.15098 -0.36260 220 223 221
-5.07711 -4.14822 -0.35283 209 212 217
-5.09078 -4.14669 -0.35685 208 213 215
-5.08687 -4.14792 -0.37064 215 218 217
-2.59863 -3.91764 0.39827 26 21 28
-2.58331 -3.92004 0.38976 27 22 13
-2.59522 -3.91871 0.38626 23 25 21
-2.61028 -3.91820 0.39465 36 32 44
-2.62138 -3.92298 0.39077 54 53 55
-2.63340 -3.92103 0.38730 72 67 63
-2.64875 -3.91862 0.39582 74 71 71
-2.64534 -3.91970 0.38379 77 70 68
-2.64192 -3.92077 0.37175 74 71 69
-2.82867 -4.58544 0.25908 46 43 42
-2.81026 -4.58833 0.24886 42 43 40
-2.84349 -4.57531 0.25560 57 54 54
-2.85793 -4.57093 0.25165 70 68 60
-2.86811 -4.57061 0.23306 80 78 84
-2.95410 -4.26486 0.25386 43 52 58
-2.96614 -4.30101 0.24645 100 109 124
-2.97946 -4.30178 0.24230 160 165 171
-2.99384 -4.26066 0.24215 184 186 192
-3.00768 -4.23216 0.24087 195 197 203
-3.02108 -4.21769 0.23827 209 208 217
-3.03437 -4.20455 0.23557 221 220 225
-3.48229 -4.32068 0.08677 230 232 232
-3.46474 -4.32344 0.07702 225 229 233
-3.49749 -4.33407 0.08075 203 200 197
-3.51345 -4.35353 0.07386 156 149 151
-3.52328 -4.35323 0.05593 127 130 134
-3.59280 -4.42951 0.04179 153 161 151
-3.58276 -4.42982 0.06010 147 149 144
-3.57873 -4.43108 0.04592 153 160 147
-3.57470 -4.43235 0.03174 151 147 144
-3.59683 -4.42824 0.05597 148 149 147
-3.61089 -4.42667 0.05183 144 153 152
-3.62182 -4.43303 0.03256 161 168 158
-3.63994 -4.43018 0.04263 154 161 149
-3.63187 -4.43272 0.01421 192 192 172
-3.63680 -4.43802 0.02747 180 179 155
-3.65150 -4.44065 0.02271 180 180 159
-3.66159 -4.44034 0.00431 180 180 172
-4.36770 -4.21625 -0.17288 213 216 207
-4.38075 -4.21303 -0.17654 215 219 213
-4.39579 -4.21561 -0.18140 197 197 200
-4.41080 -4.21803 -0.18623 197 198 193
-4.42054 -4.21773 -0.20401 214 219 211
-4.58767 -4.23292 -0.24179 205 205 204
-4.57784 -4.23322 -0.22386 204 205 200
-4.57389 -4.23446 -0.23774 202 204 202
-4.56995 -4.23570 -0.25163 203 204 210
-4.87760 -4.17159 -0.32401 194 199 204
-4.87368 -4.17282 -0.33780 193 195 203
-4.88736 -4.17129 -0.34181 195 200 208
-5.01894 -4.13731 -0.36365 203 205 221
-5.00923 -4.13761 -0.34593 210 213 218
-5.00534 -4.13884 -0.35965 209 208 217
-5.02284 -4.13609 -0.34993 211 218 224
-5.01505 -4.13854 -0.37737 203 203 208
-5.03645 -4.13457 -0.35393 218 225 226
-5.03389 -4.13835 -0.36832 211 216 227
-5.05093 -4.14333 -0.37404 221 225 229
-5.06067 -4.14303 -0.39180 228 233 234
-5.06822 -4.14868 -0.37987 225 232 230
-1.87973 -4.25589 0.56903 113 103 88
-1.86693 -4.25732 0.57279 123 110 93
-1.86326 -4.25847 0.55988 122 109 93
-2.60512 -3.93192 0.38182 30 28 37
-2.58974 -3.93433 0.37327 24 24 21
-2.61594 -3.93908 0.37774 50 47 49
-2.62836 -3.93443 0.37444 67 67 58
-2.63691 -3.93417 0.35884 73 70 67
-2.82592 -4.56556 0.24651 51 49 49
-2.84025 -4.56247 0.24245 66 63 59
-2.85041 -4.56215 0.22392 82 75 65
-2.85451 -4.56053 0.23830 77 77 69
-2.86467 -4.56022 0.21977 83 75 80
-2.93614 -4.29042 0.24223 65 64 45
-2.92662 -4.29071 0.25958 62 56 45
-2.91899 -4.29311 0.23271 79 69 61
-2.94998 -4.27499 0.23964 52 53 58
-2.96278 -4.28814 0.23432 96 101 116
-2.97577 -4.29811 0.22928 151 159 168
-2.98993 -4.26653 0.22833 181 184 194
-3.01699 -4.23614 0.22330 208 208 216
-3.03034 -4.22364 0.22056 219 220 224
-3.47915 -4.32958 0.07196 228 230 230
-3.46156 -4.33234 0.06219 224 227 234
-3.50928 -4.35266 0.06027 151 149 146
-3.51911 -4.35236 0.04235 125 126 136
-3.58717 -4.41789 0.02947 165 165 157
-3.59718 -4.41759 0.01121 190 189 179
-3.60189 -4.42175 0.02456 173 179 170
-3.61191 -4.42144 0.00628 190 191 179
-3.61500 -4.41310 0.02147 184 189 175
-3.62501 -4.41280 0.00322 190 188 176
-3.86003 -4.27657 -0.03887 216 219 210
-3.85029 -4.27687 -0.02111 202 209 203
-3.85613 -4.27780 -0.05262 211 217 215
-3.86976 -4.27627 -0.05662 213 217 212
-4.29715 -4.27498 -0.17239 206 206 190
-4.31221 -4.27740 -0.17726 193 187 184
-4.32207 -4.27710 -0.19525 212 212 207
-4.32178 -4.26259 -0.17860 211 214 200
-4.33161 -4.26229 -0.19653 210 214 217
-4.33005 -4.24407 -0.17915 212 213 201
-4.36419 -4.21864 -0.18687 222 228 221
-4.40501 -4.21383 -0.19884 220 215 208
-4.42313 -4.18494 -0.20129 214 217 208
-4.42700 -4.18372 -0.18764 216 220 220
-4.44054 -4.18220 -0.19162 216 220 216
-4.43841 -4.18828 -0.20632 207 206 205
-4.45585 -4.18555 -0.19664 209 213 209
-4.45197 -4.18677 -0.21031 200 199 202
-4.44809 -4.18799 -0.22397 193 192 199
-4.51559 -4.24380 -0.23586 202 204 198
-4.49786 -4.24658 -0.24571 204 210 208
-4.51164 -4.24504 -0.24976 208 209 205
-4.57254 -4.20558 -0.24919 206 204 205
-4.55496 -4.20834 -0.25896 204 204 209
-4.56863 -4.20681 -0.26298 213 212 215
-4.59007 -4.21381 -0.25544 201 196 195
-4.99354 -4.12468 -0.36931 213 214 213
-4.98387 -4.12498 -0.35166 221 223 221
-4.97999 -4.12620 -0.36532 221 223 221
-4.97611 -4.12741 -0.37899 223 226 225
-5.04497 -4.14065 -0.38675 224 227 230
-5.07627 -4.14518 -0.39680 215 218 222
-5.08602 -4.14489 -0.41458 205 205 204
-1.88788 -4.25877 0.55231 98 86 69
-2.60013 -3.94429 0.36899 29 24 31
-2.58469 -3.94671 0.36042 24 22 20
-2.59669 -3.94537 0.35689 27 22 27
-2.61061 -3.95409 0.36469 46 41 43
-2.62178 -3.95934 0.36069 64 63 56
-2.63038 -3.95908 0.34499 71 71 68
-2.80734 -4.57232 0.23599 48 46 41
-2.79717 -4.57263 0.25454 45 41 38
-2.79309 -4.57391 0.24018 46 43 25
-2.78901 -4.57519 0.22581 44 45 33
-2.82264 -4.55464 0.23326 59 53 49
-2.83684 -4.55305 0.22909 74 71 57
-2.84697 -4.55274 0.21060 82 78 71
-2.93169 -4.30712 0.22727 77 71 60
-2.91448 -4.30982 0.21771 86 78 73
-2.94530 -4.29964 0.22393 65 72 66
-2.95831 -4.30851 0.21896 94 98 111
-2.97152 -4.31304 0.21441 146 153 162
-2.98601 -4.27203 0.21451 180 181 188
-2.99975 -4.25144 0.21259 196 196 203
-3.01297 -4.24970 0.20873 209 208 213
-3.02636 -4.23793 0.20593 219 220 220
-3.47470 -4.32539 0.05893 228 230 232
-3.45714 -4.32815 0.04918 221 225 231
-3.47079 -4.32662 0.04517 226 230 234
-3.48802 -4.32059 0.05539 198 197 194
-3.53448 -4.36512 0.03623 139 144 148
-3.54435 -4.36482 0.01824 156 162 161
-3.55044 -4.38197 0.02947 151 155 154
-3.56488 -4.38512 0.02470 171 174 164
-3.57480 -4.38481 0.00661 190 189 176
-3.57886 -4.38421 0.02052 187 184 174
-3.58878 -4.38391 0.00242 190 189 181
-4.35827 -4.21384 -0.19933 218 220 219
-4.37221 -4.21328 -0.20353 214 220 224
-4.41619 -4.17747 -0.21304 213 210 204
-4.43471 -4.19003 -0.22010 198 196 203
-4.58243 -4.20562 -0.26707 214 214 212
-4.56485 -4.20838 -0.27683 212 213 216
-4.60393 -4.22378 -0.27567 199 195 194
-4.62161 -4.22100 -0.26585 192 191 190
-4.61768 -4.22224 -0.27971 192 194 189
-4.61374 -4.22348 -0.29356 193 197 197
-4.79829 -4.17483 -0.32977 215 216 214
-4.78854 -4.17513 -0.31200 214 212 209
-4.78464 -4.17636 -0.32576 213 218 217
-4.78073 -4.17758 -0.33952 211 214 214
-4.80219 -4.17360 -0.31601 214 212 210
-4.79438 -4.17606 -0.34353 214 217 216
-5.00261 -4.12322 -0.38664 214 217 209
-4.98519 -4.12595 -0.39631 223 223 226
-4.99873 -4.12444 -0.40030 220 222 223
-5.01228 -4.12292 -0.40428 214 217 222
-5.05218 -4.13558 -0.40319 228 230 231
-5.06251 -4.12788 -0.40550 215 214 215
-5.07868 -4.10444 -0.40785 206 210 216
-5.08254 -4.10322 -0.39423 211 212 218
-5.09606 -4.10171 -0.39820 221 218 227
-5.08597 -4.09148 -0.40865 221 223 233
-5.10329 -4.08876 -0.39903 223 220 227
-5.09944 -4.08997 -0.41261 226 224 232
-5.09558 -4.09118 -0.42619 231 233 236
-1.86204 -4.29083 0.54266 119 105 88
-1.84544 -4.29343 0.53343 123 110 99
-1.85835 -4.29199 0.52964 122 106 97
-1.92290 -4.17527 0.53722 56 48 32
-1.91932 -4.17640 0.52458 77 68 41
-2.60514 -3.96996 0.35148 41 34 41
-2.61672 -3.97243 0.34765 60 57 56
-2.80432 -4.55832 0.22305 53 49 44
-2.78606 -4.56118 0.21290 44 45 41
-2.81930 -4.54490 0.21999 65 63 51
-2.83360 -4.54109 0.21604 75 76 65
-2.84370 -4.54079 0.19761 87 85 71
-2.92716 -4.32499 0.21208 86 79 72
-2.94077 -4.31909 0.20858 77 77 76
-2.95439 -4.31209 0.20521 91 86 98
-2.99589 -4.25566 0.19894 197 196 200
-3.00917 -4.25198 0.19529 207 206 211
-3.02244 -4.24751 0.19173 217 218 222
-3.03565 -4.24604 0.18785 226 226 231
-3.04508 -4.24575 0.17065 233 232 238
-3.48399 -4.32052 0.04182 193 191 199
-3.46644 -4.32328 0.03208 223 230 233
-3.53019 -4.36329 0.02275 143 152 154
-3.55871 -4.36786 0.01348 176 179 171
-3.55475 -4.36910 -0.00046 185 187 170
-3.56858 -4.36756 -0.00453 183 184 168
-3.92530 -4.29408 -0.09050 209 214 213
-3.92923 -4.29285 -0.07667 218 220 212
-3.94295 -4.29131 -0.08070 225 224 217
-4.34109 -4.21758 -0.20926 222 220 212
-4.32358 -4.22033 -0.21899 219 221 214
-4.35361 -4.21276 -0.21255 199 194 196
-4.36761 -4.21241 -0.21681 190 191 205
-4.40885 -4.16882 -0.22446 219 220 211
-4.41847 -4.16852 -0.24201 221 218 210
-4.42629 -4.17846 -0.23092 211 215 208
-5.06733 -4.09176 -0.41759 212 216 219
-5.07694 -4.09146 -0.43512 221 222 229
-5.07176 -4.07361 -0.41688 224 228 237
-5.08133 -4.07331 -0.43432 221 223 227
-5.10638 -4.05902 -0.42582 225 224 230
-5.09684 -4.05932 -0.40842 225 225 229
-5.09301 -4.06052 -0.42189 231 235 233
-5.11020 -4.05782 -0.41235 224 223 230
-5.12357 -4.05633 -0.41628 222 223 229
-5.11974 -4.05753 -0.42975 215 219 229
-1.86800 -4.30088 0.52562 118 100 77
-1.85135 -4.30349 0.51638 127 111 105
-1.87724 -4.30060 0.50877 106 98 70
-2.58898 -3.97679 0.34252 34 25 30
-2.57687 -3.97814 0.34608 32 25 24
-2.57341 -3.97923 0.33388 36 25 28
-2.58551 -3.97787 0.33032 37 26 32
-2.59966 -3.98576 0.33818 41 35 43
-2.62210 -3.99702 0.32996 72 69 68
-2.63778 -3.99456 0.33866 73 73 72
-2.63429 -3.99566 0.32637 77 73 72
-2.63080 -3.99675 0.31409 79 70 73
-2.80293 -4.52159 0.21240 56 51 48
-2.78483 -4.52443 0.20236 50 44 51
-2.81750 -4.51242 0.20901 70 69 50
-2.82753 -4.51211 0.19073 81 77 72
-2.83188 -4.50554 0.20541 80 79 65
-2.84189 -4.50523 0.18715 87 86 80
-2.92279 -4.33840 0.19725 99 96 77
-2.97850 -4.27141 0.18806 172 177 186
-2.99169 -4.27307 0.18381 195 194 202
-3.00498 -4.27131 0.17994 205 203 209
-3.01832 -4.26698 0.17636 216 215 220
-3.49424 -4.32517 0.02332 129 130 147
-3.86242 -4.28105 -0.08454 229 231 221
-3.84877 -4.28257 -0.08053 220 223 218
-4.37996 -4.17861 -0.23137 210 212 216
-4.40386 -4.16678 -0.23731 228 231 222
-4.41347 -4.16649 -0.25484 214 216 216
-5.11541 -4.05782 -0.44296 204 210 225
-5.13259 -4.05512 -0.43341 218 224 230
-5.12494 -4.05752 -0.46035 224 230 233
-2.59396 -4.00291 0.32467 40 34 44
-2.57827 -4.00537 0.31596 30 26 34
-2.61753 -4.00633 0.31700 71 67 68
-2.62625 -4.00606 0.30110 76 70 68
-2.80158 -4.48511 0.20200 62 49 58
-2.81678 -4.46506 0.19977 74 72 57
-2.82668 -4.46476 0.18170 82 70 78
-2.91839 -4.35198 0.18232 112 108 89
-2.93226 -4.34204 0.17926 110 99 82
-2.95942 -4.33382 0.17191 127 132 139
-2.97426 -4.28730 0.17303 171 175 184
-2.98764 -4.28339 0.16938 195 193 202
-3.00092 -4.28363 0.16527 204 203 208
-3.01424 -4.28211 0.16136 216 216 219
-3.47209 -4.28154 0.02063 159 159 172
-3.45473 -4.28427 0.01099 194 197 195
-3.48821 -4.30571 0.01272 118 117 134
-3.50182 -4.30440 0.00870 136 138 141
-3.51706 -4.31800 0.00235 168 169 162
-3.52679 -4.31770 -0.01541 181 183 169
-3.59521 -4.28064 -0.01712 186 185 175
-3.58167 -4.28215 -0.01314 182 178 167
-3.59133 -4.28186 -0.03077 189 196 184
-3.61262 -4.27790 -0.00745 196 192 180
-3.60875 -4.27912 -0.02110 199 197 187
-3.60487 -4.28034 -0.03475 189 190 185
-3.85893 -4.28435 -0.09868 227 230 224
-3.86867 -4.28405 -0.11646 196 196 199
-3.88148 -4.25820 -0.10243 211 208 210
-3.89587 -4.26057 -0.10714 207 202 205
-3.91237 -4.27271 -0.11369 203 200 198
-3.96195 -4.24485 -0.12554 217 219 208
-3.97163 -4.24455 -0.14320 188 189 190
-3.96963 -4.21793 -0.12462 212 209 199
-3.97924 -4.21763 -0.14216 182 190 194
-3.98061 -4.20582 -0.12652 213 212 208
-3.99503 -4.20847 -0.13128 215 213 211
-4.01232 -4.20576 -0.12168 219 222 217
-4.00918 -4.20987 -0.13580 214 209 207
-4.02648 -4.20716 -0.12619 219 217 214
-4.02263 -4.20837 -0.13976 207 202 199
-4.35231 -4.19242 -0.23920 221 220 212
-4.33491 -4.19515 -0.24886 210 211 207
-4.36197 -4.19213 -0.25681 216 219 215
-4.38385 -4.16169 -0.24515 217 218 215
-4.38000 -4.16290 -0.25869 208 212 211
-4.39343 -4.16140 -0.26264 219 220 210
-2.60028 -4.02014 0.30733 48 46 48
-2.61255 -4.01865 0.30374 66 64 57
-2.62129 -4.01838 0.28778 74 75 64
-2.78444 -4.47749 0.19311 61 51 54
-2.77452 -4.47779 0.21122 46 46 45
-2.77054 -4.47904 0.19720 52 47 47
-2.79918 -4.46429 0.19023 75 64 63
-2.80908 -4.46399 0.17218 86 83 73
-2.81343 -4.45716 0.18674 81 76 67
-2.82331 -4.45685 0.16871 87 82 77
-2.88638 -4.37741 0.17430 98 94 98
-2.87667 -4.37771 0.19201 92 90 86
-2.87278 -4.37894 0.17830 92 87 89
-2.86889 -4.38016 0.16459 91 82 90
-2.90058 -4.36334 0.17170 108 103 102
-2.94187 -4.34217 0.16164 93 87 102
-2.97031 -4.29274 0.15910 165 171 187
-2.98362 -4.29245 0.15504 194 194 204
-2.99675 -4.29963 0.15009 204 205 211
-3.01018 -4.29538 0.14649 215 217 219
-3.02354 -4.29412 0.14254 225 225 227
-3.03307 -4.29382 0.12514 231 230 233
-3.46946 -4.29540 0.00505 147 134 135
-3.48287 -4.29255 0.00128 136 127 128
-3.49623 -4.28942 -0.00244 158 163 156
-3.51135 -4.30260 -0.00875 175 177 164
-3.52105 -4.30230 -0.02643 172 168 168
-3.85197 -4.27016 -0.10957 198 201 205
-3.83448 -4.27291 -0.11928 207 209 203
-3.84808 -4.27139 -0.12328 209 210 202
-3.87426 -4.24313 -0.11303 209 210 211
-3.87039 -4.24435 -0.12666 219 218 213
-3.88390 -4.24284 -0.13063 223 220 219
-3.88908 -4.24788 -0.11819 222 227 225
-3.90482 -4.25676 -0.12416 223 228 222
-3.95963 -4.25294 -0.14056 203 197 194
-3.99095 -4.20870 -0.14464 185 194 202
-3.98710 -4.20991 -0.15819 195 202 203
-4.00054 -4.20841 -0.16214 209 214 209
-4.00568 -4.21253 -0.14966 208 215 212
-4.01529 -4.21224 -0.16718 213 214 209
-4.01839 -4.20798 -0.15300 218 219 212
-4.03184 -4.20647 -0.15695 203 199 203
-4.02799 -4.20768 -0.17051 206 205 205
-4.19313 -4.18803 -0.20430 216 218 214
-4.18353 -4.18833 -0.18679 208 209 207
-4.19697 -4.18682 -0.19074 212 211 211
-4.18928 -4.18924 -0.21786 219 223 224
-4.20657 -4.18653 -0.20825 218 226 221
-4.20272 -4.18774 -0.22181 213 212 217
-2.58425 -4.02453 0.29841 30 29 30
-2.56848 -4.02701 0.28966 38 35 32
-2.58074 -4.02564 0.28605 38 36 31
-2.76840 -4.45723 0.18560 58 50 52
-2.75853 -4.45753 0.20360 50 49 45
-2.75457 -4.45877 0.18966 52 47 47
-2.75062 -4.46002 0.17573 50 48 52
-2.78199 -4.45879 0.18121 72 62 58
-2.79585 -4.45692 0.17718 84 80 61
-2.80572 -4.45662 0.15916 88 85 70
-2.88275 -4.37356 0.16117 97 88 102
-2.89647 -4.36927 0.15750 110 108 101
-2.93786 -4.34725 0.14758 108 102 96
-2.94750 -4.34696 0.12999 113 105 97
-2.95188 -4.33132 0.14532 104 95 94
-2.96548 -4.32570 0.14186 151 157 168
-2.97932 -4.31029 0.13958 191 194 202
-2.99253 -4.31655 0.13470 205 204 213
-3.00211 -4.31626 0.11722 213 213 217
-3.00603 -4.31135 0.13121 214 213 218
-3.01951 -4.30625 0.12771 224 223 226
-3.02908 -4.30595 0.11027 231 231 233
-3.44993 -4.27545 -0.00103 160 162 164
-3.44033 -4.27575 0.01650 217 223 224
-3.43647 -4.27696 0.00293 203 207 205
-3.46500 -4.29061 -0.00764 129 130 127
-3.47756 -4.27951 -0.01007 145 150 143
-3.49166 -4.28391 -0.01499 173 179 169
-3.50130 -4.28362 -0.03258 188 187 177
-3.50613 -4.29140 -0.02042 179 180 167
-3.89610 -4.23509 -0.13339 220 218 215
-3.87875 -4.23781 -0.14303 208 211 211
-3.89224 -4.23630 -0.14699 193 200 205
-3.90573 -4.23479 -0.15096 193 196 202
-3.96481 -4.23295 -0.15430 210 212 208
-3.96094 -4.23417 -0.16792 205 212 213
-3.97446 -4.23266 -0.17189 202 208 211
-4.17086 -4.17350 -0.21014 221 229 222
-4.16131 -4.17379 -0.19271 206 211 207
-4.15748 -4.17499 -0.20621 205 208 204
-4.15365 -4.17620 -0.21970 224 233 216
-4.18042 -4.17320 -0.22757 213 216 215
-1.88021 -4.38074 0.45506 44 31 20
-1.89721 -4.37807 0.46450 23 20 21
-1.89343 -4.37926 0.45118 29 22 20
-1.88964 -4.38045 0.43785 39 24 23
-1.91691 -4.38624 0.44299 32 29 33
-1.93395 -4.38357 0.45246 31 25 20
-1.93016 -4.38476 0.43910 37 31 14
-1.92637 -4.38595 0.42574 100 96 59
-1.94027 -4.43906 0.42874 33 23 9
-1.93068 -4.43935 0.44624 29 24 12
-1.92298 -4.44177 0.41915 102 86 49
-1.94412 -4.43785 0.44229 27 24 11
-1.95756 -4.43635 0.43834 30 25 19
-1.95028 -4.44968 0.42424 32 24 20
-1.96762 -4.44696 0.43387 31 27 21
-1.96376 -4.44817 0.42028 30 29 24
-1.95990 -4.44939 0.40669 32 31 17
-2.32808 -4.33794 0.32247 46 30 22
-2.31862 -4.33823 0.33971 25 21 14
-2.31483 -4.33942 0.32636 48 32 22
-2.33186 -4.33675 0.33581 23 20 13
-2.34511 -4.33526 0.33192 24 20 18
-2.33753 -4.33765 0.30523 124 114 92
-2.33935 -4.34673 0.31781 43 25 19
-2.35642 -4.34405 0.32729 30 20 24
-2.35009 -4.35871 0.31290 37 24 14
-2.36723 -4.35602 0.32241 33 22 25
-2.36141 -4.36807 0.30816 34 23 25
-2.37859 -4.36537 0.31770 31 26 30
-2.37477 -4.36658 0.30423 38 26 34
-2.60131 -4.05220 0.27616 59 59 48
-2.76507 -4.45073 0.17250 61 51 60
-2.77922 -4.44455 0.16895 78 69 67
-2.78906 -4.44425 0.15101 90 87 70
-2.79364 -4.43452 0.16584 90 87 63
-2.80345 -4.43422 0.14793 85 83 72
-2.83654 -4.40412 0.15664 95 90 80
-2.82288 -4.40565 0.16066 89 81 77
-2.84045 -4.40289 0.17042 89 82 80
-2.85412 -4.40136 0.16640 85 85 81
-2.85098 -4.38977 0.15409 99 95 84
-2.86508 -4.37992 0.15105 104 99 87
-2.87901 -4.37210 0.14779 107 98 99
-2.89327 -4.35689 0.14542 128 123 119
-2.90694 -4.35226 0.14181 135 136 123
-2.93445 -4.33707 0.13534 134 124 102
-2.94406 -4.33678 0.11780 128 114 98
-2.96098 -4.34660 0.12588 130 136 147
-2.97505 -4.32636 0.12423 177 185 201
-2.98831 -4.33212 0.11937 203 204 216
-3.01542 -4.32050 0.11254 222 223 225
-3.01158 -4.32171 0.09899 222 222 223
-3.02502 -4.32020 0.09504 230 231 232
-3.41503 -4.23115 0.00105 205 206 208
-3.40554 -4.23144 0.01836 211 215 218
-3.40174 -4.23264 0.00496 212 215 218
-3.39793 -4.23384 -0.00844 210 211 213
-3.41883 -4.22996 0.01445 210 215 218
-3.44524 -4.26752 -0.01312 125 120 129
-3.46031 -4.28317 -0.01986 125 130 126
-3.47306 -4.27424 -0.02261 158 167 149
-3.48267 -4.27394 -0.04013 188 185 170
-3.48715 -4.27889 -0.02758 184 186 169
-3.49678 -4.27859 -0.04514 187 183 174
-3.51483 -4.28228 -0.03658 183 180 177
-3.53220 -4.27955 -0.02693 173 169 166
-3.56523 -4.24700 -0.04744 185 191 179
-3.58247 -4.24429 -0.03786 195 194 180
-3.57863 -4.24550 -0.05138 197 198 180
-3.57480 -4.24671 -0.06489 195 194 185
-3.94910 -4.24313 -0.16546 205 209 207
-1.90628 -4.36756 0.43447 48 38 34
-1.91569 -4.36728 0.41732 152 153 150
-1.93178 -4.45642 0.41442 96 77 41
-1.94439 -4.45804 0.41030 46 47 18
-2.32797 -4.32030 0.31056 131 128 109
-2.34857 -4.34780 0.30042 99 94 46
-2.59505 -4.07339 0.26180 58 55 48
-2.74944 -4.42860 0.16540 55 53 53
-2.73965 -4.42890 0.18326 51 49 52
-2.73573 -4.43013 0.16943 54 51 43
-2.73180 -4.43137 0.15561 52 51 47
-2.76288 -4.43042 0.16100 68 62 65
-2.77722 -4.42104 0.15785 81 81 70
-2.78700 -4.42074 0.14001 95 88 85
-2.81924 -4.40283 0.14735 92 86 81
-2.80168 -4.40558 0.13760 89 86 81
-2.83343 -4.39305 0.14430 102 98 86
-2.84737 -4.38625 0.14092 108 108 89
-2.86137 -4.37792 0.13773 112 104 95
-2.87538 -4.36868 0.13467 114 106 103
-2.90359 -4.34250 0.12953 142 144 136
-2.91321 -4.34220 0.11199 151 145 126
-2.91708 -4.34067 0.12561 143 136 120
-2.92670 -4.34038 0.10807 146 142 123
-2.95933 -4.28240 0.12053 105 94 96
-2.95553 -4.28359 0.10713 112 103 92
-2.97061 -4.34689 0.10821 141 151 173
-2.98444 -4.33357 0.10575 190 200 215
-2.99808 -4.32515 0.10269 212 213 216
-3.42751 -4.26504 -0.02186 119 109 124
-3.44104 -4.26478 -0.02601 114 107 121
-3.45506 -4.26970 -0.03102 148 148 147
-3.46885 -4.27179 -0.03557 176 177 164
-3.47845 -4.27149 -0.05308 190 189 174
-3.51006 -4.27522 -0.04878 188 188 178
-3.49273 -4.27794 -0.05841 189 193 179
-3.50620 -4.27643 -0.06237 192 198 188
-3.51968 -4.27492 -0.06633 199 201 193
-3.52122 -4.25308 -0.04920 192 192 180
-3.53460 -4.25137 -0.05310 184 177 164
-3.56030 -4.23931 -0.05939 185 186 170
-3.56984 -4.23902 -0.07681 194 192 187
-3.74756 -4.21859 -0.11446 200 200 200
-3.73801 -4.21889 -0.09705 221 229 219
-3.73419 -4.22009 -0.11053 199 200 202
-3.75139 -4.21739 -0.10098 222 223 209
-3.76476 -4.21590 -0.10491 221 218 207
-3.76075 -4.21604 -0.11819 199 200 207
-3.77794 -4.21335 -0.10864 230 228 210
-3.77029 -4.21575 -0.13560 212 211 202
-3.80100 -4.21232 -0.13013 221 225 219
-3.79146 -4.21261 -0.11271 230 225 214
-3.78763 -4.21382 -0.12620 216 217 215
-3.78380 -4.21502 -0.13968 217 218 214
-3.81820 -4.20962 -0.12057 209 207 203
-3.81495 -4.21387 -0.13465 205 205 203
-3.83217 -4.21117 -0.12509 214 213 207
-3.82834 -4.21237 -0.13859 205 203 200
-3.82451 -4.21357 -0.15208 202 202 191
-3.90086 -4.23124 -0.16359 195 202 196
-3.88738 -4.23274 -0.15963 200 207 206
-3.88352 -4.23396 -0.17322 205 202 205
-3.95501 -4.22629 -0.17966 202 196 200
-3.96463 -4.22600 -0.19721 197 194 191
-4.54465 -4.08022 -0.34197 203 205 206
-4.52766 -4.08289 -0.35140 202 199 208
-4.55407 -4.07994 -0.35917 218 221 220
-4.56208 -4.08928 -0.34860 218 223 221
-4.57153 -4.08899 -0.36584 216 214 212
-1.92367 -4.51846 0.39357 97 103 49
-1.95300 -4.46140 0.39252 41 28 13
-1.97039 -4.45867 0.40217 34 34 25
-1.96265 -4.46110 0.37492 35 40 44
-2.22252 -4.37480 0.32126 34 30 23
-2.21301 -4.37509 0.33860 42 30 21
-2.20920 -4.37629 0.32517 39 34 27
-2.20539 -4.37749 0.31174 43 37 33
-2.22633 -4.37360 0.33468 35 27 17
-2.23965 -4.37211 0.33077 25 21 16
-2.31123 -4.32188 0.30123 142 142 121
-2.31205 -4.38331 0.29234 204 200 177
-2.32785 -4.36929 0.28942 217 210 184
-2.58976 -4.08717 0.24802 52 47 37
-2.57372 -4.08969 0.23911 44 36 35
-2.60079 -4.09660 0.24328 69 69 58
-2.60972 -4.09632 0.22700 79 72 67
-2.74613 -4.42266 0.15240 57 55 59
-2.76048 -4.41322 0.14928 71 64 71
-2.77023 -4.41292 0.13150 87 86 77
-2.77523 -4.39787 0.14687 84 82 78
-2.78495 -4.39757 0.12915 92 86 86
-2.81620 -4.39151 0.13508 96 89 87
-2.79870 -4.39426 0.12536 87 86 86
-2.83025 -4.38333 0.13189 109 100 96
-2.84437 -4.37313 0.12895 115 116 100
-2.85826 -4.36602 0.12565 119 117 110
-2.87219 -4.35741 0.12255 126 121 117
-2.88634 -4.34360 0.12011 133 124 125
-2.89596 -4.34331 0.10257 153 144 135
-2.94141 -4.30674 0.10824 140 137 116
-2.92422 -4.30944 0.09870 146 136 126
-2.98062 -4.33367 0.09232 148 160 185
-2.99437 -4.32098 0.08984 198 206 217
-3.00781 -4.31879 0.08599 220 222 225
-3.02125 -4.31729 0.08204 228 229 232
-3.39848 -4.28970 -0.03088 177 175 177
-3.38885 -4.28999 -0.01333 217 218 223
-3.38500 -4.29121 -0.02692 212 214 217
-3.41047 -4.27027 -0.03186 118 110 114
-3.42311 -4.25978 -0.03430 100 96 100
-3.43767 -4.27120 -0.04041 138 139 136
-3.45167 -4.27575 -0.04538 171 171 165
-3.46127 -4.27546 -0.06290 183 182 170
-3.46476 -4.27054 -0.04870 184 182 172
-3.47435 -4.27024 -0.06621 184 182 172
-3.52920 -4.23892 -0.06421 198 192 183
-3.52538 -4.24013 -0.07767 204 200 193
-3.53873 -4.23863 -0.08160 197 193 187
-3.54252 -4.23711 -0.06808 189 182 172
-3.55205 -4.23682 -0.08547 194 194 182
-3.75681 -4.21663 -0.13155 206 204 206
-3.76636 -4.21634 -0.14895 215 218 211
-3.91029 -4.23009 -0.18096 223 226 196
-3.91991 -4.22980 -0.19851 213 215 208
-4.01024 -4.18590 -0.20569 225 226 214
-4.02742 -4.18320 -0.19615 226 229 214
-4.08046 -4.19146 -0.22821 231 228 213
-4.09770 -4.18876 -0.21864 191 186 185
-4.09386 -4.18996 -0.23215 212 209 205
-4.09003 -4.19117 -0.24567 216 212 212
-4.53764 -4.07327 -0.35314 210 213 219
-4.52070 -4.07593 -0.36255 193 192 204
-4.54705 -4.07299 -0.37029 211 215 219
-1.82900 -4.42996 0.42086 133 116 107
-1.81182 -4.43265 0.41132 128 116 104
-1.82518 -4.43116 0.40739 131 118 106
-1.94917 -4.46250 0.37890 52 30 15
-1.95881 -4.46220 0.36130 47 43 44
-2.22934 -4.38691 0.30295 30 28 24
-2.23888 -4.38661 0.28555 29 23 28
-2.29697 -4.37538 0.28365 79 85 76
-2.32064 -4.32160 0.28408 146 143 130
-2.32557 -4.36257 0.27663 169 158 147
-2.58328 -4.10948 0.23329 53 46 40
-2.56715 -4.11201 0.22433 42 38 35
-2.72963 -4.41318 0.14404 51 51 55
-2.71989 -4.41348 0.16181 57 52 52
-2.71599 -4.41470 0.14805 55 50 44
-2.71208 -4.41593 0.13430 58 49 49
-2.74384 -4.40526 0.14078 64 58 67
-2.75356 -4.40496 0.12304 82 82 90
-2.75816 -4.39541 0.13777 79 76 75
-2.76786 -4.39512 0.12006 82 82 80
-2.81349 -4.37586 0.12344 97 92 92
-2.79606 -4.37859 0.11376 93 88 88
-2.82706 -4.37407 0.11949 113 104 103
-2.84110 -4.36482 0.11647 117 110 114
-2.85439 -4.36708 0.11202 124 120 124
-2.86816 -4.36159 0.10855 136 129 129
-2.87781 -4.36130 0.09094 152 140 130
-2.88244 -4.34566 0.10642 145 136 132
-2.89206 -4.34536 0.08888 146 138 130
-2.93808 -4.29524 0.09645 142 133 125
-2.92095 -4.29793 0.08694 150 134 119
-2.93427 -4.29644 0.08302 144 137 120
-2.98990 -4.34632 0.07301 148 159 183
-2.98603 -4.34754 0.05938 81 85 107
-3.01787 -4.29348 0.07197 226 228 236
-3.03504 -4.29079 0.08150 234 234 236
-3.03122 -4.29199 0.06805 234 234 236
-3.39037 -4.23679 -0.03533 111 94 101
-3.40275 -4.22412 -0.03734 87 80 78
-3.41834 -4.25001 -0.04592 117 122 114
-3.43397 -4.27409 -0.05424 158 159 148
-3.44622 -4.25978 -0.05597 177 176 164
-3.45578 -4.25949 -0.07341 186 188 176
-3.49973 -4.25312 -0.07160 183 186 183
-3.48250 -4.25583 -0.08116 181 176 173
-3.51283 -4.24902 -0.07507 192 193 189
-3.52239 -4.24873 -0.09249 199 198 187
-4.00415 -4.17779 -0.21711 216 219 212
-1.83554 -4.43926 0.40297 130 123 109
-1.81832 -4.44196 0.39341 134 119 101
-1.99908 -4.50781 0.34204 46 42 41
-2.01669 -4.50505 0.35182 46 34 41
-2.01277 -4.50628 0.33802 46 37 41
-2.20914 -4.40321 0.29233 43 38 34
-2.22400 -4.39504 0.28892 35 32 29
-2.23356 -4.39475 0.27149 32 27 35
-2.30506 -4.38234 0.26564 85 64 60
-2.31167 -4.41552 0.25867 107 84 69
-2.35603 -4.46231 0.23796 57 33 27
-2.37362 -4.45955 0.24773 47 36 30
-2.57780 -4.12422 0.21922 47 46 43
-2.59075 -4.12020 0.21579 62 61 56
-2.72839 -4.38522 0.13378 61 55 64
-2.71097 -4.38795 0.12411 57 53 54
-2.74236 -4.37889 0.13038 73 69 78
-2.75202 -4.37859 0.11277 84 82 84
-2.81007 -4.37060 0.11059 95 89 92
-2.82343 -4.37165 0.10629 117 100 99
-2.83698 -4.36990 0.10234 134 127 118
-2.85097 -4.36086 0.09934 143 136 125
-2.86062 -4.36057 0.08175 152 148 132
-2.86461 -4.35723 0.09564 149 141 128
-2.87424 -4.35694 0.07806 157 150 138
-2.94808 -4.28177 0.08091 143 132 115
-2.94428 -4.28296 0.06753 143 140 116
-3.00017 -4.31953 0.05914 132 146 173
-3.04092 -4.27781 0.05267 238 239 242
-3.05803 -4.27513 0.06217 242 242 244
-3.05422 -4.27632 0.04876 243 242 243
-3.40002 -4.23854 -0.05300 119 119 104
-3.40952 -4.23825 -0.07031 180 184 181
-3.41366 -4.24098 -0.05759 161 167 151
-3.42316 -4.24069 -0.07492 187 190 186
-3.42787 -4.24972 -0.06330 180 183 171
-3.43740 -4.24943 -0.08068 187 190 186
-3.44058 -4.24118 -0.06598 184 188 175
-3.45009 -4.24089 -0.08333 183 188 183
-3.97141 -4.17231 -0.22058 222 225 227
-3.98090 -4.17202 -0.23788 218 220 217
-4.38797 -4.02346 -0.32784 217 217 213
-4.52766 -4.06945 -0.37803 191 195 201
-4.51075 -4.07210 -0.38742 207 206 199
-4.53705 -4.06916 -0.39515 209 210 210
-1.86289 -4.42311 0.38242 82 73 63
-1.98070 -4.51345 0.33207 74 68 44
-2.02592 -4.49307 0.32111 68 58 42
-2.04347 -4.49032 0.33085 47 37 24
-2.03956 -4.49155 0.31710 68 50 37
-2.03566 -4.49277 0.30334 117 107 80
-2.15782 -4.38426 0.29663 62 43 37
-2.17495 -4.38157 0.30615 44 39 28
-2.19111 -4.40940 0.28247 57 48 34
-2.20615 -4.40060 0.27913 47 43 42
-2.25041 -4.37692 0.26896 35 23 36
-2.25423 -4.37572 0.28240 27 18 30
-2.26750 -4.35747 0.26661 42 30 45
-2.28021 -4.35871 0.26247 45 36 49
-2.30219 -4.37874 0.25259 51 50 48
-2.31172 -4.37845 0.23520 123 114 93
-2.31167 -4.39704 0.24686 62 69 56
-2.32334 -4.40464 0.24208 73 80 56
-2.33383 -4.41882 0.23666 88 87 55
-2.36377 -4.39979 0.23025 94 90 67
-2.37817 -4.39298 0.22680 87 83 65
-2.38776 -4.39269 0.20931 141 130 100
-2.39276 -4.38494 0.22349 77 73 48
-2.43988 -4.33905 0.21582 60 46 20
-2.44368 -4.33786 0.22920 44 32 43
-2.45695 -4.33637 0.22530 40 35 33
-2.45638 -4.31772 0.21393 55 44 13
-2.47337 -4.31506 0.22336 39 36 37
-2.46767 -4.32824 0.20882 49 36 23
-2.48471 -4.32556 0.21828 39 35 44
-2.56186 -4.12503 0.21041 44 29 41
-2.55288 -4.12531 0.22679 42 37 33
-2.54928 -4.12644 0.21411 50 30 31
-2.55826 -4.12616 0.19773 70 69 54
-2.57272 -4.13598 0.20537 43 39 45
-2.59639 -4.14508 0.19663 74 72 63
-2.61268 -4.14252 0.20568 78 74 73
-2.60905 -4.14366 0.19291 79 76 67
-2.60543 -4.14480 0.18014 80 78 66
-2.72713 -4.35811 0.12362 65 60 63
-2.74014 -4.36156 0.11905 77 71 73
-2.74975 -4.36127 0.10151 89 84 82
-2.78110 -4.35002 0.10807 94 89 85
-2.76765 -4.35152 0.11202 81 80 82
-2.78495 -4.34881 0.12162 90 84 84
-2.79349 -4.36252 0.10232 103 97 95
-2.80704 -4.36013 0.09847 105 93 104
-2.82100 -4.35181 0.09539 123 110 111
-2.83454 -4.34911 0.09159 140 133 123
-2.84415 -4.34881 0.07407 149 145 126
-2.84825 -4.34352 0.08818 148 141 130
-2.85785 -4.34323 0.07067 144 136 126
-2.93093 -4.28612 0.07120 141 136 117
-2.91765 -4.28761 0.07510 147 142 128
-2.91385 -4.28881 0.06171 155 153 140
-2.95751 -4.28269 0.06346 140 136 113
-3.03714 -4.27698 0.03957 214 225 238
-3.06375 -4.27022 0.03232 244 246 248
-3.08083 -4.26754 0.04181 250 249 250
-3.07703 -4.26873 0.02842 250 248 249
-3.96460 -4.16060 -0.23108 217 218 220
-3.97405 -4.16031 -0.24833 210 214 215
-1.96708 -4.45419 0.33069 122 113 80
-1.94973 -4.45691 0.32106 126 112 95
-1.98276 -4.44470 0.32729 120 103 84
-1.99519 -4.44698 0.32306 129 117 86
-2.00862 -4.44564 0.31909 124 111 84
-2.01824 -4.44535 0.30155 134 120 104
-2.02094 -4.44848 0.31482 121 110 86
-2.03057 -4.44819 0.29726 134 120 107
-2.12122 -4.46823 0.28053 106 95 73
-2.13450 -4.46802 0.27642 107 98 67
-2.17462 -4.46648 0.26418 101 96 63
-2.18433 -4.46618 0.24646 129 122 88
-2.23279 -4.38181 0.25925 44 31 33
-2.24605 -4.38066 0.25530 51 37 33
-2.26308 -4.36160 0.25296 63 51 46
-2.26726 -4.40414 0.24504 80 74 60
-2.27685 -4.40384 0.22755 126 118 97
-2.28366 -4.38807 0.24244 107 100 83
-2.29321 -4.38778 0.22502 126 113 100
-2.33598 -4.38838 0.22610 140 125 96
-2.34555 -4.38808 0.20865 139 127 111
-2.34948 -4.38634 0.22221 140 125 96
-2.36550 -4.37061 0.21968 136 122 96
-2.37503 -4.37031 0.20230 131 120 101
-2.37541 -4.38818 0.21386 140 125 97
-2.38499 -4.38789 0.19639 128 121 105
-2.42329 -4.41680 0.19450 123 113 84
-2.50172 -4.25268 0.19563 101 91 67
-2.51099 -4.25239 0.17871 124 111 89
-2.58117 -4.13978 0.18847 73 72 64
-2.59345 -4.14110 0.18445 78 76 65
-2.60247 -4.14083 0.16798 83 77 72
-2.71213 -4.33700 0.11700 60 54 59
-2.70259 -4.33730 0.13441 56 53 53
-2.69876 -4.33850 0.12093 59 51 55
-2.69494 -4.33970 0.10745 60 53 58
-2.72531 -4.33757 0.11281 69 65 64
-2.73834 -4.33992 0.10839 82 77 76
-2.74790 -4.33962 0.09096 94 86 85
-2.76377 -4.35315 0.09841 95 85 87
-2.77769 -4.34567 0.09524 105 101 90
-2.79117 -4.34344 0.09139 124 119 98
-2.80474 -4.33990 0.08772 133 122 108
-2.81432 -4.33960 0.07026 144 139 122
-2.81825 -4.33716 0.08394 139 131 120
-2.83211 -4.32884 0.08092 146 148 136
-2.84166 -4.32855 0.06349 156 153 122
-2.92746 -4.27967 0.05890 158 155 136
-2.93692 -4.27938 0.04164 164 153 139
-2.94069 -4.27882 0.05491 159 150 126
-2.95015 -4.27853 0.03765 162 150 134
-2.95405 -4.27424 0.05146 157 147 122
-2.98015 -4.28515 0.04164 124 113 84
-2.99303 -4.30000 0.03532 93 91 64
-3.01998 -4.28350 0.02950 79 75 107
-3.03365 -4.25718 0.02934 119 124 164
-3.08652 -4.25911 0.01258 245 249 252
-3.10355 -4.25644 0.02204 254 254 254
-3.09978 -4.26588 0.00740 252 253 254
-3.11685 -4.26320 0.01688 254 254 254
-3.11306 -4.26440 0.00350 254 254 254
-3.37455 -4.18201 -0.06508 156 161 155
-3.37081 -4.18319 -0.07828 178 180 173
-3.38390 -4.18173 -0.08212 189 191 179
-3.45347 -4.17715 -0.08889 189 192 177
-3.44037 -4.17861 -0.08504 189 193 184
-3.45722 -4.17597 -0.07568 185 190 180
-3.46283 -4.17686 -0.10595 178 173 165
-4.56104 -4.07100 -0.41715 211 208 206
-4.54411 -4.07366 -0.42656 219 227 224
-4.55727 -4.07219 -0.43043 227 230 226
-4.56768 -4.05346 -0.41649 209 209 207
-4.57703 -4.05318 -0.43355 223 222 215
-1.98025 -4.44107 0.31408 129 117 95
-1.98984 -4.44078 0.29657 135 127 113
-1.99061 -4.45085 0.30929 145 132 117
-2.00024 -4.45055 0.29173 136 124 104
-2.00654 -4.44026 0.30601 140 124 104
-2.01614 -4.43997 0.28850 132 119 99
-2.15467 -4.42299 0.26259 137 122 95
-2.16427 -4.42270 0.24508 131 122 108
-2.17084 -4.40966 0.25967 136 123 96
-2.18041 -4.40937 0.24221 122 119 102
-2.20388 -4.43772 0.24490 110 94 80
-2.21437 -4.45015 0.23965 94 84 64
-2.24659 -4.42296 0.23394 106 93 73
-2.26448 -4.40025 0.23198 121 115 86
-2.71096 -4.31097 0.10704 68 57 62
-2.72373 -4.31491 0.10243 80 80 64
-2.73322 -4.31462 0.08512 93 90 84
