ply
format ascii 1.0
element face 0
property list uchar int vertex_indices
element vertex 1315
property float x
property float y
property float z
property uchar diffuse_red
property uchar diffuse_green
property uchar diffuse_blue
end_header
-3.03489 -3.37822 1.52556 214 219 249
-3.03523 -3.39412 1.53103 181 181 238
-3.04187 -3.40476 1.53528 140 153 209
-3.04428 -3.41906 1.54039 122 146 206
-3.05105 -3.42969 1.54465 130 142 206
-3.05409 -3.44360 1.54968 138 143 190
-3.05829 -3.45657 1.55451 139 147 176
-3.07877 -3.48892 1.56746 146 140 133
-3.09264 -3.49790 1.55815 128 121 111
-3.08566 -3.51681 1.57763 132 127 117
-3.09960 -3.52583 1.56827 131 120 104
-3.09304 -3.52729 1.58190 128 121 107
-3.10700 -3.53632 1.57253 130 121 100
-3.10259 -3.53583 1.58569 126 117 104
-3.11655 -3.54486 1.57632 130 121 99
-3.16448 -3.63657 1.62585 121 119 117
-3.17143 -3.64311 1.64264 127 119 107
-3.17452 -3.64490 1.62963 109 109 112
-3.16985 -3.66777 1.63701 95 100 106
-3.17754 -3.67854 1.64141 80 79 95
-3.18990 -3.68468 1.64465 54 56 76
-3.20411 -3.69387 1.63511 23 28 43
-3.19819 -3.71356 1.65529 19 32 40
-3.21247 -3.72280 1.64570 30 31 36
-3.21066 -3.71963 1.65851 20 27 43
-3.22493 -3.72886 1.64893 31 32 36
-3.69934 -4.59421 2.00264 72 61 56
-3.71514 -4.60443 1.99204 77 74 62
-3.71411 -4.59804 2.00532 78 75 62
-3.74636 -4.62951 2.01906 83 77 67
-3.76216 -4.63974 2.00845 76 63 49
-3.76258 -4.68912 2.04093 77 66 52
-3.76662 -4.69059 2.02610 71 61 46
-3.77852 -4.69944 2.03023 69 61 43
-3.77606 -4.69518 2.04425 73 65 47
-3.79200 -4.70549 2.03355 66 62 41
-4.21693 -4.73675 2.09919 109 97 80
-4.22282 -4.75720 2.10673 115 110 103
-4.23782 -4.75714 2.10809 127 123 109
-4.25778 -4.74553 2.10597 130 125 115
-4.27247 -4.74578 2.10741 130 127 128
-4.28140 -4.75934 2.11287 134 133 138
-4.29249 -4.76788 2.11682 138 137 123
-4.30663 -4.76918 2.11856 107 94 72
-4.32178 -4.76792 2.11954 71 67 57
-4.33672 -4.77759 2.10951 41 48 59
-4.42377 -6.10424 2.58579 53 67 98
-4.40506 -6.09213 2.59835 66 80 90
-4.40981 -6.09386 2.58095 68 81 89
-4.41456 -6.09558 2.56355 68 79 87
-4.44014 -6.10618 2.58796 93 111 151
-4.45794 -6.10283 2.58846 168 196 215
-4.47658 -6.11489 2.57596 206 219 232
-4.47323 -6.10819 2.59171 204 218 230
-4.49185 -6.12023 2.57921 201 211 225
0.88224 -4.09709 1.38525 100 88 93
0.90677 -4.08121 1.40172 86 80 88
0.90054 -4.08347 1.37890 89 85 90
0.87016 -4.10845 1.41442 73 68 68
0.85770 -4.11296 1.36878 104 99 105
0.87686 -4.11671 1.39241 83 82 88
0.86476 -4.12810 1.42163 74 71 81
0.85852 -4.13036 1.39877 82 78 82
0.82179 -4.24800 1.44211 93 88 91
0.84034 -4.23421 1.43568 76 71 84
0.83402 -4.23649 1.41257 71 67 81
0.82810 -4.24571 1.46523 98 100 106
0.80325 -4.26180 1.44854 91 91 81
0.79693 -4.26408 1.42543 85 87 88
0.61068 -4.86863 1.67241 47 45 56
-2.22858 -3.27387 1.40050 151 146 162
-2.22114 -3.26687 1.38252 79 73 71
-2.23242 -3.27527 1.38643 109 111 121
-2.30811 -3.23913 1.39625 200 186 182
-2.32501 -3.24366 1.39938 213 194 187
-2.33983 -3.25325 1.38943 217 202 197
-2.34637 -3.24529 1.40195 215 198 193
-2.36115 -3.25485 1.39203 215 202 197
-2.37142 -3.24444 1.40403 217 203 191
-2.38614 -3.25396 1.39415 214 201 194
-2.39227 -3.24620 1.40660 215 201 186
-2.40695 -3.25570 1.39675 214 201 194
-2.44859 -3.27044 1.42015 218 201 197
-2.44139 -3.26367 1.40276 217 201 194
-2.45230 -3.27179 1.40654 218 203 197
-2.46322 -3.27991 1.41033 219 206 202
-2.45870 -3.27910 1.42403 224 213 213
-2.47733 -3.28200 1.42678 236 234 236
-2.49272 -3.28704 1.42994 248 249 251
-2.49990 -3.29379 1.44727 254 254 254
-2.50360 -3.29513 1.43371 253 253 254
-2.99894 -3.33232 1.49317 239 252 254
-3.00744 -3.34119 1.49698 230 251 253
-3.02019 -3.34658 1.50001 217 218 250
-3.03063 -3.35386 1.50347 184 190 240
-3.03410 -3.36696 1.50824 145 157 215
-3.03306 -3.38394 1.51389 132 145 204
-3.04346 -3.39135 1.51739 131 143 203
-3.04519 -3.40615 1.52257 135 142 189
-3.06034 -3.44247 1.53631 139 133 137
-3.07412 -3.45139 1.52706 131 120 107
-3.06230 -3.45741 1.54156 137 129 128
-3.07611 -3.46635 1.53228 131 120 99
-3.07378 -3.46405 1.54489 134 125 119
-3.08759 -3.47298 1.53562 130 120 101
-3.07832 -3.47683 1.54965 130 122 113
-3.09216 -3.48579 1.54036 130 120 103
-3.08093 -3.49142 1.55484 127 122 110
-3.09480 -3.50039 1.54553 130 120 115
-3.13778 -3.59526 1.59541 124 123 110
-3.12729 -3.58745 1.59178 129 122 108
-3.14470 -3.60177 1.61213 128 120 106
-3.14568 -3.60554 1.59964 115 118 105
-3.15185 -3.63555 1.61040 87 89 99
-3.15053 -3.67331 1.62307 47 43 70
-3.16480 -3.68254 1.61349 30 25 42
-3.15772 -3.68466 1.62760 27 30 48
-3.17200 -3.69390 1.61801 30 29 39
-3.17207 -3.68891 1.63039 17 23 42
-3.18633 -3.69814 1.62082 30 30 37
-3.62961 -4.46695 1.93735 29 23 18
-3.61403 -4.45687 1.94781 29 26 23
-3.61798 -4.45830 1.93332 29 26 12
-3.62565 -4.46552 1.95184 22 26 18
-3.63728 -4.47416 1.95587 29 24 14
-3.63837 -4.48004 1.94262 40 23 14
-3.64604 -4.48726 1.96116 28 26 17
-3.65001 -4.48869 1.94665 43 21 32
-3.73755 -4.59541 1.99110 75 70 68
-3.74154 -4.59686 1.97648 68 62 35
-3.75328 -4.60559 1.98054 67 63 45
-3.74545 -4.61061 1.99700 73 67 64
-3.76120 -4.62080 1.98642 70 62 50
-3.74953 -4.63241 2.00477 75 67 57
-3.76533 -4.64264 1.99416 70 61 42
-4.18974 -4.74018 2.08293 124 121 102
-4.17459 -4.73038 2.09310 99 87 62
-4.17844 -4.73178 2.07901 108 103 83
-4.22932 -4.75258 2.09088 131 141 143
-4.24442 -4.76235 2.08074 145 157 168
-4.24337 -4.75460 2.09289 141 147 153
-4.25845 -4.76435 2.08277 148 157 172
-4.25999 -4.75060 2.09311 144 146 155
-4.27501 -4.76032 2.08302 147 158 168
-4.27233 -4.75631 2.09621 142 148 159
-4.28358 -4.76452 2.10006 146 151 159
-4.29682 -4.76803 2.10250 145 140 128
-4.31428 -4.76138 2.10189 97 77 67
-4.32490 -4.77092 2.10613 53 50 54
-4.33984 -4.78058 2.09610 39 45 55
-4.42328 -6.12422 2.57408 51 66 96
-4.41404 -6.11553 2.55175 64 74 92
-4.43952 -6.12682 2.57649 110 140 162
0.89070 -4.08407 1.35588 93 90 94
0.91522 -4.06820 1.37234 80 81 85
0.90277 -4.07271 1.32673 78 75 87
0.91036 -4.11522 1.36444 110 104 110
0.88609 -4.14847 1.37796 88 86 86
0.87394 -4.15991 1.40733 83 75 87
0.85496 -4.15619 1.38356 81 70 78
0.83656 -4.16987 1.38994 74 54 71
0.85228 -4.19989 1.39850 84 78 88
0.85857 -4.19761 1.42156 86 79 83
0.84008 -4.21136 1.42797 85 78 82
0.83378 -4.21365 1.40492 88 82 91
0.81993 -4.25246 1.41930 78 72 74
0.81362 -4.25475 1.39617 79 63 83
0.63481 -4.86316 1.64238 59 58 60
0.65443 -4.84857 1.63558 57 59 71
0.64775 -4.85099 1.61113 65 64 76
0.61819 -4.87955 1.64949 45 43 54
0.60501 -4.89804 1.65698 72 73 84
0.59205 -4.91023 1.68827 138 128 122
0.58536 -4.91265 1.66379 122 120 124
0.57868 -4.91507 1.63930 104 106 111
-2.31797 -3.23664 1.38173 185 181 178
-2.31067 -3.22978 1.36412 69 77 94
-2.33164 -3.24320 1.38526 216 203 194
-2.34645 -3.25278 1.37532 218 203 196
-2.47369 -3.28832 1.41417 222 212 215
-2.46650 -3.28154 1.39678 221 207 203
-2.47741 -3.28966 1.40056 220 209 206
-2.51998 -3.28777 1.41846 247 246 249
-2.52713 -3.29449 1.43572 254 254 254
-2.53082 -3.29583 1.42222 253 253 254
-2.96667 -3.28407 1.46045 251 254 254
-2.95316 -3.27533 1.46953 254 254 254
-2.95659 -3.27657 1.45696 254 254 254
-2.96324 -3.28283 1.47302 254 254 254
-2.97333 -3.29033 1.47652 254 254 254
-2.97290 -3.29463 1.46460 245 253 254
-2.97956 -3.30090 1.48069 254 254 254
-2.97908 -3.30528 1.46878 240 250 254
-2.98858 -3.31328 1.47239 233 242 254
-3.00359 -3.31684 1.47503 213 215 251
-3.01398 -3.35581 1.48913 139 153 219
-3.02559 -3.37824 1.49779 135 141 202
-3.03529 -3.38624 1.50142 135 140 179
-3.04506 -3.39419 1.50503 136 140 162
-3.04916 -3.42339 1.51524 133 125 135
-3.06291 -3.43228 1.50601 130 119 110
-3.05810 -3.43217 1.51905 131 120 122
-3.07185 -3.44107 1.50982 132 119 108
-3.11026 -3.55526 1.56545 128 123 112
-3.09981 -3.54749 1.56183 132 122 116
-3.11715 -3.56175 1.58210 130 120 99
-3.11589 -3.56753 1.57012 122 121 110
-3.12280 -3.57402 1.58680 132 121 102
-3.12230 -3.57913 1.57464 113 116 109
-3.12379 -3.61327 1.58625 81 83 95
-3.14659 -3.62735 1.59319 33 42 56
-3.16073 -3.63650 1.58370 31 30 39
-3.14866 -3.64344 1.59880 19 25 52
-3.16285 -3.65262 1.58927 30 30 42
-3.60340 -4.43535 1.90885 33 21 28
-3.58785 -4.42529 1.91929 29 22 11
-3.59180 -4.42672 1.90483 29 24 16
-3.59945 -4.43392 1.92331 26 25 19
-3.61105 -4.44255 1.92733 30 25 12
-3.61836 -4.43888 1.91148 36 24 26
-3.62950 -4.44817 1.91568 36 29 30
-3.65739 -4.45806 1.92170 61 65 57
-3.67289 -4.46809 1.91130 79 75 54
-3.65923 -4.48190 1.92989 68 66 48
-3.66688 -4.48910 1.94839 41 26 43
-3.67479 -4.49196 1.91944 75 72 58
-4.16714 -4.70031 2.05242 121 119 90
-4.15206 -4.69055 2.06255 92 81 54
-4.15589 -4.69194 2.04852 99 93 81
-4.16331 -4.69892 2.06645 100 85 55
-4.17457 -4.70729 2.07035 102 90 65
-4.19253 -4.67804 2.04740 126 132 95
-4.20133 -4.69151 2.05277 132 142 118
-4.21631 -4.70120 2.04271 154 163 172
-4.21364 -4.69732 2.05592 147 155 150
-4.21433 -4.72895 2.06661 132 138 141
-4.22940 -4.73870 2.05650 143 159 172
-4.22645 -4.73535 2.06993 134 147 153
-4.28593 -4.76934 2.08711 150 154 155
-4.29587 -4.78069 2.09188 135 127 118
-4.31617 -4.76730 2.08935 79 64 53
-4.33113 -4.77698 2.07931 44 41 48
-4.32784 -4.77437 2.09285 48 43 52
-4.34278 -4.78405 2.08282 39 41 45
-4.42405 -6.13995 2.56093 57 68 105
-4.41478 -6.13123 2.53854 57 67 95
-4.43494 -6.16155 2.56924 122 155 170
0.92435 -4.10465 1.33523 98 100 107
0.93649 -4.09323 1.30590 86 84 95
0.89968 -4.12062 1.31866 113 119 123
0.95142 -4.13940 1.34411 133 140 141
0.92659 -4.15547 1.32744 111 101 111
0.93604 -4.15465 1.35072 129 127 129
0.91120 -4.17072 1.33404 103 93 101
0.89847 -4.15950 1.35605 97 86 90
0.87369 -4.17553 1.33942 109 101 105
0.88303 -4.17469 1.36264 91 81 88
0.85894 -4.18578 1.36871 92 73 87
0.83417 -4.20180 1.35209 101 90 95
0.86939 -4.21339 1.37687 93 88 95
0.84451 -4.22948 1.36018 104 102 98
0.83679 -4.22042 1.38244 96 100 100
0.84076 -4.24512 1.39027 82 78 85
0.84004 -4.29073 1.40553 86 77 96
0.83368 -4.29303 1.38225 99 92 109
0.81500 -4.30693 1.38872 112 106 97
0.63947 -4.87234 1.61906 64 63 68
0.65243 -4.86015 1.58775 68 67 81
0.63278 -4.87477 1.59456 65 66 76
0.62738 -4.89151 1.62663 53 53 62
0.60924 -4.90707 1.63361 57 61 69
0.58287 -4.92413 1.61591 85 89 95
-2.27937 -3.26487 1.37271 142 147 155
-2.27199 -3.25793 1.35488 55 57 68
-2.28318 -3.26625 1.35876 95 100 120
-2.34909 -3.23582 1.36993 203 195 193
-2.48591 -3.29943 1.40466 223 214 216
-2.47870 -3.29265 1.38726 225 213 206
-2.48962 -3.30078 1.39104 226 216 209
-2.51689 -3.29376 1.40584 234 227 231
-2.55607 -3.28225 1.40588 245 243 245
-2.56317 -3.28893 1.42303 254 254 254
-2.57050 -3.29158 1.39619 240 237 240
-2.95903 -3.26323 1.43943 245 253 254
-2.94555 -3.25451 1.44848 254 254 254
-2.94898 -3.25575 1.43595 252 254 254
-2.95561 -3.26199 1.45196 254 254 254
-2.96533 -3.27365 1.44353 240 248 253
-2.97328 -3.28281 1.44736 230 232 248
-2.98262 -3.29088 1.45098 208 217 247
-2.99140 -3.29941 1.45469 188 204 248
-3.00222 -3.35367 1.47382 139 144 200
-3.04353 -3.41606 1.49869 132 120 105
-3.05727 -3.42495 1.48946 131 122 105
-3.09208 -3.52448 1.53960 126 121 117
-3.08167 -3.51673 1.53599 130 123 111
-3.08854 -3.52319 1.55258 134 120 112
-3.09895 -3.53094 1.55619 134 121 110
-3.10323 -3.54890 1.54883 109 114 94
-3.10974 -3.56033 1.55328 93 93 90
-3.10850 -3.57906 1.55940 72 67 89
-3.12258 -3.58818 1.54994 24 27 56
-3.11626 -3.58947 1.56363 48 44 72
-3.13036 -3.59859 1.55416 27 34 45
-3.12620 -3.59784 1.56740 26 29 51
-3.14031 -3.60696 1.55793 28 35 39
-3.13648 -3.60589 1.57110 16 25 41
-3.15059 -3.61502 1.56163 32 37 31
-3.14303 -3.61754 1.57563 23 30 29
-3.15715 -3.62668 1.56615 32 37 33
-3.59152 -4.43449 1.89206 40 29 24
-3.60856 -4.43495 1.89390 56 42 46
-3.62351 -4.43847 1.89655 74 70 54
-3.63738 -4.44355 1.89962 81 84 69
-3.65067 -4.44949 1.90291 92 89 79
-4.08166 -4.57203 1.98637 65 49 32
-4.06677 -4.56239 1.99637 59 45 36
-4.07055 -4.56376 1.98252 67 57 39
-4.07788 -4.57065 2.00022 60 44 25
-4.08899 -4.57892 2.00408 57 46 17
-4.09167 -4.58250 1.99085 59 40 20
-4.09901 -4.58940 2.00856 54 46 18
-4.09958 -4.59722 1.99654 56 35 11
-4.10693 -4.60414 2.01428 55 47 26
-4.11043 -4.60610 2.00057 57 38 16
-4.11777 -4.61302 2.01832 58 49 37
-4.12380 -4.60983 2.00313 65 50 34
-4.13114 -4.61673 2.02086 63 45 40
-4.13816 -4.61143 2.00509 74 60 60
-4.14548 -4.61833 2.02278 69 42 38
-4.13678 -4.64568 2.01636 91 79 78
-4.14416 -4.65262 2.03418 76 51 49
-4.16936 -4.67273 2.02859 114 130 112
-4.18841 -4.66412 2.02761 138 157 143
-4.19997 -4.67149 2.03120 141 159 137
-4.20941 -4.68351 2.03614 148 164 153
-4.22663 -4.71143 2.04714 144 152 164
-4.24522 -4.73664 2.05738 144 161 168
-4.25748 -4.74257 2.06057 145 156 166
-4.26574 -4.75772 2.06643 144 147 162
-4.27330 -4.77461 2.07280 140 140 141
-4.28358 -4.78527 2.07737 136 132 121
-4.29702 -4.78843 2.07975 114 105 90
-4.31683 -4.77620 2.07764 62 54 44
-4.33182 -4.78590 2.06758 36 40 46
-4.42298 -6.16220 2.54967 74 81 132
-4.43774 -6.17036 2.55385 146 170 201
-4.45804 -6.15858 2.55194 186 203 225
-4.47686 -6.17076 2.53930 197 212 230
0.90587 -4.21344 1.34867 112 114 111
0.88091 -4.22959 1.33191 100 94 100
0.83844 -4.24937 1.36735 90 87 90
0.85071 -4.23783 1.33773 106 107 113
0.81352 -4.26549 1.35062 95 80 107
0.81185 -4.25927 1.37331 86 66 97
0.63930 -4.90514 1.60393 61 61 71
0.65232 -4.89290 1.57250 70 72 80
0.61286 -4.92225 1.58618 45 54 53
0.60912 -4.91348 1.60973 46 50 58
-2.34900 -3.23963 1.35664 176 174 180
-2.34173 -3.23280 1.33908 58 53 88
-2.38043 -3.23469 1.35818 216 205 197
-2.38766 -3.24148 1.37564 218 204 196
-2.39139 -3.24283 1.36198 222 207 199
-2.39511 -3.24419 1.34833 224 211 203
-2.53761 -3.28339 1.39016 227 217 214
-2.53048 -3.27668 1.37295 229 220 211
-2.54128 -3.28472 1.37670 231 221 214
-2.55209 -3.29275 1.38044 231 219 213
-2.57121 -3.27562 1.39100 233 224 223
-2.58559 -3.28492 1.38134 229 220 222
-2.94720 -3.23062 1.41419 246 254 254
-2.93380 -3.22194 1.42319 254 254 254
-2.93720 -3.22318 1.41072 251 254 254
-2.94380 -3.22938 1.42666 254 254 254
-2.95380 -3.23682 1.43012 254 254 254
-2.95351 -3.24090 1.41822 244 251 254
-2.95781 -3.25279 1.42258 237 238 251
-2.96686 -3.26102 1.42621 212 218 245
-2.96821 -3.27532 1.43107 198 207 246
-2.98096 -3.28068 1.43413 187 200 245
-2.98762 -3.29087 1.43817 170 191 239
-2.98666 -3.30721 1.44346 156 176 221
-2.99191 -3.31865 1.44777 140 156 206
-3.00285 -3.32552 1.45114 131 142 189
-3.00976 -3.35156 1.46044 127 121 141
-3.02339 -3.36038 1.45129 134 120 100
-3.02072 -3.35847 1.46382 126 121 122
-3.03435 -3.36728 1.45468 133 120 109
-3.02603 -3.37008 1.46819 129 122 118
-3.03968 -3.37891 1.45903 133 121 112
-3.07765 -3.47376 1.50763 127 126 117
-3.06732 -3.46607 1.50405 130 126 117
-3.07414 -3.47248 1.52051 129 121 105
-3.08447 -3.48017 1.52409 130 123 108
-3.07639 -3.49179 1.51346 124 127 113
-3.08323 -3.49823 1.52998 132 124 104
-3.08140 -3.50433 1.51810 116 121 103
-3.08388 -3.51922 1.52327 107 101 107
-3.08239 -3.53783 1.52926 85 79 101
-3.06844 -3.56801 1.53781 59 61 73
-3.09786 -3.55843 1.53762 35 41 56
-3.11192 -3.56752 1.52819 32 33 42
-3.10247 -3.57170 1.54247 21 26 56
-3.11655 -3.58081 1.53301 32 35 48
-3.11086 -3.58149 1.54655 18 23 63
-3.12496 -3.59061 1.53709 31 36 46
-3.56646 -4.37587 1.85482 44 23 22
-3.56485 -4.40377 1.86386 48 32 39
-3.58040 -4.41383 1.85343 89 84 54
-3.56932 -4.42295 1.87065 60 50 63
-3.58492 -4.43304 1.86018 81 79 64
-3.59543 -4.43600 1.87759 83 88 74
-3.61017 -4.43991 1.88038 91 89 75
-3.62573 -4.44998 1.86993 73 62 39
-3.62797 -4.43909 1.88191 83 81 54
-3.64349 -4.44913 1.87149 71 64 57
-3.64081 -4.44576 1.88541 77 75 70
-3.65631 -4.45580 1.87500 70 66 50
-3.65428 -4.45142 1.88864 77 69 67
-3.66977 -4.46145 1.87824 68 67 45
-4.06465 -4.55408 1.96404 74 60 44
-4.04977 -4.54445 1.97403 68 53 38
-4.05354 -4.54582 1.96019 78 68 50
-4.05732 -4.54719 1.94635 82 62 41
-4.06087 -4.55271 1.97788 68 57 39
-4.07473 -4.56434 1.96845 67 51 37
-4.08545 -4.57340 1.97252 63 46 37
-4.09546 -4.58385 1.97699 71 52 40
-4.10459 -4.59613 1.98196 81 69 48
-4.12302 -4.58958 1.98166 94 93 74
-4.13023 -4.60577 1.98774 115 118 106
-4.14453 -4.60744 1.98973 135 140 133
-4.15940 -4.61706 1.97976 156 165 171
-4.15194 -4.62338 1.99574 146 152 143
-4.16416 -4.62931 1.99894 149 158 140
-4.17702 -4.63385 2.00174 133 145 120
-4.19598 -4.65733 2.01141 115 146 134
-4.19976 -4.65871 1.99755 125 147 137
-4.20739 -4.66496 2.01508 128 154 151
-4.21202 -4.68748 2.02298 146 166 172
-4.22183 -4.69878 2.02770 150 161 168
-4.23026 -4.71321 2.03332 144 152 159
-4.23885 -4.72738 2.03886 138 146 158
-4.24593 -4.74510 2.04543 134 139 140
-4.25034 -4.76915 2.05381 131 131 131
-4.26545 -4.77892 2.04366 123 118 99
-4.26331 -4.77360 2.05659 128 122 123
-4.27841 -4.78337 2.04646 126 120 99
-4.27474 -4.78160 2.06039 128 121 108
-4.28663 -4.78848 2.06386 124 117 95
-4.30720 -4.77467 2.06139 96 86 71
-4.31748 -4.78519 2.06590 45 41 41
-4.33249 -4.79491 2.05582 30 37 41
-4.40639 -6.17879 2.53483 53 67 98
-4.38739 -6.16650 2.54758 69 77 95
-4.39222 -6.16825 2.52991 66 78 93
-4.39704 -6.17000 2.51224 65 79 90
-4.41475 -6.20982 2.54591 95 113 155
-4.44473 -6.16431 2.53393 161 185 214
-4.46360 -6.17652 2.52126 195 207 226
-4.45816 -6.17712 2.53951 190 205 228
-4.47703 -6.18933 2.52684 198 210 225
0.90678 -4.19649 1.31841 100 100 101
0.92537 -4.18266 1.31197 97 91 99
0.90045 -4.19878 1.29524 91 87 97
0.88245 -4.20758 1.32456 102 101 101
0.85755 -4.22369 1.30784 72 72 87
0.85225 -4.26148 1.34531 105 109 106
0.66395 -4.92649 1.58228 66 68 75
0.67703 -4.91419 1.55070 70 74 81
0.60905 -4.94665 1.59455 70 76 73
0.59600 -4.95892 1.62606 136 130 127
0.58927 -4.96136 1.60141 120 120 118
0.58254 -4.96380 1.57676 100 102 101
-2.36972 -3.23012 1.34110 134 136 152
-2.37346 -3.23147 1.32743 87 88 116
-2.40468 -3.22280 1.34232 204 199 195
-2.91724 -3.19714 1.38692 246 253 254
-2.90386 -3.18848 1.39590 254 254 254
-2.90726 -3.18971 1.38346 252 254 254
-2.91384 -3.19590 1.39936 254 254 254
-2.92382 -3.20333 1.40282 254 254 254
-2.93983 -3.20999 1.39346 242 245 250
-2.94786 -3.21888 1.39720 235 238 248
-2.95014 -3.23221 1.40179 217 227 247
-2.95636 -3.24257 1.40583 210 223 249
-2.97296 -3.26016 1.41329 183 200 242
-2.97108 -3.27700 1.41861 172 183 239
-2.97882 -3.28634 1.42246 150 164 228
-2.97993 -3.30099 1.42737 136 150 203
-2.98384 -3.31349 1.43186 127 136 160
-2.99742 -3.32227 1.42275 123 119 111
-2.99244 -3.32226 1.43562 117 118 140
-3.00602 -3.33105 1.42650 127 117 111
-3.00310 -3.32937 1.43905 121 115 132
-3.01668 -3.33816 1.42993 129 121 116
-3.01123 -3.33854 1.44289 126 118 124
-3.02483 -3.34734 1.43376 130 122 114
-3.06182 -3.45852 1.48736 118 122 112
-3.06992 -3.48503 1.49687 99 96 103
-3.06375 -3.50754 1.50359 76 77 95
-3.03856 -3.54738 1.51402 48 59 70
-3.05272 -3.55654 1.50451 27 34 42
-3.07681 -3.54746 1.51800 22 26 43
-3.09088 -3.55657 1.50855 29 35 29
-3.08435 -3.55799 1.52222 27 27 28
-3.09844 -3.56710 1.51276 30 34 40
-3.10104 -3.56008 1.52463 32 29 38
-3.11510 -3.56918 1.51520 31 35 44
-3.54378 -4.29064 1.80935 23 19 30
-3.52852 -4.28076 1.81959 19 24 25
-3.53240 -4.28217 1.80540 18 18 25
-3.53991 -4.28923 1.82354 21 22 27
-3.55129 -4.29770 1.82748 27 22 24
-3.55194 -4.30369 1.81446 35 22 38
-3.55946 -4.31076 1.83262 29 23 20
-3.56499 -4.33468 1.82595 44 37 36
-3.58034 -4.34461 1.81564 85 80 51
-3.56387 -4.36143 1.83458 56 50 55
-3.57930 -4.37141 1.82422 79 76 55
-3.56824 -4.38043 1.84125 69 71 59
-3.57099 -4.40197 1.84857 82 82 64
-3.59799 -4.43953 1.86365 77 72 70
-3.59032 -4.43231 1.84512 74 66 47
-3.60195 -4.44096 1.84915 73 65 51
-3.61358 -4.44961 1.85319 73 62 51
-3.61501 -4.44000 1.86556 77 64 62
-3.63056 -4.45006 1.85512 72 62 47
-4.07400 -4.54455 1.94721 85 72 63
-4.08015 -4.56249 1.95372 98 97 89
-4.08668 -4.57984 1.96006 116 118 103
-4.12598 -4.59260 1.96830 132 136 133
-4.14085 -4.60222 1.95832 143 152 164
-4.13581 -4.60345 1.97287 139 147 153
-4.19301 -4.64107 1.99109 126 143 130
-4.21230 -4.66386 2.00053 132 149 149
-4.22109 -4.67724 2.00582 137 148 147
-4.22990 -4.69065 2.01111 135 138 126
-4.24483 -4.70030 2.00109 124 117 104
-4.23917 -4.70313 2.01616 129 126 122
-4.25412 -4.71280 2.00612 122 119 101
-4.24411 -4.72549 2.02398 125 122 121
-4.25911 -4.73520 2.01391 124 121 104
-4.25244 -4.74034 2.02970 125 120 108
-4.26747 -4.75006 2.01961 124 122 101
-4.24813 -4.78447 2.04369 122 119 101
-4.26330 -4.79428 2.03350 127 122 102
-4.28541 -4.80184 2.05322 123 114 91
-4.27796 -4.79483 2.03523 128 123 104
-4.30193 -4.79776 2.05359 84 70 65
-4.31574 -4.79996 2.05574 35 33 32
-4.33081 -4.80970 2.04563 29 34 35
-4.30409 -5.75943 2.36835 100 101 89
-4.28612 -5.74781 2.38042 60 64 80
-4.29068 -5.74946 2.36370 86 85 85
-4.29525 -5.75111 2.34699 119 115 92
-4.31294 -5.76776 2.38971 75 76 72
-4.33412 -5.71911 2.35827 84 86 76
-4.34287 -5.72734 2.37941 66 78 76
-4.34739 -5.72898 2.36287 67 80 76
-4.35190 -5.73061 2.34633 64 79 78
-4.40864 -6.18954 2.51983 50 65 97
-4.39927 -6.18073 2.49721 66 75 91
-4.42439 -6.19463 2.52313 107 134 162
-4.44694 -6.17528 2.51913 173 198 216
-4.46584 -6.18751 2.50644 200 213 227
0.95785 -4.04713 1.24003 57 57 64
0.97620 -4.03348 1.23367 66 67 74
0.96995 -4.03574 1.21080 73 81 81
0.96409 -4.04487 1.26290 84 84 104
0.93950 -4.06078 1.24639 70 72 76
0.93326 -4.06304 1.22352 69 76 75
0.88090 -4.21215 1.30164 73 71 93
0.89316 -4.20061 1.27202 87 85 88
0.85598 -4.22827 1.28491 74 65 78
0.84267 -4.23930 1.31447 80 79 92
0.83635 -4.24159 1.29130 82 77 86
0.83733 -4.25960 1.32161 86 86 92
0.81237 -4.27575 1.30486 74 71 82
0.81079 -4.26955 1.32764 81 79 91
0.79219 -4.28339 1.33409 71 74 83
0.78586 -4.28568 1.31091 63 68 79
0.57170 -4.52309 1.43506 104 110 105
0.57257 -4.54791 1.44302 91 93 111
0.54734 -4.56424 1.42607 77 80 98
0.69023 -4.94888 1.56055 65 69 75
0.70338 -4.93652 1.52881 64 68 84
0.68345 -4.95134 1.53571 64 70 81
0.64396 -4.94768 1.56504 55 60 56
0.61736 -4.96488 1.54719 46 48 48
0.61335 -4.95585 1.57092 56 60 50
-2.42698 -3.21214 1.32682 172 171 180
-2.41983 -3.20541 1.30956 48 47 75
-2.44929 -3.21273 1.32937 220 210 205
-2.45641 -3.21943 1.34657 225 212 205
-2.46009 -3.22076 1.33311 227 216 210
-2.89402 -3.18844 1.36845 247 253 253
-2.88062 -3.17976 1.37745 254 254 254
-2.88402 -3.18100 1.36498 253 254 254
-2.89062 -3.18720 1.38092 254 254 254
-2.91146 -3.19035 1.37091 233 244 250
-2.92255 -3.19694 1.37422 214 226 246
-2.94607 -3.20906 1.38063 209 225 245
-2.95890 -3.21428 1.38368 201 213 243
-2.95919 -3.22910 1.38851 186 200 247
-2.96500 -3.23976 1.39258 176 190 242
-2.96866 -3.25213 1.39698 156 175 225
-2.95696 -3.27662 1.40368 141 155 210
-2.97232 -3.29547 1.41141 121 118 152
-2.98587 -3.30424 1.40231 125 114 104
-2.98067 -3.30439 1.41518 115 110 135
-2.99423 -3.31317 1.40608 128 121 111
-2.98669 -3.31522 1.41933 121 117 124
-3.00027 -3.32400 1.41021 130 123 111
-3.03398 -3.40418 1.45315 128 125 109
-3.02373 -3.39655 1.44960 131 124 107
-3.03049 -3.40292 1.46593 131 121 103
-3.04074 -3.41054 1.46949 133 121 111
-3.04317 -3.42917 1.46222 117 122 106
-3.05346 -3.45346 1.47118 91 78 93
-3.05402 -3.46973 1.47652 58 67 80
-3.06791 -3.47872 1.46719 30 35 50
-3.03388 -3.50441 1.48563 35 45 66
-3.04793 -3.51350 1.47620 31 34 48
-3.04303 -3.54790 1.50069 21 36 40
-3.05718 -3.55706 1.49119 27 38 47
-3.49427 -4.22107 1.76652 15 21 27
-3.47911 -4.21126 1.77670 19 23 25
-3.48296 -4.21265 1.76259 14 19 22
-3.49042 -4.21967 1.78062 18 23 27
-3.50174 -4.22809 1.78454 18 23 26
-3.50193 -4.23446 1.77166 19 22 25
-3.50941 -4.24149 1.78972 17 22 21
-3.51190 -4.24475 1.77605 23 25 20
-3.51938 -4.25179 1.79412 19 21 20
-3.53695 -4.28262 1.79097 38 28 41
-3.54014 -4.30264 1.79780 46 40 56
-3.55545 -4.31255 1.78752 77 75 58
-3.55751 -4.32748 1.80768 70 75 54
-3.58016 -4.39570 1.83218 76 69 56
-3.57253 -4.38852 1.81376 72 63 46
-3.58409 -4.39712 1.81777 73 63 45
-3.59565 -4.40573 1.82178 72 62 44
-4.01667 -4.45795 1.89845 86 71 52
-4.00943 -4.45114 1.88097 93 76 37
-4.02942 -4.46282 1.90137 86 63 53
-4.05639 -4.46955 1.90641 92 83 66
-4.05267 -4.46820 1.92004 83 75 46
-4.06361 -4.47634 1.92383 86 73 45
-4.08294 -4.50612 1.92106 116 113 103
-4.08424 -4.53324 1.92999 122 129 121
-4.08842 -4.55497 1.93747 130 141 141
-4.09444 -4.57329 1.94405 135 142 143
-4.10621 -4.58020 1.94753 138 141 145
-4.12109 -4.58983 1.93754 145 156 169
-4.11673 -4.58963 1.95170 138 142 154
-4.13161 -4.59926 1.94171 143 157 172
-4.16089 -4.62321 1.96724 148 158 176
-4.17317 -4.62898 1.97041 148 155 168
-4.18758 -4.63017 1.97232 144 146 151
-4.20783 -4.65076 1.98113 131 133 126
-4.22270 -4.66038 1.97115 123 119 97
-4.21917 -4.65847 1.98482 128 128 120
-4.23403 -4.66809 1.97485 124 121 100
-4.22728 -4.67329 1.99048 126 126 114
-4.24217 -4.68292 1.98049 126 122 102
-4.23576 -4.68742 1.99596 126 122 101
-4.25067 -4.69707 1.98595 127 122 103
-4.27851 -4.82877 2.04629 120 113 95
-4.30428 -4.80270 2.04056 64 53 58
-4.31938 -4.81247 2.03042 25 30 40
-4.31005 -4.82437 2.04819 29 31 32
-4.32521 -4.83418 2.03802 26 32 33
-4.31404 -5.74491 2.34696 125 118 88
-4.30523 -5.73661 2.32567 121 115 97
-4.33061 -5.74510 2.34877 85 89 87
-4.34849 -5.75667 2.33677 62 75 85
-4.40880 -6.20768 2.50695 53 68 100
-4.39940 -6.19884 2.48426 59 70 94
-4.43375 -6.18031 2.50072 121 152 171
-4.45062 -6.18101 2.50273 185 209 220
-4.46954 -6.19324 2.49003 205 215 233
0.93239 -4.15143 1.25200 82 79 92
0.95094 -4.13763 1.24557 77 78 84
0.94462 -4.13992 1.22245 73 75 79
0.92608 -4.15372 1.22888 78 74 84
0.92016 -4.16293 1.28154 98 101 110
0.91385 -4.16522 1.25842 83 84 99
0.83584 -4.26426 1.29864 75 68 77
0.84813 -4.25270 1.26895 86 87 93
0.82950 -4.26656 1.27541 71 71 78
0.81086 -4.28043 1.28187 72 75 78
0.67031 -4.97029 1.54322 65 69 69
0.63296 -5.00153 1.55727 80 80 85
0.61980 -5.01391 1.58906 140 133 127
0.61301 -5.01637 1.56419 132 127 121
0.60622 -5.01883 1.53932 119 113 111
-2.42900 -3.21455 1.31348 128 130 147
-2.43268 -3.21589 1.29997 76 81 88
-2.46354 -3.20717 1.31483 202 197 198
-2.49260 -3.20318 1.31669 228 217 212
-2.49967 -3.20982 1.33374 227 219 210
-2.50331 -3.21114 1.32040 231 220 212
-2.50695 -3.21247 1.30705 232 220 214
-2.83025 -3.17948 1.34547 246 247 249
-2.81673 -3.17072 1.35455 247 248 250
-2.82016 -3.17197 1.34197 232 227 233
-2.82682 -3.17823 1.35805 252 253 254
-2.83691 -3.18574 1.36155 254 254 254
-2.84034 -3.18698 1.34897 253 254 254
-2.88452 -3.18437 1.35289 244 247 253
-2.87110 -3.17569 1.36190 254 254 254
-2.87450 -3.17692 1.34942 253 254 254
-2.89596 -3.19076 1.35618 217 224 249
-2.91039 -3.19490 1.35906 189 204 242
-2.92480 -3.19902 1.36194 184 201 243
-2.93757 -3.20433 1.36502 184 202 244
-2.95279 -3.20776 1.36776 177 197 234
-2.95938 -3.21773 1.37168 160 174 223
-2.95184 -3.23861 1.37757 143 155 217
-2.95245 -3.26868 1.38729 119 125 158
-2.96597 -3.27743 1.37821 121 111 107
-2.96448 -3.27465 1.39051 113 110 140
-2.97799 -3.28339 1.38144 125 115 107
-2.96730 -3.28789 1.39506 118 107 133
-2.98084 -3.29665 1.38597 129 120 101
-3.01655 -3.42325 1.44384 104 94 94
-3.03048 -3.42784 1.44681 78 72 95
-3.03395 -3.44142 1.45155 57 61 77
-3.04780 -3.45038 1.44225 28 33 48
-3.03882 -3.48749 1.46687 27 33 60
-3.05281 -3.49653 1.45748 34 37 42
-3.47341 -4.20841 1.74524 23 18 20
-3.45823 -4.19859 1.75543 18 22 25
-3.46208 -4.19999 1.74131 15 17 23
-3.46955 -4.20702 1.75935 17 20 21
-3.48696 -4.21384 1.74844 34 25 26
-3.49526 -4.22634 1.75335 40 40 45
-3.50617 -4.23534 1.75741 49 60 63
-3.50449 -4.26163 1.76568 62 75 67
-3.52988 -4.27495 1.77269 85 80 69
-3.56933 -4.34251 1.79864 73 69 53
-3.56177 -4.33539 1.78037 73 64 42
-3.57323 -4.34392 1.78435 71 63 40
-3.58470 -4.35245 1.78832 71 61 43
-4.02687 -4.44732 1.88162 100 87 71
-4.03384 -4.46287 1.88737 120 114 113
-4.05034 -4.46058 1.88841 140 142 135
-4.07133 -4.47849 1.89642 136 145 136
-4.07918 -4.49258 1.90180 133 138 143
-4.08246 -4.51568 1.90957 131 135 145
-4.09720 -4.52522 1.89967 143 155 158
-4.08821 -4.53418 1.91613 132 140 149
-4.10299 -4.54374 1.90620 145 156 166
-4.09797 -4.54490 1.92062 137 147 157
-4.10153 -4.56804 1.92844 141 151 162
-4.15565 -4.61198 1.94838 141 145 157
-4.16447 -4.62500 1.95351 136 137 148
-4.18202 -4.61958 1.95366 132 128 132
-4.19686 -4.62917 1.94371 127 116 101
-4.19572 -4.62219 1.95598 130 122 119
-4.21052 -4.63177 1.94604 126 118 105
-4.21513 -4.64446 1.96522 124 120 104
-4.22996 -4.65405 1.95527 125 122 92
-4.27033 -4.82331 2.02861 127 124 106
-4.25896 -4.81485 2.02467 127 124 107
-4.26283 -4.81626 2.01049 126 125 106
-4.27644 -4.84431 2.03601 114 105 91
-4.29311 -4.84017 2.03648 44 39 48
-4.30835 -4.85004 2.02625 23 27 34
-4.09501 -5.89202 2.35292 58 56 54
-4.10429 -5.90074 2.37532 42 51 55
-4.11386 -5.90421 2.34026 95 91 73
-4.33561 -5.74536 2.33176 80 82 91
-4.35348 -5.75693 2.31976 65 73 86
-4.41098 -6.21882 2.49193 70 82 121
-4.44400 -6.16269 2.47746 145 170 191
-4.45344 -6.18990 2.48722 197 217 229
-4.47239 -6.20215 2.47450 202 214 235
0.94122 -4.18334 1.23664 83 82 84
0.95351 -4.17178 1.20695 71 67 75
0.93487 -4.18564 1.21341 70 66 71
0.92892 -4.19490 1.26633 85 84 90
0.93165 -4.20150 1.24347 84 79 84
0.91299 -4.21538 1.24994 94 88 84
0.87442 -4.24254 1.26282 85 72 87
0.89308 -4.22866 1.25635 90 82 84
0.84941 -4.25871 1.24603 84 79 85
0.77714 -4.98746 1.51054 70 71 84
0.80417 -4.96997 1.52868 65 67 82
0.79730 -4.97246 1.50355 68 64 78
0.79044 -4.97494 1.47841 77 72 79
0.75231 -4.99963 1.51714 76 82 92
0.72530 -5.01711 1.49901 96 103 99
0.64235 -4.98683 1.52517 54 63 65
0.60861 -4.99313 1.53088 67 65 72
0.58194 -5.01038 1.51298 100 94 93
-2.48522 -3.19674 1.29966 165 165 164
-2.47816 -3.19010 1.28260 39 41 44
-2.51362 -3.19309 1.30162 221 211 205
-2.79867 -3.16156 1.32295 240 230 223
-2.78512 -3.15280 1.33204 236 227 220
-2.78856 -3.15405 1.31944 240 230 222
-2.79200 -3.15529 1.30685 241 233 228
-2.79523 -3.16032 1.33554 232 219 215
-2.80533 -3.16783 1.33905 227 214 217
-2.80587 -3.17114 1.32679 232 222 220
-2.82001 -3.17578 1.32982 228 218 223
-2.83922 -3.17673 1.33223 233 230 235
-2.87366 -3.18127 1.33746 243 247 253
-2.88588 -3.18711 1.34067 225 225 249
-2.89777 -3.19317 1.34390 189 189 239
-2.91388 -3.19606 1.34660 170 179 237
-2.92916 -3.19953 1.34938 177 195 241
-2.94275 -3.20422 1.35237 160 172 222
-2.93076 -3.24348 1.36354 125 124 165
-2.94425 -3.25221 1.35448 121 104 105
-2.93733 -3.25366 1.36750 117 111 152
-2.95085 -3.26240 1.35843 123 110 107
-2.94648 -3.26189 1.37113 112 106 133
-2.95999 -3.27063 1.36205 127 116 110
-2.95638 -3.26953 1.37465 116 108 116
-2.96989 -3.27828 1.36557 131 120 109
-2.99039 -3.33609 1.39957 133 124 114
-2.98022 -3.32852 1.39604 132 123 106
-2.99711 -3.34241 1.41578 131 123 115
-3.00206 -3.34244 1.40287 126 124 114
-3.00877 -3.34876 1.41908 133 123 110
-3.00792 -3.35356 1.40705 120 120 106
-3.01464 -3.35988 1.42328 130 124 112
-3.01366 -3.36483 1.41127 106 108 109
-2.99765 -3.39432 1.41889 89 87 110
-2.98717 -3.41946 1.42574 71 63 81
-3.00107 -3.42845 1.41641 21 30 42
-3.00191 -3.42347 1.42863 44 49 61
-3.01579 -3.43245 1.41932 28 35 44
-3.01326 -3.43032 1.43206 28 32 53
-3.02714 -3.43929 1.42275 28 37 55
-3.02475 -3.43704 1.43547 23 31 68
-3.03862 -3.44601 1.42616 30 34 51
-3.43564 -4.17134 1.71430 16 19 23
-3.42048 -4.16154 1.72448 17 20 21
-3.42433 -4.16293 1.71038 15 18 21
-3.43179 -4.16995 1.72840 15 20 27
-3.44310 -4.17836 1.73232 15 19 28
-3.44593 -4.18108 1.71853 25 23 27
-3.45340 -4.18810 1.73655 15 18 26
-3.46491 -4.20275 1.72751 34 30 40
-3.48010 -4.21257 1.71732 88 84 76
-3.47796 -4.20888 1.73090 55 52 62
-3.47936 -4.23066 1.73798 85 85 85
-3.49243 -4.23681 1.74138 96 101 90
-3.50988 -4.23693 1.74334 97 99 81
-3.51039 -4.26025 1.75081 88 87 62
-3.52565 -4.27012 1.74057 71 62 47
-3.52224 -4.26807 1.75460 80 77 62
-3.53750 -4.27794 1.74436 74 63 46
-3.54148 -4.28995 1.76368 75 69 55
-3.55676 -4.29984 1.75343 71 63 45
-3.54718 -4.30651 1.76958 72 67 54
-3.56249 -4.31642 1.75930 70 63 42
-4.00511 -4.41097 1.85319 101 100 84
-3.99051 -4.40152 1.86299 86 78 47
-3.99421 -4.40287 1.84941 97 91 73
-4.00140 -4.40963 1.86677 89 78 35
-4.01230 -4.41773 1.87055 90 75 28
-4.00591 -4.43753 1.86173 104 107 96
-4.01922 -4.44135 1.86441 122 126 113
-4.03098 -4.44794 1.86780 142 153 137
-4.04564 -4.45743 1.85796 148 162 170
-4.05305 -4.46385 1.87529 157 163 168
-4.06770 -4.47333 1.86545 146 154 162
-4.06359 -4.47272 1.87927 145 153 158
-4.07825 -4.48220 1.86943 142 155 163
-4.07456 -4.48078 1.88304 136 145 155
-4.08922 -4.49027 1.87320 144 158 167
-4.08313 -4.49351 1.88803 139 147 158
-4.11395 -4.58257 1.91976 144 152 165
-4.12620 -4.58849 1.92299 140 145 152
-4.14205 -4.58696 1.92425 133 138 143
-4.15687 -4.59656 1.91430 124 119 105
-4.18870 -4.61475 1.93822 126 117 105
-4.20351 -4.62433 1.92828 128 118 99
-4.26615 -4.84378 2.01961 127 122 97
-4.25861 -4.83668 2.00140 128 124 104
-4.27548 -4.85729 2.02494 107 93 72
-4.28879 -4.86131 2.02768 34 26 31
-4.30412 -4.87122 2.01739 21 24 27
-4.39880 -6.21962 2.47196 50 65 99
-4.37964 -6.20722 2.48482 69 80 86
-4.38450 -6.20899 2.46701 69 80 86
-4.38937 -6.21075 2.44919 69 77 84
-4.41307 -6.23034 2.47694 92 109 150
-4.44307 -6.18489 2.46578 165 189 210
-4.46203 -6.19715 2.45305 198 215 234
-4.45802 -6.19249 2.46985 194 213 232
-4.47696 -6.20475 2.45713 202 212 233
0.93473 -4.20827 1.22056 76 65 75
0.94705 -4.19667 1.19079 73 67 65
0.92837 -4.21057 1.19727 80 73 75
0.90968 -4.22447 1.20375 100 98 93
0.92483 -4.22636 1.22737 99 92 80
0.89975 -4.24259 1.21054 105 111 105
0.90683 -4.24062 1.23389 100 93 94
0.88240 -4.25177 1.24015 92 87 90
0.77725 -5.02142 1.49454 84 91 92
0.67434 -5.01314 1.50348 80 86 82
0.59608 -4.99201 1.50560 63 57 63
-2.47742 -3.20555 1.28739 117 120 124
-2.48107 -3.20687 1.27399 68 73 93
-2.51968 -3.19280 1.28811 198 193 192
-2.55251 -3.18602 1.28966 230 220 215
-2.55948 -3.19259 1.30651 232 222 217
-2.56308 -3.19389 1.29332 233 222 220
-2.56668 -3.19520 1.28014 233 224 220
-2.81083 -3.15663 1.30938 240 236 231
-2.81919 -3.16535 1.31307 233 231 225
-2.83171 -3.17111 1.31629 221 215 211
-2.83717 -3.18193 1.32031 203 196 203
-2.85334 -3.18501 1.32310 196 192 213
-2.87028 -3.18748 1.32577 208 208 229
-2.88537 -3.19123 1.32865 202 204 236
-2.90445 -3.19198 1.33103 163 166 216
-2.91702 -3.19749 1.33418 143 151 209
-2.91918 -3.21082 1.33862 139 145 192
-2.91580 -3.22841 1.34379 124 122 158
-2.92929 -3.23714 1.33473 120 109 103
-2.92243 -3.23852 1.34771 112 107 131
-2.93593 -3.24725 1.33865 126 113 98
-2.98087 -3.30062 1.37385 126 125 105
-2.97075 -3.29310 1.37034 129 124 104
-2.98754 -3.30690 1.38997 134 121 100
-2.98798 -3.32630 1.38274 114 113 104
-2.98795 -3.34216 1.38774 103 97 98
-2.97542 -3.38452 1.39968 57 56 79
-2.98925 -3.39347 1.39040 31 32 55
-2.98611 -3.39188 1.40320 37 39 72
-2.99993 -3.40082 1.39392 31 35 49
-3.41456 -4.13605 1.68585 21 20 16
-3.39946 -4.12628 1.69598 14 21 14
-3.40329 -4.12767 1.68194 17 18 13
-3.41072 -4.13466 1.69989 14 19 14
-3.42199 -4.14304 1.70380 15 18 15
-3.42406 -4.14669 1.69027 31 27 24
-3.44003 -4.17204 1.70005 46 46 69
-3.44920 -4.18324 1.70461 68 77 85
-3.47020 -4.20225 1.71295 86 82 73
-3.48724 -4.22665 1.72256 88 80 72
-3.49988 -4.23334 1.72609 82 73 61
-3.51508 -4.24318 1.71588 73 60 38
-3.51829 -4.25610 1.73533 73 61 50
-3.53352 -4.26596 1.72510 73 60 37
-3.98672 -4.36921 1.82354 113 120 97
-3.97220 -4.35982 1.83329 87 77 54
-3.97589 -4.36115 1.81979 93 93 74
-3.98303 -4.36788 1.83705 90 79 38
-3.99387 -4.37594 1.84081 92 82 49
-4.00206 -4.39674 1.83394 129 139 121
-4.00779 -4.41418 1.84008 126 138 124
-4.01236 -4.43390 1.84681 120 123 138
-4.02649 -4.43614 1.84910 127 128 145
-4.04112 -4.44561 1.83928 141 154 172
-4.03312 -4.45225 1.85492 140 153 159
-4.09394 -4.51057 1.88013 145 157 163
-4.10010 -4.52824 1.88639 142 153 152
-4.10761 -4.54338 1.89201 138 143 144
-4.11337 -4.56215 1.89857 133 131 137
-4.12819 -4.57174 1.88862 124 118 99
-4.12475 -4.56972 1.90223 126 125 124
-4.13957 -4.57931 1.89229 124 119 98
-4.13703 -4.57545 1.90542 124 123 114
-4.15183 -4.58503 1.89548 126 119 98
-4.14842 -4.58295 1.90906 125 120 108
-4.16323 -4.59253 1.89912 127 120 98
-4.26704 -4.85231 2.00727 128 120 91
-4.25949 -4.84520 1.98903 131 124 105
-4.27737 -4.86352 2.01197 98 83 59
-4.28710 -4.87621 2.01706 29 17 19
-4.40347 -6.22205 2.45433 45 61 100
-4.39404 -6.21318 2.43156 73 76 79
-4.41862 -6.22966 2.45843 103 135 168
-4.44751 -6.18797 2.44853 179 206 223
-4.46647 -6.20024 2.43580 205 218 237
0.89511 -4.26333 1.21755 103 106 93
0.88873 -4.26564 1.19417 104 107 100
0.86998 -4.27959 1.20067 103 95 95
0.86930 -4.27383 1.22378 93 91 82
0.85695 -4.28545 1.25362 78 71 76
0.86285 -4.29380 1.23075 88 81 73
0.85442 -4.31288 1.23767 70 57 62
0.84202 -4.32454 1.26761 65 67 73
0.83563 -4.32686 1.24419 66 62 65
0.82923 -4.32917 1.22076 87 83 69
0.70849 -5.01350 1.47313 82 83 80
0.68018 -5.02342 1.47947 91 91 89
0.59487 -4.99792 1.48126 60 51 65
0.61051 -5.03491 1.49102 79 74 81
0.59731 -5.04733 1.52290 141 130 118
0.59050 -5.04979 1.49796 131 125 113
0.58369 -5.05226 1.47302 114 112 102
-2.44996 -3.21213 1.27208 24 19 31
-2.43915 -3.20409 1.26833 52 40 36
-2.44283 -3.20542 1.25486 67 55 47
-2.53086 -3.18913 1.27415 161 162 172
-2.56760 -3.17971 1.27541 219 214 212
-2.81198 -3.11595 1.28347 234 230 224
-2.79859 -3.10729 1.29246 236 225 215
-2.80199 -3.10852 1.28001 236 229 221
-2.80858 -3.11472 1.29592 237 228 220
-2.81857 -3.12215 1.29938 238 229 222
-2.81807 -3.12611 1.28734 229 226 220
-2.81980 -3.13937 1.29168 223 217 219
-2.83528 -3.15755 1.29912 190 182 196
-2.84344 -3.16638 1.30281 170 161 165
-2.84636 -3.17901 1.30709 148 136 141
-2.85531 -3.18732 1.31071 135 126 141
-2.87347 -3.18888 1.31328 146 144 166
-2.89341 -3.18905 1.31561 155 155 186
-2.90007 -3.19899 1.31948 135 132 166
-2.91351 -3.20769 1.31046 127 113 103
-2.89513 -3.21766 1.32474 123 118 143
-2.90863 -3.22639 1.31567 128 115 105
-2.90356 -3.22639 1.32843 116 108 127
-2.91708 -3.23513 1.31936 127 118 112
-2.91289 -3.23446 1.33202 117 106 115
-2.92640 -3.24321 1.32294 125 121 108
-2.97050 -3.28176 1.35338 119 117 112
-2.97169 -3.29634 1.35807 110 106 106
-2.96896 -3.31416 1.36332 88 85 102
-2.95572 -3.34058 1.37005 71 75 82
-2.96640 -3.34785 1.37355 48 54 69
-2.98013 -3.35674 1.36432 30 33 41
-2.97667 -3.35546 1.37710 34 42 64
-2.99041 -3.36435 1.36787 31 33 45
-3.36885 -4.10947 1.65740 19 16 20
-3.35372 -4.09968 1.66755 15 17 22
-3.35756 -4.10108 1.65349 15 14 27
-3.36501 -4.10808 1.67147 17 15 20
-3.37629 -4.11647 1.67538 17 17 19
-3.37890 -4.11941 1.66165 26 17 17
-3.38635 -4.12642 1.67964 15 18 20
-3.38774 -4.13089 1.66625 30 22 27
-3.41297 -4.14436 1.67334 47 55 56
-3.42155 -4.15625 1.67803 72 81 70
-3.43346 -4.16387 1.68178 88 87 76
-3.45311 -4.18456 1.69049 89 83 74
-3.46254 -4.19547 1.69497 81 78 67
-3.47466 -4.20283 1.69866 77 72 61
-3.48984 -4.21264 1.68847 71 62 42
-3.48616 -4.21101 1.70253 77 67 57
-3.50133 -4.22083 1.69234 71 61 36
-3.49338 -4.22497 1.70771 77 64 48
-3.50858 -4.23480 1.69751 70 60 30
-3.50601 -4.23164 1.71124 74 61 40
-3.52120 -4.24147 1.70104 69 61 30
-3.92850 -4.34347 1.79450 89 74 65
-3.91392 -4.33403 1.80429 86 79 50
-3.91762 -4.33538 1.79073 88 74 42
-3.92480 -4.34213 1.80806 87 79 59
-3.93567 -4.35022 1.81183 88 75 59
-3.93731 -4.35512 1.79914 95 88 80
-3.94449 -4.36188 1.81649 90 74 53
-3.95784 -4.34647 1.79879 111 118 104
-3.96499 -4.35319 1.81606 92 78 61
-3.98873 -4.37353 1.81078 127 136 140
-4.00101 -4.37902 1.81390 129 133 147
-4.00566 -4.39827 1.82044 129 132 134
-4.01217 -4.41431 1.82619 128 132 132
-4.02677 -4.42376 1.81639 145 158 161
-4.01947 -4.42902 1.83162 127 133 148
-4.03411 -4.43849 1.82179 144 157 168
-4.03061 -4.43673 1.83530 133 141 161
-4.04876 -4.45990 1.84461 144 158 176
-4.05872 -4.46991 1.84888 144 156 173
-4.06885 -4.47960 1.85306 143 154 166
-4.08240 -4.48273 1.85559 139 148 155
-4.09270 -4.49209 1.85969 134 140 143
-4.09785 -4.51159 1.86637 128 129 122
-4.11256 -4.52111 1.85650 122 117 94
-4.10058 -4.53606 1.87432 125 123 111
-4.11536 -4.54562 1.86440 124 119 101
-4.10922 -4.54901 1.87935 126 121 115
-4.12402 -4.55858 1.86942 124 119 99
-4.11695 -4.56388 1.88488 125 117 107
-4.13178 -4.57347 1.87493 125 120 98
-4.27043 -4.85493 1.99332 128 118 91
-4.26287 -4.84782 1.97507 132 124 106
-4.28091 -4.86580 1.99791 86 68 52
-4.28814 -4.88459 2.00461 32 13 18
-4.30208 -4.88715 2.00700 26 23 37
-4.30964 -4.89427 2.02528 22 26 23
-4.31344 -4.89596 2.01105 32 28 41
-4.32101 -4.90308 2.02933 29 24 32
-4.31719 -4.92377 2.02016 44 35 46
-4.32479 -4.93092 2.03853 29 24 25
-4.32872 -4.93234 2.02416 55 45 41
-4.33264 -4.93377 2.00979 84 75 62
-4.34053 -5.67633 2.25781 126 117 101
-4.32286 -5.66490 2.26967 124 111 92
-4.32735 -5.66653 2.25324 124 112 92
-4.34755 -5.70489 2.26753 99 91 92
-4.36529 -5.71636 2.25562 77 70 73
-4.35128 -5.74395 2.28015 71 71 80
-4.36913 -5.75550 2.26817 69 72 80
-4.40675 -6.22941 2.43808 49 65 100
-4.39731 -6.22053 2.41528 71 78 82
-4.42669 -6.22005 2.43743 122 155 180
-4.45070 -6.19554 2.43253 191 214 229
-4.46969 -6.20782 2.41979 204 215 230
0.95523 -4.22868 1.17499 79 75 79
0.97400 -4.21471 1.16848 71 70 72
0.96761 -4.21703 1.14507 81 75 72
0.93670 -4.24277 1.18150 88 81 88
0.91153 -4.25905 1.16461 89 88 88
0.91720 -4.25639 1.18799 93 94 89
0.85706 -4.29641 1.20738 103 97 84
0.85067 -4.29873 1.18399 115 122 99
0.85747 -4.31988 1.21459 83 76 76
0.81902 -4.41845 1.24956 91 86 95
0.83800 -4.40434 1.24298 79 70 85
0.83154 -4.40668 1.21933 70 64 79
0.82548 -4.41611 1.27322 106 99 99
0.81256 -4.42079 1.22591 89 79 84
0.79358 -4.43491 1.23249 89 91 99
0.81076 -4.43811 1.25660 91 83 87
0.79822 -4.44990 1.28689 62 50 53
0.79175 -4.45225 1.26319 76 60 54
0.93410 -4.99196 1.41351 57 58 64
0.92061 -5.00465 1.44609 65 66 75
0.95495 -5.03166 1.42335 58 57 66
0.94137 -5.04443 1.45614 71 68 76
0.93089 -5.04489 1.43025 59 58 72
0.71706 -5.02544 1.44917 90 88 92
0.68441 -5.03274 1.45524 97 99 101
0.62244 -5.02171 1.45906 62 63 85
0.59315 -5.03078 1.46528 65 62 73
0.56638 -5.04810 1.44730 92 92 91
-2.46750 -3.20443 1.25743 22 19 28
-2.46040 -3.19775 1.24028 81 72 57
-2.47117 -3.20576 1.24401 37 33 33
-2.47701 -3.21326 1.26127 35 38 58
-2.49144 -3.22260 1.25158 65 69 85
-2.51231 -3.20507 1.26285 114 116 133
-2.57155 -3.18077 1.26224 195 196 199
-2.62216 -3.16179 1.26228 230 226 222
-2.62903 -3.16825 1.27886 236 224 218
-2.63257 -3.16953 1.26589 236 230 223
-2.63612 -3.17082 1.25291 222 220 221
-2.78310 -3.11078 1.26528 226 222 216
-2.76966 -3.10209 1.27430 237 227 217
-2.77307 -3.10332 1.26180 232 229 220
-2.77969 -3.10955 1.27777 237 227 217
-2.80489 -3.11010 1.26761 216 209 212
-2.80003 -3.12787 1.27254 199 191 203
-2.79782 -3.14392 1.27724 179 173 179
-2.81185 -3.14863 1.28033 165 157 166
-2.82115 -3.15666 1.28390 153 140 163
-2.83464 -3.16539 1.27484 131 121 113
-2.82988 -3.16510 1.28753 141 127 144
-2.84338 -3.17383 1.27847 131 120 106
-2.84274 -3.17058 1.29073 131 118 120
-2.85623 -3.17931 1.28167 129 118 95
-2.85261 -3.17821 1.29424 125 113 104
-2.86609 -3.18694 1.28518 128 117 89
-2.86089 -3.18699 1.29792 120 110 98
-2.87438 -3.19572 1.28886 128 115 94
-2.86942 -3.19561 1.30158 121 111 111
-2.88292 -3.20434 1.29251 126 116 100
-2.87931 -3.20324 1.30509 125 113 124
-2.88358 -3.21505 1.30924 126 113 119
-2.93660 -3.25062 1.32643 122 120 106
-2.93875 -3.26427 1.33090 115 111 104
-2.94789 -3.27255 1.33452 103 98 113
-2.95007 -3.33332 1.35357 35 37 65
-2.96381 -3.34221 1.34435 29 35 41
-2.96605 -3.33632 1.35636 32 41 51
-2.97976 -3.34519 1.34716 31 36 33
-3.33432 -4.04723 1.61917 12 20 26
-3.31930 -4.03751 1.62926 12 25 14
-3.32311 -4.03889 1.61529 13 18 18
-3.33050 -4.04584 1.63314 11 22 16
-3.34171 -4.05418 1.63703 14 20 24
-3.34103 -4.06100 1.62422 19 17 37
-3.34843 -4.06797 1.64210 12 17 27
-3.35032 -4.07170 1.62861 26 21 30
-3.35773 -4.07867 1.64651 13 14 28
-3.36057 -4.08127 1.63276 31 24 37
-3.35864 -4.10588 1.64015 34 28 43
-3.36871 -4.11580 1.64439 39 32 43
-3.37934 -4.12506 1.64850 50 45 36
-3.39449 -4.13487 1.63832 76 70 47
-3.39160 -4.13227 1.65216 66 64 39
-3.40675 -4.14208 1.64199 75 69 53
-3.40306 -4.14048 1.65603 78 76 56
-3.44623 -4.17677 1.67229 77 71 50
-3.46139 -4.18658 1.66211 69 63 37
-3.45671 -4.18628 1.67645 75 69 47
-3.47188 -4.19610 1.66627 70 58 40
-3.46600 -4.19738 1.68097 71 65 48
-3.48118 -4.20721 1.67078 71 57 33
-3.47750 -4.20559 1.68485 69 63 46
-3.49268 -4.21541 1.67466 70 59 30
-3.93108 -4.32014 1.77318 116 119 87
-3.91657 -4.31075 1.78292 87 81 31
-3.92025 -4.31208 1.76942 103 97 81
-3.94559 -4.32952 1.76344 131 152 144
-3.93840 -4.33419 1.77838 118 128 96
-3.96005 -4.35039 1.78591 133 146 133
-3.97004 -4.35996 1.79004 128 125 121
-3.98343 -4.36352 1.79270 120 120 124
-4.00111 -4.38681 1.80196 134 142 158
-4.01037 -4.39779 1.80644 139 147 152
-4.01261 -4.42162 1.81407 143 155 153
-4.04043 -4.45522 1.82771 142 153 163
-4.05328 -4.45976 1.83061 137 143 153
-4.06152 -4.47302 1.83567 131 133 143
-4.07619 -4.48251 1.82582 124 117 97
-4.07089 -4.48420 1.84022 127 124 126
-4.08558 -4.49370 1.83036 126 115 94
-4.08368 -4.48880 1.84314 125 119 113
-4.09835 -4.49830 1.83329 127 115 96
-4.09034 -4.50530 1.84902 124 118 106
-4.10505 -4.51482 1.83914 125 117 98
-4.09443 -4.52703 1.85621 123 117 97
-4.10919 -4.53658 1.84630 124 119 98
-4.27432 -4.85637 1.97905 127 116 90
-4.26676 -4.84926 1.96080 132 128 110
-4.28170 -4.87470 1.98558 79 58 49
-4.29697 -4.87403 1.98715 52 31 29
-4.30993 -4.87886 1.99016 56 48 44
-4.32002 -4.89074 1.99501 64 54 53
-4.33538 -4.90068 1.98470 92 78 55
-4.32432 -4.91715 2.00368 76 63 59
-4.33975 -4.92713 1.99332 88 78 61
-4.30712 -5.69248 2.24145 93 99 96
-4.32299 -5.69460 2.24396 115 109 93
-4.35351 -5.70208 2.24983 94 85 84
-4.41017 -6.23630 2.42165 66 85 118
-4.40072 -6.22741 2.39883 54 72 93
-4.43133 -6.22255 2.41987 145 178 200
0.96601 -4.23918 1.15205 87 80 83
0.94051 -4.24998 1.15838 90 82 87
0.91530 -4.26629 1.14146 103 103 88
0.86344 -4.32835 1.19155 103 104 82
0.87588 -4.31665 1.16151 95 97 99
0.85702 -4.33068 1.16805 94 93 96
0.85497 -4.34757 1.19844 94 82 62
0.84251 -4.35929 1.22852 85 82 79
0.83609 -4.36162 1.20499 90 93 78
0.84782 -4.39119 1.21265 75 74 83
0.85427 -4.38885 1.23630 77 69 79
0.81916 -4.47226 1.24089 92 92 76
0.80656 -4.48411 1.27132 46 41 20
0.80005 -4.48647 1.24751 41 43 32
0.79355 -4.48882 1.22370 57 50 55
0.70114 -4.65513 1.31093 51 53 55
0.67524 -4.67188 1.29354 38 45 43
0.68992 -4.67405 1.31805 47 52 58
0.68729 -4.69790 1.32567 54 54 64
0.66790 -4.71232 1.33239 54 52 66
0.66130 -4.71471 1.30823 51 47 55
0.93476 -5.02637 1.39687 50 49 59
0.90131 -5.03393 1.40316 53 52 65
0.89203 -5.05594 1.41100 59 56 70
0.85356 -5.06034 1.41692 72 71 78
0.75399 -5.02734 1.41865 85 89 87
0.70894 -5.02716 1.42395 96 99 98
0.67765 -5.03527 1.43015 104 105 108
0.62202 -5.02815 1.43458 72 81 89
0.59141 -5.03641 1.44075 49 50 62
-2.50762 -3.19690 1.24563 23 19 31
-2.50057 -3.19027 1.22861 54 45 42
-2.51125 -3.19821 1.23231 22 17 25
-2.52193 -3.20616 1.23602 30 35 52
-2.59005 -3.17214 1.24784 156 161 169
-2.63561 -3.15644 1.24845 215 216 215
-2.74297 -3.12748 1.25234 189 182 187
-2.73284 -3.11994 1.24882 209 203 208
-2.76668 -3.12567 1.25460 172 166 169
-2.78944 -3.12440 1.25692 161 149 159
-2.79887 -3.13231 1.26046 149 134 148
-2.81234 -3.14102 1.25141 132 121 107
-2.80798 -3.14044 1.26403 136 124 127
-2.82146 -3.14916 1.25499 134 124 108
-2.81503 -3.15005 1.26781 131 120 118
-2.82852 -3.15878 1.25876 135 125 110
-2.82196 -3.15976 1.27161 130 120 118
-2.83546 -3.16850 1.26255 136 124 111
-2.88702 -3.21630 1.29666 127 121 105
-2.89915 -3.22227 1.29993 126 122 102
-2.90916 -3.22983 1.30344 121 118 103
-2.91854 -3.23787 1.30702 110 107 105
-2.92648 -3.24702 1.31076 92 89 97
-2.92169 -3.26601 1.31601 75 75 85
-2.92814 -3.27643 1.31997 55 54 74
-2.94176 -3.28524 1.31082 30 28 41
-2.92823 -3.29186 1.32470 42 40 71
-2.94189 -3.30070 1.31553 30 30 47
-2.93735 -3.30028 1.32837 34 31 66
-2.95102 -3.30912 1.31919 32 34 49
-2.95638 -3.31654 1.33561 33 33 50
-2.97006 -3.32539 1.32643 31 36 38
-3.31349 -4.01304 1.59138 14 15 27
-3.29852 -4.00335 1.60143 14 16 25
-3.30232 -4.00473 1.58751 12 15 24
-3.30969 -4.01166 1.60530 11 18 23
-3.32086 -4.01997 1.60917 14 18 20
-3.32198 -4.02452 1.59590 28 18 17
-3.34190 -4.04408 1.60426 34 29 44
-3.37259 -4.07260 1.61665 75 74 67
-3.37660 -4.08983 1.62240 78 76 73
-3.39166 -4.09957 1.61229 74 66 50
-3.37833 -4.11001 1.62879 81 71 58
-3.39345 -4.11979 1.61864 74 65 44
