ply
format ascii 1.0
element face 0
property list uchar int vertex_indices
element vertex 1340
property float x
property float y
property float z
property uchar diffuse_red
property uchar diffuse_green
property uchar diffuse_blue
end_header
-2.51504 -3.85455 0.96837 90 101 99
-2.52668 -3.83403 0.96207 83 93 96
-2.53592 -3.84668 0.96036 82 92 92
-2.54636 -3.84253 0.95633 78 89 83
-2.55842 -3.81162 0.94871 67 86 80
-2.56817 -3.81706 0.94600 58 78 80
-2.58781 -3.82811 0.94057 50 75 80
-2.59852 -3.81659 0.93561 48 69 69
-2.60513 -3.81576 0.92158 6 12 21
-3.08907 -4.53926 0.85062 34 35 14
-3.08070 -4.54031 0.86838 18 20 6
-3.07615 -4.54133 0.85526 23 21 9
-3.07161 -4.54235 0.84213 20 18 12
-3.10653 -4.53618 0.85910 52 48 16
-3.10198 -4.53720 0.84598 47 45 16
-3.16222 -4.48831 0.81990 48 44 44
-3.14494 -4.49136 0.81150 39 32 29
-3.15772 -4.48931 0.80691 35 29 27
-3.17050 -4.48727 0.80232 34 27 25
-3.17390 -4.47682 0.81461 44 42 38
-3.18216 -4.47578 0.79708 32 28 30
-3.18374 -4.45041 0.80825 39 33 32
-3.19195 -4.44938 0.79084 30 33 38
-3.19889 -4.36595 0.79348 43 48 32
-3.19453 -4.36693 0.78090 29 35 39
-3.22682 -4.38558 0.78620 45 64 58
-3.23490 -4.38457 0.76905 21 21 35
-3.23518 -4.35363 0.77972 37 42 55
-3.24319 -4.35262 0.76271 20 20 27
-3.24890 -4.36130 0.77591 27 31 42
-3.25694 -4.36029 0.75886 14 17 25
-3.26269 -4.36896 0.77208 24 32 39
-3.27075 -4.36795 0.75499 16 14 25
-3.27517 -4.36728 0.76764 25 27 41
-3.28323 -4.36627 0.75055 11 11 22
-3.31976 -4.32755 0.74793 28 24 25
-3.31177 -4.32855 0.76487 23 26 18
-3.30744 -4.32953 0.75235 19 23 27
-3.32410 -4.32658 0.76045 26 23 24
-3.33642 -4.32461 0.75602 20 20 21
-3.33208 -4.32558 0.74350 21 17 13
-3.54729 -4.15469 0.65073 13 19 17
-3.53125 -4.15753 0.64294 11 18 9
-3.54311 -4.15563 0.63868 12 18 11
-3.55497 -4.15373 0.63443 15 17 15
-3.55649 -4.14179 0.64613 15 24 27
-3.56562 -4.12892 0.64155 22 43 69
-3.57127 -4.10236 0.63661 63 86 133
-3.59297 -4.14011 0.63351 122 139 148
-3.60370 -4.13389 0.62914 146 155 155
-3.61968 -4.13107 0.63691 149 152 150
-3.61552 -4.13200 0.62490 147 153 154
-3.61136 -4.13293 0.61289 142 150 153
-5.36545 -4.84325 0.10944 207 210 212
-5.35561 -4.84448 0.13031 210 212 209
-5.35027 -4.84568 0.11489 211 213 211
-5.37079 -4.84205 0.12486 208 214 214
-5.38597 -4.83962 0.11941 204 207 215
-5.38062 -4.84082 0.10399 198 199 212
-5.39672 -4.83979 0.09839 200 202 215
-5.41725 -4.83616 0.10836 220 222 221
-5.41190 -4.83736 0.09294 214 213 218
-1.17862 -5.67063 1.61234 52 45 34
-1.16291 -5.67314 1.61798 67 62 36
-1.15738 -5.67438 1.60202 74 69 55
-1.18624 -5.69358 1.61225 43 32 29
-1.41127 -5.58954 1.52400 143 138 144
-1.42565 -5.59137 1.51929 166 163 164
-1.43574 -5.59010 1.49788 175 167 170
-2.46030 -3.86028 0.97592 25 20 27
-2.44641 -3.86274 0.96917 15 10 11
-2.45669 -3.86109 0.96548 13 8 9
-2.47001 -3.86505 0.97313 24 26 49
-2.48009 -3.86583 0.96977 21 24 51
-2.49051 -3.86278 0.96588 21 25 51
-2.50088 -3.86021 0.96205 20 25 51
-2.50755 -3.85937 0.94790 14 8 21
-2.51119 -3.85840 0.95834 19 20 52
-2.51786 -3.85756 0.94418 17 7 21
-2.53175 -3.85552 0.95100 19 19 37
-2.53842 -3.85468 0.93684 13 9 13
-2.54206 -3.85363 0.94727 16 18 34
-2.54874 -3.85279 0.93312 14 9 14
-2.55281 -3.84484 0.94264 14 17 29
-2.55946 -3.84401 0.92852 13 9 20
-2.56319 -3.84140 0.93872 11 15 33
-2.56984 -3.84056 0.92460 11 12 17
-2.57372 -3.83497 0.93441 8 17 35
-2.58036 -3.83413 0.92032 11 11 11
-2.58430 -3.82704 0.92993 6 16 32
-2.59093 -3.82621 0.91587 10 10 8
-2.74769 -3.53230 0.84177 67 63 51
-2.74165 -3.53306 0.85459 74 67 64
-2.73837 -3.53380 0.84512 72 69 65
-2.73509 -3.53453 0.83565 72 71 64
-2.76029 -3.53008 0.84790 52 48 36
-2.75373 -3.53155 0.82896 52 51 41
-2.75702 -3.53259 0.83862 53 48 39
-2.76963 -3.53036 0.84475 41 42 33
-2.76634 -3.53110 0.83527 43 39 35
-2.76306 -3.53184 0.82580 42 38 36
-3.08535 -4.54942 0.83822 30 27 20
-3.06784 -4.55252 0.82972 15 16 10
-3.09830 -4.54740 0.83358 41 38 27
-3.11580 -4.54431 0.84208 53 47 16
-3.11124 -4.54533 0.82893 47 41 18
-3.10669 -4.54635 0.81578 40 33 13
-3.21434 -4.32549 0.76958 28 29 40
-3.22229 -4.32449 0.75273 23 24 25
-3.30139 -4.31965 0.73922 27 21 37
-3.28910 -4.32161 0.74363 14 11 28
-3.30935 -4.31865 0.72233 70 76 57
-3.31352 -4.31670 0.73476 47 40 39
-3.32656 -4.31939 0.73060 41 34 16
-3.34319 -4.31645 0.73868 21 25 24
-3.33886 -4.31742 0.72619 29 31 16
-3.55944 -4.12151 0.62936 16 18 28
-3.54355 -4.12432 0.62164 15 17 8
-3.55530 -4.12244 0.61742 17 17 15
-3.56939 -4.11231 0.62496 16 31 54
-3.57266 -4.07677 0.61993 62 92 90
-3.59705 -4.12507 0.61691 121 135 147
-3.60469 -4.12411 0.60071 120 140 157
-4.20153 -5.10933 0.51865 192 192 184
-4.24216 -5.13269 0.50735 204 207 207
-4.26318 -5.12897 0.51756 210 213 218
-4.25771 -5.13020 0.50177 209 214 215
-4.25223 -5.13143 0.48597 210 216 214
-5.33985 -4.83894 0.10033 207 209 208
-5.33004 -4.84017 0.12116 209 211 213
-5.32470 -4.84137 0.10577 209 209 211
-5.35513 -4.83672 0.09487 200 199 205
-5.36494 -4.83549 0.07404 185 185 190
-5.37663 -4.84410 0.08834 190 191 203
-5.39228 -4.84238 0.08281 190 195 205
-5.40468 -4.83569 0.07784 207 210 214
-5.42519 -4.83207 0.08781 212 209 213
-5.41985 -4.83326 0.07239 214 214 214
-5.41451 -4.83446 0.05698 215 217 215
-1.17034 -5.68040 1.59822 69 63 46
-1.14907 -5.68416 1.58788 74 64 67
-1.16480 -5.68164 1.58223 71 59 55
-1.18054 -5.67912 1.57658 72 61 53
-1.17875 -5.70090 1.59751 63 57 41
-1.18900 -5.69962 1.57578 75 67 60
-1.18696 -5.72248 1.59699 63 57 45
-1.19725 -5.72119 1.57515 74 67 59
-1.20181 -5.72325 1.59200 57 53 47
-1.22331 -5.71945 1.60244 46 47 42
-1.39029 -5.64646 1.51940 136 132 146
-1.41185 -5.62279 1.50951 167 166 168
-2.46620 -3.86786 0.96294 12 8 19
-2.45227 -3.87032 0.95617 17 11 8
-2.46257 -3.86867 0.95247 18 12 7
-2.47288 -3.86702 0.94878 17 12 8
-2.47646 -3.86664 0.95930 10 10 21
-2.48314 -3.86581 0.94514 16 12 6
-2.48738 -3.85772 0.95462 10 10 18
-2.49404 -3.85688 0.94049 16 9 10
-2.49819 -3.84939 0.95004 8 10 19
-2.50484 -3.84855 0.93594 19 9 11
-3.08215 -4.56570 0.82622 22 21 15
-3.06457 -4.56881 0.81768 17 13 7
-3.07757 -4.56672 0.81301 19 16 9
-3.09057 -4.56464 0.80835 27 25 12
-3.09489 -4.56081 0.82134 34 30 19
-3.10330 -4.55975 0.80349 32 29 15
-3.28256 -4.30802 0.73037 25 16 30
-3.27032 -4.30997 0.73476 16 14 14
-3.26602 -4.31094 0.72233 18 17 18
-3.29049 -4.30702 0.71355 52 58 46
-3.29426 -4.30261 0.72579 46 46 45
-3.32106 -4.31313 0.71774 51 59 23
-3.32901 -4.31213 0.70087 25 15 19
-3.33611 -4.32787 0.71416 30 30 24
-3.35279 -4.32492 0.72226 19 16 11
-3.34844 -4.32589 0.70973 28 17 18
-3.36158 -4.32856 0.70552 33 30 22
-3.36593 -4.32759 0.71806 15 15 15
-3.37828 -4.32561 0.71363 19 15 16
-3.37489 -4.33200 0.70133 34 31 19
-3.39161 -4.32905 0.70945 19 14 15
-3.38735 -4.33057 0.69692 27 22 15
-3.40408 -4.32761 0.70504 16 13 16
-3.39972 -4.32859 0.69248 15 15 11
-3.56120 -4.09674 0.61268 11 20 23
-3.54542 -4.09953 0.60501 19 18 11
-3.55709 -4.09766 0.60082 16 21 15
-3.57209 -4.09176 0.60843 22 44 54
-3.57867 -4.06984 0.60386 71 101 119
-4.21281 -5.11184 0.49738 197 199 187
-4.22283 -5.11058 0.47612 207 208 204
-5.32752 -4.82918 0.08617 194 197 200
-5.30710 -4.83279 0.07624 191 189 197
-5.32221 -4.83037 0.07082 183 184 195
-5.33731 -4.82795 0.06540 187 189 193
-5.34538 -4.83104 0.08026 192 193 196
-5.35518 -4.82981 0.05946 188 188 187
-5.38329 -4.83797 0.06803 180 187 192
-5.39452 -4.82953 0.06329 198 206 210
-5.40434 -4.82830 0.04247 209 209 209
-1.35464 -5.64793 1.51374 124 130 131
-1.36988 -5.64710 1.50844 135 136 150
-1.38253 -5.65563 1.50497 131 134 155
-1.40146 -5.64164 1.49706 161 164 171
-1.41894 -5.63272 1.49016 170 171 175
-1.44018 -5.62896 1.50048 172 164 174
-1.43162 -5.64142 1.48670 165 165 173
-1.45291 -5.63766 1.49705 170 163 171
-1.99313 -3.88531 1.11502 36 32 55
-1.98659 -3.88613 1.12892 126 122 143
-1.98303 -3.88692 1.11865 76 74 94
-1.97947 -3.88772 1.10839 44 41 54
-2.00679 -3.88289 1.12166 36 32 38
-1.99968 -3.88448 1.10113 19 8 13
-2.00006 -3.89696 1.11384 28 16 20
-2.01378 -3.89453 1.12050 27 19 16
-2.01021 -3.89533 1.11020 27 17 19
-2.00664 -3.89613 1.09989 17 9 14
-2.06898 -3.89530 1.09006 37 29 41
-2.07962 -3.89151 1.08602 24 13 22
-2.09338 -3.88908 1.09270 23 24 27
-2.08980 -3.88988 1.08237 17 15 14
-2.08621 -3.89069 1.07204 11 9 5
-2.69441 -3.54810 0.84031 52 60 48
-2.68836 -3.54886 0.85316 35 37 33
-2.68507 -3.54960 0.84367 28 26 23
-2.70704 -3.54587 0.84645 69 74 58
-2.70375 -3.54661 0.83696 66 73 60
-2.70046 -3.54735 0.82747 64 70 63
-3.27791 -4.30674 0.71783 34 26 35
-3.28583 -4.30574 0.70101 50 51 51
-3.30259 -4.30425 0.70912 52 53 51
-3.31052 -4.30326 0.69230 23 16 29
-3.34451 -4.32929 0.69731 41 30 34
-3.35623 -4.32369 0.69272 46 49 39
-3.36956 -4.32745 0.68854 41 47 41
-3.38302 -4.33168 0.68436 33 36 29
-3.39104 -4.33068 0.66735 20 24 23
-3.39553 -4.33045 0.67995 21 23 21
-3.41226 -4.32750 0.68807 13 16 14
-3.40790 -4.32847 0.67550 19 19 20
-3.40355 -4.32945 0.66294 25 22 23
-3.56597 -4.08458 0.59644 14 27 34
-3.55024 -4.08736 0.58880 16 18 8
-3.57272 -4.06337 0.59197 48 66 72
-3.58474 -4.06331 0.58784 84 109 130
-3.60039 -4.06054 0.59544 144 155 150
-3.59631 -4.06145 0.58369 129 146 156
-4.18415 -5.09231 0.48751 209 212 201
-4.17874 -5.09352 0.47188 217 222 213
-5.37388 -4.83290 0.05337 186 191 189
-5.38369 -4.83167 0.03255 202 203 201
-5.38278 -4.82091 0.04910 195 201 204
-5.39257 -4.81968 0.02832 205 205 202
-1.34359 -5.66838 1.50155 127 132 139
-1.35709 -5.67393 1.49746 137 137 164
-1.37565 -5.66161 1.48988 115 114 139
-1.38019 -5.69957 1.49205 120 116 133
-1.98626 -3.89972 1.10723 21 8 22
-1.99284 -3.89890 1.09328 18 8 9
-2.06544 -3.89590 1.07968 26 16 27
-2.07204 -3.89507 1.06568 17 7 7
-2.07554 -3.89466 1.07609 17 6 12
-2.08213 -3.89383 1.06210 15 9 4
-2.68159 -3.55862 0.83505 30 25 23
-2.67552 -3.55938 0.84794 13 9 9
-2.66892 -3.56086 0.82890 24 20 15
-2.69106 -3.55178 0.83113 50 56 48
-3.25892 -4.29286 0.70899 25 20 27
-3.25104 -4.29385 0.72572 18 18 25
-3.24675 -4.29481 0.71336 19 17 23
-3.25464 -4.29382 0.69662 36 32 29
-3.27341 -4.30638 0.70534 36 30 45
-3.29953 -4.31317 0.69704 32 27 40
-3.32843 -4.33592 0.68936 32 27 37
-3.32408 -4.33689 0.67681 35 46 40
-3.34025 -4.33078 0.68479 55 52 53
-3.35188 -4.32460 0.68020 48 51 40
-3.36661 -4.33639 0.67630 36 42 41
-3.37961 -4.33792 0.67199 26 32 31
-3.38764 -4.33692 0.65495 14 16 16
-3.55817 -4.07049 0.58443 15 20 15
-3.54251 -4.07326 0.57682 14 14 6
-3.55409 -4.07141 0.57267 15 17 10
-3.56692 -4.05738 0.58014 29 31 37
-3.57924 -4.05861 0.57603 66 84 97
-3.59260 -4.06376 0.57195 107 124 136
-3.60825 -4.06100 0.57955 150 156 155
-3.60417 -4.06191 0.56779 146 152 154
-3.60010 -4.06282 0.55603 140 153 152
-4.16580 -5.10340 0.47730 203 206 203
-4.15582 -5.10465 0.49848 204 208 202
-4.15039 -5.10586 0.48283 196 197 194
-4.14497 -5.10708 0.46718 189 190 189
-5.34650 -4.82579 0.04474 193 197 195
-5.33140 -4.82821 0.05016 182 183 183
-5.35629 -4.82456 0.02397 206 210 210
-5.36413 -4.82727 0.03883 200 203 198
-5.37393 -4.82604 0.01804 202 204 201
-1.34976 -5.62889 1.47763 100 99 105
-1.36079 -5.64262 1.47513 110 105 125
-1.35432 -5.71884 1.48455 86 68 89
-1.36467 -5.71754 1.46260 70 60 71
-1.36903 -5.72080 1.47967 71 54 72
-2.03497 -3.88568 1.07755 25 12 21
-2.02840 -3.88650 1.09147 11 12 14
-2.02484 -3.88730 1.08118 13 9 13
-2.04521 -3.88352 1.07382 46 30 37
-2.05414 -3.88728 1.07110 35 38 42
-2.06071 -3.88646 1.05716 19 10 7
-2.06267 -3.89300 1.06871 22 10 15
-2.06926 -3.89217 1.05473 20 11 9
-2.50021 -3.81804 0.91118 24 20 15
-2.49363 -3.81886 0.92513 24 17 15
-2.49006 -3.81966 0.91482 26 24 16
-2.50378 -3.81724 0.92149 25 18 18
-2.51393 -3.81561 0.91784 30 18 20
-2.51087 -3.80975 0.90673 29 19 20
-2.52456 -3.80733 0.91338 23 19 20
-2.52100 -3.80813 0.90309 25 21 32
-2.61208 -3.79491 0.87052 24 18 19
-2.60552 -3.79573 0.88445 21 16 27
-2.60195 -3.79653 0.87416 24 18 31
-2.61565 -3.79411 0.88082 19 17 19
-2.62578 -3.79249 0.87718 21 18 15
-2.62221 -3.79329 0.86689 24 20 16
-2.67798 -3.57224 0.82685 29 25 27
-2.66525 -3.57448 0.82067 22 22 15
-2.68759 -3.56109 0.82250 46 53 44
-2.69690 -3.56411 0.81958 63 69 57
-2.70960 -3.56186 0.82576 69 69 63
-2.70629 -3.56260 0.81621 71 70 58
-2.70299 -3.56334 0.80666 72 69 57
-2.74388 -3.54891 0.80199 55 57 50
-2.73121 -3.55115 0.79584 67 70 56
-3.24238 -4.29517 0.70097 25 24 24
-3.23450 -4.29616 0.71769 14 17 18
-3.23022 -4.29711 0.70533 16 16 18
-3.26999 -4.31331 0.69318 41 39 45
-3.28374 -4.32126 0.68920 38 44 48
-3.29170 -4.32026 0.67232 18 15 36
-3.29602 -4.31929 0.68480 17 14 34
-3.30398 -4.31829 0.66792 25 32 36
-3.31116 -4.33527 0.68110 24 27 32
-3.33718 -4.33939 0.67254 42 39 51
-3.34937 -4.33636 0.66806 31 28 30
-3.35738 -4.33536 0.65106 16 16 18
-3.36248 -4.33870 0.66377 21 23 28
-3.37050 -4.33770 0.64675 14 14 16
-3.37539 -4.33971 0.65943 16 18 22
-3.38342 -4.33871 0.64239 13 12 14
-3.55878 -4.04195 0.56827 16 19 31
-3.54326 -4.04469 0.56073 14 17 14
-3.57474 -4.05781 0.56428 51 70 75
-3.58674 -4.05772 0.56015 87 112 132
-3.59422 -4.05678 0.54427 135 151 151
-4.16800 -5.07867 0.45657 210 212 206
-4.14729 -5.08233 0.44651 198 203 193
-4.16261 -5.07987 0.44101 197 198 192
-4.17793 -5.07742 0.43551 187 185 184
-4.19118 -5.05172 0.44606 204 206 201
-4.21179 -5.04808 0.45608 211 219 221
-4.20106 -5.05048 0.42511 209 213 200
-4.20275 -5.03856 0.44084 214 220 216
-4.22331 -5.03493 0.45083 212 215 213
-4.21826 -5.03701 0.43536 213 216 210
-4.23882 -5.03338 0.44535 209 217 209
-4.22812 -5.03578 0.41445 194 194 197
-5.29196 -4.80179 0.04394 199 195 184
-5.27169 -4.80537 0.03410 200 207 205
-5.29724 -4.80061 0.05918 186 181 183
-5.28668 -4.80297 0.02871 204 202 198
-5.30167 -4.80057 0.02333 200 194 196
-5.31118 -4.80602 0.03773 190 188 183
-5.32091 -4.80480 0.01709 200 204 207
-5.33332 -4.81472 0.03094 200 205 206
-5.34308 -4.81350 0.01024 200 203 207
-1.33299 -5.66908 1.46913 65 56 56
-1.32743 -5.67033 1.45309 58 45 45
-1.34593 -5.67648 1.46534 79 79 80
-1.35317 -5.70432 1.46537 75 65 73
-1.36347 -5.70302 1.44349 80 70 71
-2.02373 -3.87758 1.06910 20 9 15
-2.01719 -3.87840 1.08297 13 9 8
-2.01363 -3.87919 1.07272 16 11 11
-2.01008 -3.87999 1.06247 22 14 21
-2.03306 -3.87925 1.06603 38 22 30
-2.04367 -3.87541 1.06203 48 47 42
-2.05137 -3.88451 1.06020 30 18 25
-2.05793 -3.88369 1.04627 22 15 9
-2.48623 -3.82349 0.90487 29 18 17
-2.47964 -3.82431 0.91884 24 25 14
-2.47607 -3.82512 0.90852 20 24 13
-2.47249 -3.82592 0.89820 17 22 11
-2.49657 -3.81959 0.90095 36 36 38
-2.50719 -3.81199 0.89661 41 47 32
-2.51814 -3.79955 0.89171 26 23 26
-2.53179 -3.79714 0.89835 23 25 22
-2.52823 -3.79794 0.88809 22 17 27
-2.52468 -3.79873 0.87783 44 18 31
-2.58871 -3.79006 0.86654 24 22 26
-2.58217 -3.79088 0.88043 22 23 26
-2.57861 -3.79167 0.87017 22 18 20
-2.57505 -3.79247 0.85990 35 18 24
-2.59227 -3.78926 0.87680 21 21 27
-2.59878 -3.78910 0.86299 32 28 48
-2.60843 -3.79756 0.86043 38 29 42
-2.61816 -3.80568 0.85781 29 20 27
-2.63191 -3.80325 0.86449 27 22 17
-2.62833 -3.80401 0.85415 26 23 45
-2.64208 -3.80158 0.86084 25 21 19
-2.63850 -3.80238 0.85050 21 22 23
-2.63492 -3.80318 0.84017 22 24 30
-2.67435 -3.58568 0.81855 20 23 21
-2.66156 -3.58794 0.81234 22 22 16
-2.68407 -3.57206 0.81397 37 48 36
-2.69337 -3.57668 0.81118 60 67 53
-2.69948 -3.57591 0.79821 70 68 62
-2.74056 -3.56061 0.79347 58 60 48
-2.72785 -3.56286 0.78729 72 71 55
-3.22714 -4.30691 0.69336 19 20 21
-3.21924 -4.30790 0.71013 10 13 9
-3.21495 -4.30886 0.69773 9 14 10
-3.23915 -4.30361 0.68892 34 28 32
-3.25362 -4.31749 0.68519 53 49 42
-3.26691 -4.32261 0.68108 69 74 61
-3.27982 -4.32486 0.67683 35 47 45
-3.28778 -4.32386 0.65994 18 17 23
-3.31996 -4.33929 0.66431 26 39 30
-3.30326 -4.34224 0.65619 22 25 28
-3.32797 -4.33828 0.64732 17 17 15
-3.33279 -4.34013 0.65997 24 22 33
-3.34080 -4.33912 0.64296 18 17 14
-3.55206 -4.03205 0.55656 16 18 30
-3.53659 -4.03479 0.54904 13 18 15
-3.54803 -4.03296 0.54493 18 16 25
-3.56332 -4.02949 0.55245 32 36 49
-3.57906 -4.04450 0.54838 70 90 107
-4.21237 -5.03663 0.41996 207 207 199
-4.19181 -5.04026 0.40997 201 201 191
-4.20701 -5.03783 0.40451 203 207 202
-4.22221 -5.03540 0.39906 185 187 197
-4.66246 -4.91558 0.25395 201 198 193
-4.64213 -4.91917 0.24407 209 214 209
-5.04766 -4.75797 0.10699 194 192 194
-5.03812 -4.75917 0.12721 193 193 198
-5.02776 -4.76149 0.09732 212 215 208
-5.05283 -4.75681 0.12193 188 189 198
-5.06237 -4.75562 0.10171 191 190 196
-1.34263 -5.66985 1.44781 68 66 62
-1.33707 -5.67109 1.43177 57 45 49
-1.35291 -5.68672 1.44572 75 67 64
-2.02227 -3.86941 1.05735 30 16 19
-2.00866 -3.87181 1.05073 26 17 28
-2.03131 -3.87224 1.05447 58 47 38
-2.04138 -3.87063 1.05086 40 48 53
-2.04883 -3.88072 1.04916 27 13 17
-2.05539 -3.87990 1.03525 25 18 16
-2.48256 -3.82539 0.89468 42 24 29
-2.46881 -3.82782 0.88800 18 20 12
-2.49245 -3.82700 0.89140 87 93 105
-2.50231 -3.82931 0.88820 105 106 92
-2.51449 -3.80156 0.88159 47 41 39
-2.52103 -3.80074 0.86771 42 21 29
-2.58507 -3.79238 0.85644 44 43 36
-2.57141 -3.79479 0.84980 36 22 25
-2.59499 -3.79455 0.85320 77 84 92
-2.60523 -3.79034 0.84930 93 89 93
-2.61474 -3.80260 0.84708 48 36 49
-2.62485 -3.80233 0.84357 27 32 73
-2.67107 -3.58434 0.80874 20 23 20
-2.65830 -3.58660 0.80254 25 22 19
-2.68052 -3.58284 0.80535 35 42 40
-2.68984 -3.58789 0.80257 57 62 61
-2.69598 -3.58713 0.78955 68 70 60
-2.74667 -3.57121 0.78152 45 44 35
-3.21088 -4.31158 0.68542 15 15 15
-3.20298 -4.31257 0.70219 8 13 6
-3.19868 -4.31354 0.68980 9 11 6
-3.19438 -4.31450 0.67740 14 9 11
-3.22339 -4.31189 0.68112 30 26 29
-3.23612 -4.31368 0.67689 46 35 46
-3.25084 -4.32920 0.67315 65 60 65
-3.26239 -4.32223 0.66856 75 81 68
-3.27729 -4.33784 0.66477 28 32 28
-3.28528 -4.33684 0.64782 13 16 14
-3.55706 -4.02149 0.54082 22 19 32
-3.54163 -4.02421 0.53333 19 17 20
-3.57449 -4.04335 0.53670 62 75 85
-3.58553 -4.03978 0.53258 116 133 134
-3.60106 -4.03703 0.54012 167 172 167
-3.59840 -4.04323 0.52843 155 168 155
-3.61396 -4.04048 0.53599 169 169 153
-3.60991 -4.04139 0.52430 167 172 150
-3.60586 -4.04229 0.51262 163 172 156
-4.66990 -4.87507 0.23067 211 216 203
-4.69004 -4.87151 0.24046 202 205 198
-4.67308 -4.84796 0.22722 205 207 195
-4.68789 -4.84559 0.22191 194 194 194
-5.03534 -4.74679 0.09343 205 203 195
-5.01552 -4.75029 0.08380 208 210 205
-5.03018 -4.74794 0.07853 209 207 203
-5.04485 -4.74559 0.07327 208 207 206
-1.33046 -5.64208 1.43166 61 50 55
-1.35266 -5.66926 1.42623 61 51 46
-1.34710 -5.67050 1.41019 57 33 41
-1.36637 -5.67411 1.42189 68 62 59
-2.01894 -3.86928 1.04697 39 27 28
-2.02546 -3.86847 1.03314 65 68 64
-2.02851 -3.86978 1.04370 73 68 46
-2.03579 -3.88036 1.04206 34 26 50
-2.04234 -3.87954 1.02817 19 16 28
-2.04506 -3.88243 1.03903 24 16 27
-2.05162 -3.88161 1.02512 21 18 17
-2.14675 -3.86362 1.00231 24 10 12
-2.14020 -3.86444 1.01621 20 15 28
-2.13664 -3.86524 1.00594 21 9 27
-2.15031 -3.86282 1.01258 23 16 14
-2.16042 -3.86120 1.00896 25 13 15
-2.15686 -3.86200 0.99868 14 9 8
-2.16620 -3.86452 0.99567 22 11 19
-2.16976 -3.86372 1.00595 23 14 25
-2.17988 -3.86210 1.00232 21 17 15
-2.17632 -3.86290 0.99203 18 12 20
-2.47893 -3.82677 0.88442 36 25 30
-2.46518 -3.82920 0.87774 25 19 18
-2.47535 -3.82757 0.87409 23 16 21
-2.48910 -3.82501 0.88075 66 70 96
-2.49904 -3.82618 0.87742 78 74 91
-2.50563 -3.82535 0.86343 18 18 25
-2.51055 -3.80738 0.87188 39 35 41
-2.51710 -3.80656 0.85797 24 22 26
-2.58158 -3.79200 0.84605 36 39 30
-2.56792 -3.79441 0.83941 28 23 23
-2.57802 -3.79279 0.83579 22 21 23
-2.59150 -3.79396 0.84278 56 65 70
-2.60155 -3.79373 0.83929 66 67 75
-2.60811 -3.79291 0.82538 23 19 24
-2.61118 -3.80325 0.83675 37 30 42
-2.61776 -3.80243 0.82278 24 24 21
-2.62127 -3.80313 0.83325 25 30 52
-2.62785 -3.80231 0.81928 24 22 15
-2.66737 -3.59890 0.80042 23 25 25
-2.65453 -3.60117 0.79418 27 26 22
-2.66402 -3.59965 0.79077 26 27 25
-2.67690 -3.59569 0.79685 35 36 44
-2.68627 -3.60026 0.79400 55 57 60
-2.73389 -3.57396 0.77535 67 70 46
-2.72112 -3.57622 0.76915 70 73 65
-2.75281 -3.57704 0.76907 35 32 32
-2.76561 -3.57478 0.77529 30 31 25
-2.76227 -3.57553 0.76567 31 30 29
-2.75894 -3.57627 0.75605 30 29 34
-3.07750 -4.02154 0.69358 30 32 27
-3.07027 -4.02245 0.70891 34 30 24
-3.06242 -4.02420 0.68625 41 40 43
-3.08142 -4.02066 0.70490 29 31 20
-3.09257 -4.01888 0.70090 20 25 17
-3.08975 -4.03020 0.69006 17 21 20
-3.10094 -4.02841 0.68604 9 9 10
-3.09700 -4.02929 0.67468 9 8 10
-3.20721 -4.31729 0.67320 27 19 26
-3.22007 -4.32016 0.66898 47 46 45
-3.24583 -4.32531 0.66051 79 77 79
-3.25714 -4.31675 0.65589 46 52 59
-3.27378 -4.34438 0.65242 13 15 18
-3.28178 -4.34338 0.63544 12 15 12
-3.55060 -4.01259 0.52927 23 22 28
-3.53522 -4.01531 0.52179 18 19 18
-3.57167 -4.04912 0.52500 65 75 84
-3.58113 -4.03929 0.52092 92 111 119
-3.59426 -4.04376 0.51675 140 160 156
-3.60171 -4.04283 0.50093 158 166 158
-4.60442 -4.88441 0.23703 195 199 203
-4.59477 -4.88562 0.25751 198 205 194
-4.58952 -4.88679 0.24238 204 209 202
-4.60966 -4.88323 0.25216 203 210 204
-4.59917 -4.88558 0.22189 185 186 193
-4.61785 -4.87882 0.23192 201 207 208
-4.65363 -4.85273 0.21739 219 220 213
-4.63360 -4.85627 0.20766 215 217 211
-4.64841 -4.85390 0.20234 218 217 215
-4.65882 -4.83000 0.21372 206 207 200
-4.66953 -4.81917 0.20912 198 198 192
-4.68424 -4.81682 0.20384 197 199 191
-4.67906 -4.81798 0.18890 202 207 193
-5.54526 -4.62330 -0.10986 196 197 196
-5.53585 -4.62448 -0.08990 194 198 195
-5.53074 -4.62562 -0.10465 200 202 192
-5.55038 -4.62215 -0.09511 189 190 192
-5.55467 -4.62212 -0.12983 206 207 209
-5.56125 -4.62297 -0.11542 200 199 200
-5.58089 -4.61950 -0.10587 205 210 205
-5.57578 -4.62064 -0.12063 203 211 205
-5.57066 -4.62179 -0.13539 200 205 207
-1.35969 -5.67928 1.40652 53 43 51
-1.36995 -5.67799 1.38475 50 41 41
-1.37310 -5.68542 1.40236 63 63 49
-1.40836 -5.66735 1.38872 82 75 80
-1.42974 -5.66357 1.39911 93 88 86
-1.42417 -5.66482 1.38304 86 81 79
-1.41860 -5.66607 1.36698 69 61 60
-2.00354 -3.87922 1.04158 24 14 20
-1.99701 -3.88003 1.05545 18 13 17
-1.99346 -3.88083 1.04520 14 11 12
-1.98991 -3.88163 1.03496 11 10 11
-2.01419 -3.87522 1.03758 42 30 38
-2.03131 -3.88516 1.03243 27 12 38
-2.03787 -3.88434 1.01852 20 17 24
-2.12417 -3.86173 0.99842 18 9 18
-2.11763 -3.86255 1.01230 14 13 19
-2.11408 -3.86335 1.00204 16 13 16
-2.11053 -3.86414 0.99179 18 14 20
-2.12772 -3.86094 1.00867 14 9 20
-2.13468 -3.85801 0.99449 53 28 30
-2.14346 -3.86307 0.99185 61 34 32
-2.15343 -3.86214 0.98832 31 20 9
-2.16243 -3.86640 0.98554 48 37 27
-2.17141 -3.87096 0.98279 23 19 31
-2.18513 -3.86854 0.98945 16 13 12
-2.18155 -3.86934 0.97914 12 14 17
-2.17798 -3.87014 0.96884 11 16 22
-2.48500 -3.83201 0.87110 16 14 34
-2.47122 -3.83444 0.86441 27 19 17
-2.48141 -3.83281 0.86075 25 19 17
-2.49160 -3.83118 0.85710 26 21 26
-2.49541 -3.82760 0.86715 15 15 36
-2.50200 -3.82678 0.85316 24 23 24
-2.58828 -3.78813 0.83186 20 18 25
-2.57464 -3.79054 0.82523 25 21 24
-2.58473 -3.78892 0.82161 30 20 17
-2.59482 -3.78731 0.81799 29 21 14
-2.59804 -3.79346 0.82891 20 17 26
-2.60459 -3.79264 0.81500 30 22 17
-2.67287 -3.62353 0.78959 33 29 37
-2.65992 -3.62582 0.78329 28 25 22
-2.69203 -3.62086 0.78274 67 70 56
-2.70499 -3.61857 0.78904 71 70 57
-2.70161 -3.61933 0.77930 70 71 61
-2.69824 -3.62008 0.76957 70 70 63
-2.73052 -3.58382 0.76649 67 73 56
-2.71770 -3.58608 0.76026 72 71 71
-2.72718 -3.58457 0.75686 70 71 62
-2.74947 -3.57958 0.75959 37 33 37
-2.75561 -3.57881 0.74656 31 30 33
-3.02829 -4.02166 0.69788 17 19 26
-3.01717 -4.02344 0.70187 9 12 11
-3.01325 -4.02432 0.69057 8 10 10
-3.03220 -4.02079 0.70917 20 26 22
-3.02437 -4.02254 0.68658 13 15 24
-3.03941 -4.01988 0.69388 37 37 35
-3.07275 -4.01430 0.68190 31 31 30
-3.19359 -4.34331 0.66598 17 10 15
-3.18562 -4.34431 0.68289 8 7 4
-3.18129 -4.34528 0.67040 10 8 6
-3.17696 -4.34625 0.65790 12 9 7
-3.20592 -4.34154 0.66157 31 24 31
-3.21762 -4.33507 0.65701 51 59 54
-3.22893 -4.32596 0.65237 89 91 87
-3.24175 -4.32797 0.64809 95 88 84
-3.25697 -4.34653 0.64429 29 28 34
-3.26496 -4.34553 0.62731 9 11 10
-3.26971 -4.34724 0.63993 8 10 15
-3.27771 -4.34624 0.62294 14 15 11
-3.54342 -4.00067 0.51780 33 31 31
-3.57413 -4.02862 0.50936 75 90 107
-3.58155 -4.02769 0.49363 125 144 151
-3.59230 -4.05277 0.50497 131 151 157
-3.59977 -4.05183 0.48912 155 160 156
-4.60559 -4.86459 0.21802 197 198 196
-4.58554 -4.86814 0.20827 193 192 191
-4.62019 -4.86171 0.21273 210 215 204
-4.62980 -4.86051 0.19235 212 217 210
-4.64819 -4.81961 0.19972 214 216 211
-4.62831 -4.82313 0.19006 218 221 214
-4.64301 -4.82077 0.18478 223 226 219
-4.66122 -4.81376 0.19474 208 209 199
-5.01454 -4.70329 0.06365 207 207 209
-5.00003 -4.70561 0.06886 210 215 211
-5.03415 -4.69982 0.07318 203 205 207
-5.02904 -4.70097 0.05845 201 200 203
-5.51828 -4.61661 -0.11766 200 197 201
-5.50890 -4.61779 -0.09775 197 188 191
-5.49870 -4.62007 -0.12718 203 203 201
-5.51318 -4.61775 -0.13237 217 221 213
-5.52767 -4.61544 -0.13757 218 214 211
-5.53694 -4.62003 -0.12385 209 211 213
-5.54634 -4.61885 -0.14380 209 210 210
-1.34493 -5.55749 1.38440 94 80 72
-1.32410 -5.56117 1.37428 96 81 70
-1.33951 -5.55871 1.36875 99 86 83
-1.35951 -5.66155 1.38714 57 45 44
-1.99942 -3.88239 1.03171 24 11 17
-1.98577 -3.88481 1.02508 9 10 13
-2.00908 -3.88258 1.02837 47 27 39
-2.01833 -3.88460 1.02532 55 62 60
-2.02677 -3.89022 1.02281 31 15 32
-2.03333 -3.88939 1.00888 21 18 18
-2.08025 -3.86901 1.00266 26 20 9
-2.07371 -3.86983 1.01654 25 19 19
-2.07016 -3.87063 1.00629 27 19 10
-2.08380 -3.86822 1.01291 23 16 16
-2.09389 -3.86660 1.00929 23 13 23
-2.09034 -3.86740 0.99904 28 17 19
-2.12069 -3.86216 0.98812 31 23 34
-2.12977 -3.86560 0.98522 80 65 46
-2.13954 -3.86569 0.98184 96 75 77
-2.14962 -3.86426 0.97824 76 69 42
-2.15867 -3.86824 0.97540 88 86 60
-2.16633 -3.87980 0.97360 29 30 35
-2.17292 -3.87898 0.95961 14 12 19
-2.66912 -3.63858 0.78106 29 21 33
-2.65610 -3.64088 0.77473 28 21 16
-2.67886 -3.63245 0.77722 50 45 43
-2.73659 -3.60590 0.75520 58 56 52
-2.72367 -3.60818 0.74892 69 72 59
-3.03492 -4.01433 0.68230 30 31 33
-3.04993 -4.01168 0.68959 42 43 49
-3.04602 -4.01255 0.67832 38 36 44
-3.04211 -4.01343 0.66704 37 38 48
-3.05629 -4.00223 0.67398 34 31 37
-3.06767 -4.00358 0.67013 24 21 24
-3.07485 -4.00268 0.65490 12 10 8
-3.18955 -4.34661 0.65356 18 15 17
-3.17291 -4.34955 0.64547 12 10 8
-3.18522 -4.34758 0.64106 18 16 16
-3.20166 -4.34309 0.64909 29 28 32
-3.22525 -4.33164 0.64005 86 93 82
-3.23723 -4.32751 0.63559 86 76 71
-3.25384 -4.35608 0.63196 24 13 10
-3.26186 -4.35507 0.61495 8 14 9
-3.52602 -3.99483 0.51044 22 21 24
-3.51870 -3.99575 0.52597 12 19 15
-3.51472 -3.99664 0.51449 13 17 14
-3.55724 -4.02564 0.50191 63 75 80
-3.56914 -4.02572 0.49779 63 76 95
-3.57655 -4.02479 0.48208 120 137 144
-4.59508 -4.85411 0.20391 205 207 200
-4.60466 -4.85291 0.18358 216 224 221
-4.66016 -4.79041 0.17656 201 205 201
-4.67990 -4.78692 0.18615 199 204 203
-4.67476 -4.78807 0.17131 196 199 202
-4.66962 -4.78922 0.15648 194 193 196
-4.99534 -4.70749 0.05404 204 209 200
-4.98594 -4.70866 0.07398 202 207 202
-4.98084 -4.70981 0.05924 201 208 199
-4.97573 -4.71095 0.04451 201 205 195
-5.00474 -4.70631 0.03409 192 191 193
-5.00093 -4.68971 0.05076 196 194 194
-5.01255 -4.68253 0.04619 198 196 198
-5.03207 -4.67908 0.05567 200 203 203
-5.02190 -4.68135 0.02635 214 215 210
-5.04497 -4.65725 0.03305 198 196 200
-5.06439 -4.65382 0.04249 201 205 203
-5.05447 -4.64682 0.02897 194 198 199
-5.07385 -4.64340 0.03839 203 204 205
-5.06881 -4.64453 0.02383 201 205 206
-5.22115 -4.63559 -0.02970 202 211 211
-5.20676 -4.63790 -0.02454 191 192 195
-5.20169 -4.63903 -0.03916 196 189 189
-5.22621 -4.63446 -0.01509 211 219 211
-5.23553 -4.63329 -0.03487 209 215 212
-5.23047 -4.63442 -0.04948 206 209 209
-1.36075 -5.58700 1.36338 90 79 67
-1.37080 -5.58574 1.34205 94 81 62
-1.36524 -5.62320 1.36439 85 73 56
-1.36851 -5.66457 1.36619 80 65 56
-1.99437 -3.88939 1.02242 20 12 20
-1.98069 -3.89180 1.01578 9 10 15
-2.00276 -3.89498 1.01990 53 35 44
-2.06607 -3.87389 0.99640 36 22 24
-2.05952 -3.87471 1.01028 23 20 10
-2.05597 -3.87550 1.00002 29 21 13
-2.05241 -3.87630 0.98976 35 24 20
-2.07261 -3.87306 0.98251 41 43 82
-2.08782 -3.86333 0.98808 34 26 32
-2.10145 -3.86092 0.99470 30 17 19
-2.09790 -3.86172 0.98447 28 20 15
-2.10642 -3.86759 0.98192 22 19 22
-2.10287 -3.86839 0.97166 34 25 18
-2.11297 -3.86677 0.96804 37 29 34
-2.11772 -3.86009 0.97746 39 37 46
-2.13617 -3.86554 0.97144 66 57 72
-2.14609 -3.86487 0.96794 84 85 72
-2.16278 -3.88043 0.96324 25 21 25
-2.16937 -3.87961 0.94926 15 12 14
-2.67503 -3.65124 0.76889 48 42 42
-2.68478 -3.64645 0.76516 65 64 54
-2.69444 -3.64490 0.76169 68 70 64
-2.69104 -3.64566 0.75187 64 70 65
-2.73317 -3.62158 0.74657 60 60 51
-2.72018 -3.62387 0.74026 69 72 57
-2.72978 -3.62233 0.73681 61 63 50
-2.73939 -3.62079 0.73336 46 42 42
-2.74278 -3.61345 0.74265 44 39 41
-2.74899 -3.61267 0.72947 35 28 31
-3.01876 -4.00346 0.67445 11 14 18
-3.00771 -4.00523 0.67842 7 10 9
-3.00382 -4.00610 0.66719 6 9 9
-3.01487 -4.00433 0.66322 10 12 17
-3.02984 -4.00193 0.67049 21 22 33
-3.03700 -4.00104 0.65529 37 45 53
-3.05196 -3.99861 0.66256 32 26 37
-3.06340 -4.00068 0.65874 18 12 17
-3.07057 -3.99978 0.64352 10 12 8
-3.19810 -4.35015 0.63676 27 27 29
-3.18144 -4.35309 0.62866 16 16 18
-3.21058 -4.34937 0.63237 41 43 45
-3.22106 -4.33361 0.62760 59 73 53
-3.23512 -4.34455 0.62350 47 42 46
-3.24310 -4.34354 0.60655 11 10 12
-3.24946 -4.35687 0.61939 15 8 7
-3.25747 -4.35586 0.60237 7 13 10
-3.50607 -3.97791 0.50324 10 12 16
-3.49879 -3.97882 0.51868 14 16 6
-3.49484 -3.97970 0.50727 15 15 7
-3.49089 -3.98059 0.49586 14 13 8
-3.54782 -4.00486 0.49065 61 70 68
-3.55517 -4.00393 0.47505 49 58 65
-3.56148 -4.01221 0.48642 53 68 79
-3.56885 -4.01129 0.47078 118 133 136
-4.63821 -4.78925 0.16739 214 218 210
-4.61849 -4.79273 0.15781 211 218 214
-4.63307 -4.79040 0.15257 214 218 211
-4.65125 -4.78365 0.16247 197 195 195
-4.66069 -4.78247 0.14242 198 200 196
-5.00201 -4.67425 0.03276 206 206 203
-4.98255 -4.67769 0.02330 188 189 201
-4.99695 -4.67539 0.01813 204 210 204
-5.02082 -4.65265 0.02469 203 201 199
-5.03011 -4.65148 0.00498 186 194 185
-5.04515 -4.64077 0.01538 187 193 192
-1.37166 -5.63503 1.34506 100 86 71
-1.35046 -5.63878 1.33476 92 86 60
-1.36614 -5.63627 1.32913 92 88 70
-1.38182 -5.63376 1.32350 92 83 80
-1.38490 -5.64126 1.34087 101 85 84
-1.39508 -5.63999 1.31927 92 84 77
-1.95869 -3.90211 1.02413 31 25 29
-1.95212 -3.90293 1.03807 32 30 39
-1.94856 -3.90373 1.02777 46 41 40
-1.94499 -3.90453 1.01748 81 75 65
-1.97239 -3.89969 1.03079 17 15 16
-1.96916 -3.89915 1.02029 20 17 20
-1.97572 -3.89833 1.00636 12 11 18
-1.99580 -3.90995 1.01174 55 46 44
-2.00593 -3.90851 1.00811 42 42 48
-2.06252 -3.87466 0.98613 43 30 42
-2.04886 -3.87707 0.97950 34 27 19
-2.05896 -3.87545 0.97588 39 31 22
-2.08446 -3.86328 0.97773 41 38 55
-2.08091 -3.86408 0.96750 43 32 29
-2.09098 -3.86247 0.96388 36 30 9
-2.09395 -3.86442 0.97450 35 27 9
-2.10048 -3.86360 0.96064 36 27 17
-2.12196 -3.87063 0.96516 32 17 32
-2.10828 -3.87305 0.95852 43 28 31
-2.12852 -3.86981 0.95125 42 23 14
-2.13036 -3.87767 0.96271 37 18 28
-2.13693 -3.87684 0.94876 34 21 22
-2.14888 -3.88364 0.95666 43 40 38
-2.15547 -3.88281 0.94267 20 18 17
-2.15748 -3.89036 0.95412 20 15 24
-2.16409 -3.88953 0.94009 16 16 10
-2.66133 -3.67513 0.76420 32 17 18
-2.64815 -3.67746 0.75780 40 32 23
-2.65790 -3.67590 0.75430 42 35 29
-2.67132 -3.66380 0.75996 46 37 35
-2.68120 -3.65482 0.75591 60 60 54
-2.68748 -3.65403 0.74259 65 68 66
-3.02530 -3.99542 0.65899 20 20 36
-3.01039 -3.99805 0.65174 12 11 14
-3.04756 -3.99408 0.65115 35 33 42
-3.05897 -3.99605 0.64731 20 14 19
-3.19402 -4.35314 0.62429 24 25 25
-3.17735 -4.35608 0.61619 15 16 19
-3.18968 -4.35411 0.61176 21 22 20
-3.20201 -4.35213 0.60734 21 22 24
-3.20638 -4.35142 0.61987 29 32 34
-3.21437 -4.35042 0.60291 24 24 32
-3.21870 -4.34934 0.61544 30 42 36
-3.22669 -4.34834 0.59848 23 21 24
-3.23220 -4.35598 0.61118 22 19 31
-3.24021 -4.35497 0.59419 13 12 12
-3.49742 -3.95896 0.49213 12 15 23
-3.51334 -3.97695 0.48780 57 65 47
-3.54263 -4.00096 0.47921 59 61 54
-4.76638 -4.77333 0.10501 198 201 199
-4.75692 -4.77452 0.12508 216 217 205
-4.75178 -4.77567 0.11025 204 209 201
-4.77152 -4.77218 0.11984 208 209 206
-4.76124 -4.77448 0.09017 186 192 191
-4.78098 -4.77099 0.09976 196 199 194
-5.00054 -4.65452 0.01548 204 210 199
-4.98116 -4.65794 0.00607 195 204 201
-5.00982 -4.65336 -0.00422 181 189 175
-5.00858 -4.64150 0.01180 191 197 188
-5.05056 -4.63317 -0.00338 202 208 205
-5.05982 -4.63201 -0.02302 210 215 210
-1.95512 -3.90293 1.01384 48 40 40
-1.96342 -3.90862 1.01130 26 17 23
-1.97001 -3.90780 0.99734 19 13 16
-1.98113 -3.91611 1.00560 16 16 18
-1.98795 -3.92849 1.00401 54 46 34
-1.99458 -3.92765 0.98993 36 30 30
-1.99987 -3.91975 0.99929 41 36 36
-2.11874 -3.86976 0.95466 50 28 24
-2.14413 -3.89048 0.94712 25 14 25
-2.15074 -3.88965 0.93310 22 18 11
-2.39903 -3.94101 0.86140 28 23 31
-2.39222 -3.94186 0.87584 22 17 14
-2.38853 -3.94269 0.86517 21 18 15
-2.40273 -3.94018 0.87207 27 20 20
-2.41323 -3.93850 0.86830 28 21 28
-2.40584 -3.94016 0.84696 40 44 58
-2.52051 -3.84157 0.81272 37 32 28
-2.51388 -3.84240 0.82679 22 19 17
-2.50668 -3.84401 0.80599 48 52 46
-2.52412 -3.84076 0.82311 25 18 16
-2.51691 -3.84237 0.80232 48 54 41
-2.53435 -3.83912 0.81944 27 21 13
-2.53063 -3.84156 0.80919 37 32 32
-2.54448 -3.83911 0.81591 27 21 14
-2.54089 -3.83958 0.80548 36 29 35
-2.55474 -3.83714 0.81221 26 17 9
-2.55184 -3.82675 0.80085 36 27 24
-2.56564 -3.82431 0.80755 22 17 9
-2.56267 -3.81463 0.79630 33 30 23
-2.57642 -3.81220 0.80298 26 15 10
-2.57231 -3.82229 0.79343 38 28 27
-2.58610 -3.81985 0.80013 28 16 12
-2.58204 -3.82938 0.79048 43 33 29
-2.59587 -3.82693 0.79720 24 17 8
-2.66777 -3.66963 0.75045 51 46 41
-2.66434 -3.67040 0.74057 80 77 72
-2.67407 -3.66884 0.73707 73 67 70
-2.67756 -3.66574 0.74679 62 62 58
-2.68386 -3.66495 0.73342 69 67 70
-3.02119 -3.99363 0.64770 18 16 30
-3.00629 -3.99626 0.64046 14 13 12
-3.03246 -3.99466 0.64383 30 39 44
-3.03960 -3.99376 0.62867 40 41 44
-3.04292 -3.98679 0.63968 36 38 44
-3.05425 -3.98832 0.63583 27 22 27
-3.06539 -3.98782 0.63191 14 14 13
-3.08030 -3.98519 0.63915 7 12 5
-3.07642 -3.98606 0.62795 9 12 7
-3.07253 -3.98693 0.61675 14 14 11
-3.48012 -3.95211 0.48497 27 20 16
-3.47291 -3.95301 0.50027 12 13 6
-3.46900 -3.95389 0.48896 11 12 10
-3.48886 -3.94018 0.48116 39 42 47
-3.52542 -3.99582 0.47194 62 85 84
-3.53274 -3.99491 0.45640 36 42 34
-3.54963 -3.99867 0.46367 54 59 58
-3.56095 -3.99686 0.45961 120 136 131
-3.55697 -3.99775 0.44810 129 144 133
-4.77017 -4.76099 0.08620 193 198 195
-4.75048 -4.76447 0.07663 190 195 189
-4.78986 -4.75751 0.09577 201 203 194
-4.77960 -4.75981 0.06618 210 213 205
-4.89288 -4.69592 0.03927 201 201 198
-4.91237 -4.69247 0.04873 203 199 190
-4.90729 -4.69361 0.03409 198 199 198
-4.90222 -4.69475 0.01946 196 203 196
-4.93453 -4.68617 0.02412 205 212 206
-4.92013 -4.68847 0.02929 209 215 209
-4.91506 -4.68961 0.01466 210 214 206
-4.93960 -4.68503 0.03875 202 208 203
-4.95400 -4.68273 0.03358 200 202 196
-4.94386 -4.68500 0.00433 191 190 183
-5.01137 -4.62937 -0.00628 191 201 190
-5.00636 -4.63050 -0.02076 205 213 202
-5.02061 -4.62822 -0.02587 202 202 192
-1.94001 -3.91080 1.00800 88 81 73
-1.93343 -3.91163 1.02196 88 83 65
-1.92986 -3.91243 1.01164 92 80 60
-1.92628 -3.91323 1.00133 95 82 72
-1.93644 -3.91160 0.99768 95 87 79
-1.94997 -3.90995 1.00447 70 60 54
-1.95790 -3.91720 1.00213 34 18 20
-1.96449 -3.91637 0.98813 24 17 20
-1.97409 -3.93097 0.99729 20 16 16
-1.98073 -3.93014 0.98321 42 40 30
-2.10503 -3.87235 0.94804 46 30 33
-2.09492 -3.87397 0.95167 34 28 18
-2.11158 -3.87152 0.93414 66 57 50
-2.11520 -3.87043 0.94437 62 44 37
-2.12327 -3.87900 0.94206 48 27 18
-2.12984 -3.87817 0.92812 49 43 29
-2.13190 -3.88506 0.93941 41 30 17
-2.14087 -3.88960 0.93654 32 22 16
-2.14747 -3.88877 0.92253 23 18 17
-2.26972 -3.89207 0.89166 27 23 19
-2.26307 -3.89290 0.90578 21 24 25
-2.25945 -3.89371 0.89535 26 25 26
-2.27333 -3.89125 0.90209 19 20 17
-2.28360 -3.88961 0.89841 20 17 10
-2.28013 -3.88946 0.88787 29 21 15
-2.29401 -3.88701 0.89461 18 16 12
-2.29039 -3.88782 0.88418 25 19 8
-2.38471 -3.94458 0.85460 19 17 19
-2.37790 -3.94543 0.86905 13 11 7
-2.37420 -3.94626 0.85837 9 7 6
-2.37050 -3.94709 0.84770 6 5 5
-2.39577 -3.93790 0.85034 30 29 38
-2.52720 -3.83998 0.79858 51 52 44
-2.53726 -3.84081 0.79512 55 50 51
-2.54390 -3.83998 0.78104 76 69 54
-2.54860 -3.82222 0.79005 57 52 53
-2.55519 -3.82140 0.77605 63 61 57
-2.55836 -3.82749 0.78695 57 58 56
-2.56786 -3.83803 0.78426 60 59 64
-2.57833 -3.83229 0.78026 63 68 68
-2.58887 -3.82465 0.77612 63 66 57
-2.62167 -3.76744 0.76126 69 76 62
-2.63214 -3.75428 0.75681 72 78 67
-2.63862 -3.75347 0.74307 94 91 94
-2.64289 -3.73102 0.75167 77 82 72
-2.65380 -3.69799 0.74589 79 83 76
-3.01670 -3.98725 0.63628 16 13 22
-3.00183 -3.98988 0.62906 13 14 15
-3.01282 -3.98812 0.62512 13 15 17
-3.02782 -3.98696 0.63238 24 29 36
-3.04970 -3.98215 0.62445 38 31 34
-3.04582 -3.98301 0.61328 43 38 38
-3.06055 -3.97898 0.62047 23 19 19
-3.44535 -3.91802 0.48237 13 14 12
-3.43823 -3.91891 0.49748 10 15 8
-3.43436 -3.91978 0.48631 10 14 6
-3.44922 -3.91715 0.49353 9 15 7
-3.45980 -3.93150 0.47812 18 20 24
-3.47692 -3.95610 0.47360 49 49 46
-3.48841 -3.95582 0.46957 73 79 82
-3.50231 -3.96561 0.46529 57 64 63
-3.51843 -3.98428 0.46077 46 62 56
-4.24590 -4.86000 0.25865 212 221 211
-4.25105 -4.85885 0.27349 205 208 200
-4.26566 -4.85651 0.26825 213 217 201
-4.26051 -4.85766 0.25340 228 236 218
-4.87213 -4.69702 0.03011 204 207 199
-5.23336 -4.59251 -0.10235 201 205 205
-5.22413 -4.59367 -0.08276 200 204 206
-5.21912 -4.59479 -0.09723 203 205 205
-5.23837 -4.59139 -0.08788 208 213 210
-5.25262 -4.58911 -0.09299 213 216 210
-5.24760 -4.59023 -0.10746 204 207 209
-1.94405 -3.91994 0.99548 83 72 67
-1.93028 -3.92238 0.98879 94 87 70
-1.96891 -3.93819 0.98779 22 18 19
-1.96530 -3.93900 0.97737 25 19 21
-1.97556 -3.93735 0.97368 43 38 33
-2.09769 -3.89130 0.94010 49 31 40
-2.08394 -3.89373 0.93342 41 38 44
-2.09411 -3.89210 0.92977 51 33 39
-2.11701 -3.89313 0.93344 52 37 35
-2.11342 -3.89393 0.92309 42 35 32
-2.13548 -3.89962 0.92733 39 36 18
-2.13188 -3.90042 0.91695 39 27 24
-2.14210 -3.89879 0.91328 22 13 19
-2.25505 -3.89951 0.88547 35 35 32
-2.24839 -3.90035 0.89961 26 26 31
-2.24477 -3.90116 0.88916 35 32 33
-2.25143 -3.90032 0.87502 41 45 48
-2.26171 -3.89868 0.87133 46 44 43
-2.26558 -3.89626 0.88160 39 36 29
-2.27620 -3.89237 0.87767 46 35 31
-2.28635 -3.89156 0.87407 34 25 11
-2.30024 -3.88911 0.88082 20 18 13
-2.29662 -3.88992 0.87038 23 19 10
-2.29300 -3.89073 0.85994 22 17 11
-2.38041 -3.95060 0.84443 15 12 13
-2.36618 -3.95312 0.83751 7 5 4
-2.37670 -3.95144 0.83373 13 9 10
-2.39128 -3.94584 0.84036 26 22 23
-2.40224 -3.94004 0.83620 39 36 44
-2.41644 -3.93753 0.84309 47 46 35
-2.41274 -3.93836 0.83243 50 49 35
-2.50287 -3.84736 0.79581 45 44 41
-2.49624 -3.84819 0.80989 45 45 58
-2.48903 -3.84981 0.78908 32 26 32
-2.49927 -3.84817 0.78540 34 27 27
-2.51277 -3.85024 0.79250 43 45 40
-2.52379 -3.83817 0.78798 63 69 43
-2.53402 -3.83633 0.78429 72 74 41
-2.56402 -3.84279 0.77415 55 53 62
-2.55014 -3.84524 0.76741 49 51 42
-2.57066 -3.84195 0.76004 25 25 45
-2.57476 -3.83248 0.76982 54 55 66
-2.58139 -3.83165 0.75575 22 23 41
-2.59494 -3.83497 0.76289 62 54 65
-2.60158 -3.83414 0.74880 20 23 40
-2.62862 -3.75507 0.74665 75 76 80
-2.63510 -3.75426 0.73291 46 61 66
-2.65991 -3.70588 0.73297 86 70 89
-2.73874 -3.67156 0.70346 37 34 32
-2.73241 -3.67235 0.71690 51 49 47
-2.72897 -3.67312 0.70697 53 56 51
-2.75196 -3.66922 0.70988 28 29 23
-2.74852 -3.66999 0.69995 28 30 20
-2.74508 -3.67077 0.69002 34 33 23
-3.02329 -3.98030 0.62102 18 22 25
-3.00846 -3.98293 0.61381 12 15 10
-3.03390 -3.97445 0.61698 36 36 37
-3.04100 -3.97356 0.60191 37 37 43
-3.05571 -3.96982 0.60909 31 28 29
-3.05185 -3.97068 0.59795 36 31 38
-3.06280 -3.96893 0.59402 29 24 30
-3.06651 -3.96653 0.60512 21 19 20
-3.08131 -3.96391 0.61231 12 11 9
-3.07722 -3.96255 0.60115 21 18 15
-3.09202 -3.95994 0.60834 11 11 9
-3.08868 -3.96553 0.59730 19 18 10
-3.10350 -3.96292 0.60450 8 11 7
-3.09964 -3.96378 0.59337 13 14 6
-3.09578 -3.96464 0.58224 24 21 15
-3.42764 -3.90759 0.47542 15 14 13
-3.42054 -3.90848 0.49047 10 14 6
-3.41669 -3.90935 0.47935 11 13 6
-3.43473 -3.90670 0.46037 55 64 75
-3.43917 -3.90849 0.47143 29 26 33
-3.44627 -3.90760 0.45637 77 85 79
-3.45327 -3.92068 0.46717 43 53 53
-3.46040 -3.91979 0.45204 72 78 88
-3.47911 -3.93360 0.45884 84 97 93
-3.52443 -3.97804 0.44545 28 48 49
-3.55638 -4.05994 0.43882 93 106 106
-3.56385 -4.05900 0.42297 137 150 146
-4.22193 -4.85188 0.24988 189 193 200
-4.24051 -4.86049 0.24385 213 225 212
-4.24998 -4.85930 0.22376 203 204 205
-4.26040 -4.87239 0.23755 215 223 219
-4.28022 -4.86889 0.24718 224 223 219
-4.27506 -4.87005 0.23229 213 215 214
-4.26990 -4.87120 0.21739 209 213 209
-4.87761 -4.68879 0.01126 182 190 185
-1.93814 -3.92981 0.98642 92 77 60
-1.92433 -3.93225 0.97971 100 88 79
-1.94711 -3.93309 0.98344 50 39 36
-1.95650 -3.93482 0.98024 29 17 23
-1.96313 -3.93399 0.96616 34 17 22
-2.12028 -3.90900 0.92147 39 33 30
-2.11667 -3.90981 0.91106 30 18 26
-2.12691 -3.90817 0.90738 43 26 30
-2.24040 -3.90657 0.87921 41 40 43
-2.23373 -3.90741 0.89337 33 30 27
-2.23010 -3.90822 0.88291 37 34 35
-2.26946 -3.91375 0.86939 54 44 41
-2.27616 -3.91291 0.85518 24 14 18
-2.28033 -3.90851 0.86531 36 24 18
-2.28702 -3.90767 0.85111 18 16 14
-2.38698 -3.95195 0.83016 23 17 17
-2.37274 -3.95447 0.82324 12 6 7
-2.39380 -3.95110 0.81567 30 21 26
-2.39758 -3.94963 0.82632 34 22 36
-2.40963 -3.93369 0.82127 45 51 45
-2.42380 -3.93118 0.82815 58 50 26
-2.41937 -3.93925 0.81814 55 50 35
-2.43357 -3.93674 0.82504 55 52 44
-2.43119 -3.92441 0.81323 47 52 53
-2.44533 -3.92191 0.82010 47 46 40
-2.43797 -3.92356 0.79884 30 25 30
-2.44106 -3.92885 0.80999 38 39 34
-2.44785 -3.92800 0.79558 36 24 26
-2.50862 -3.85809 0.78264 30 25 34
-2.49472 -3.86055 0.77588 31 29 31
-2.50500 -3.85890 0.77219 30 29 30
-2.51528 -3.85725 0.76850 42 32 29
-2.52019 -3.83897 0.77759 59 75 55
-2.53075 -3.83249 0.77355 69 85 44
-2.66631 -3.70418 0.71937 45 48 61
-2.65300 -3.70653 0.71290 44 30 43
-2.67962 -3.70183 0.72584 68 64 71
-2.67616 -3.70260 0.71584 63 63 62
-2.73530 -3.67196 0.69351 44 37 38
-3.01875 -3.97323 0.60970 15 18 13
-3.00395 -3.97585 0.60250 10 15 11
-3.01489 -3.97410 0.59857 12 16 12
-3.02925 -3.96651 0.60566 26 29 30
-3.07244 -3.95443 0.58989 31 31 24
-3.05769 -3.95704 0.58272 31 29 36
-3.08406 -3.95932 0.58607 32 33 17
-3.09115 -3.95843 0.57103 30 32 27
-3.41035 -3.89855 0.46849 19 14 17
-3.40328 -3.89944 0.48349 11 11 5
-3.39944 -3.90030 0.47241 13 11 8
-3.41742 -3.89767 0.45350 57 62 69
-3.42406 -3.90971 0.46427 33 29 41
-3.43115 -3.90882 0.44921 67 87 80
-3.47410 -3.92963 0.44775 76 82 78
-3.45916 -3.93227 0.44049 57 50 70
-3.48125 -3.92874 0.43256 45 42 48
-3.52321 -3.99020 0.43366 30 50 57
-3.56082 -4.09539 0.42591 103 122 119
-3.56837 -4.09444 0.40989 134 148 139
-4.23567 -4.86247 0.22894 206 214 203
-4.21591 -4.86596 0.21934 186 197 193
-4.23053 -4.86362 0.21410 196 204 198
-4.24514 -4.86128 0.20885 201 205 200
-4.69395 -4.73663 0.06171 209 208 206
-4.68460 -4.73780 0.08156 194 199 202
-4.67443 -4.74008 0.05223 210 217 209
-4.69903 -4.73549 0.07638 202 206 205
-4.68887 -4.73777 0.04704 222 227 217
-4.70839 -4.73432 0.05653 209 212 206
-4.84263 -4.69235 0.00728 199 196 189
-4.82827 -4.69465 0.01243 201 200 194
-4.82321 -4.69579 -0.00216 205 206 206
-4.85797 -4.69184 0.00187 192 188 180
-4.88615 -4.68621 -0.00830 182 189 193
-4.90558 -4.68278 0.00114 212 216 206
-4.90052 -4.68391 -0.01346 207 214 208
-4.89546 -4.68504 -0.02806 207 214 210
-1.93292 -3.93690 0.97691 102 82 70
-1.91909 -3.93935 0.97019 98 89 86
-1.92932 -3.93771 0.96651 100 78 78
-1.94240 -3.93827 0.97365 71 66 55
-1.95094 -3.94342 0.97090 38 21 22
-1.95759 -3.94258 0.95678 35 17 20
-1.97340 -3.97297 0.96442 30 28 45
-1.96302 -3.97463 0.96814 50 35 36
-1.95937 -3.97545 0.95760 54 31 23
-1.98378 -3.97131 0.96069 22 11 29
-2.10728 -3.90726 0.91424 28 19 31
-2.11391 -3.90643 0.90017 31 18 19
-2.14035 -3.94172 0.90427 41 27 31
-2.12999 -3.94338 0.90799 29 15 32
-2.12634 -3.94420 0.89746 46 24 38
-2.14400 -3.94090 0.91480 22 13 13
-2.15436 -3.93924 0.91108 24 14 17
-2.15087 -3.93924 0.90045 39 31 28
-2.16488 -3.93677 0.90726 23 16 15
-2.16123 -3.93759 0.89674 31 19 17
-2.22848 -3.89695 0.87116 35 27 32
-2.22183 -3.89779 0.88527 32 27 25
-2.21822 -3.89860 0.87485 32 24 24
-2.21461 -3.89941 0.86442 33 24 24
-2.23686 -3.90688 0.86869 56 52 42
-2.24353 -3.90604 0.85454 70 68 35
-2.24656 -3.90897 0.86539 55 52 47
-2.26650 -3.91013 0.85844 39 28 25
-2.27319 -3.90929 0.84424 22 20 15
-2.38263 -3.95843 0.81995 24 16 14
-2.36836 -3.96095 0.81302 8 5 4
-2.38946 -3.95758 0.80545 32 24 18
-2.41531 -3.94352 0.80776 37 23 27
-2.42212 -3.94267 0.79330 33 26 22
-2.42644 -3.93575 0.80347 33 24 37
-2.43324 -3.93489 0.78904 30 26 22
-2.73185 -3.67540 0.68371 50 43 38
-2.74163 -3.67849 0.68042 40 35 28
-2.75487 -3.67615 0.68686 30 31 18
-2.75142 -3.67692 0.67690 34 33 23
-2.74797 -3.67769 0.66695 36 37 30
-3.02465 -3.95886 0.59442 17 21 23
-3.00992 -3.96147 0.58725 10 15 13
-3.02082 -3.95972 0.58334 13 17 17
-3.03535 -3.95484 0.59047 29 28 34
-3.04624 -3.95310 0.58656 34 28 36
-3.06711 -3.94070 0.57863 34 39 39
-3.05243 -3.94329 0.57149 28 34 36
-3.06329 -3.94155 0.56759 33 43 49
-3.07415 -3.93981 0.56369 39 46 47
-3.07848 -3.94376 0.57478 37 43 35
-3.08553 -3.94288 0.55982 34 36 32
-3.39314 -3.88933 0.46163 20 14 18
-3.38610 -3.89022 0.47657 17 11 7
-3.38227 -3.89107 0.46553 18 9 12
-3.40018 -3.88845 0.44669 65 76 66
-3.51996 -3.99409 0.42209 37 48 61
-3.50470 -3.99679 0.41468 45 46 54
-4.70226 -4.73335 0.04213 217 218 212
-4.72177 -4.72990 0.05161 200 205 204
-4.71669 -4.73104 0.03695 194 196 205
-4.71161 -4.73217 0.02229 198 198 201
-4.83619 -4.69090 -0.00696 208 207 199
-4.81678 -4.69433 -0.01639 203 203 202
-4.83114 -4.69204 -0.02154 212 213 205
-4.84550 -4.68974 -0.02670 213 213 201
-4.86333 -4.68339 -0.01685 191 187 182
-4.87262 -4.68223 -0.03658 214 219 209
-1.93787 -3.94269 0.96372 91 77 70
-1.92400 -3.94514 0.95699 102 90 76
-1.94419 -3.95663 0.96211 47 38 27
-1.97633 -3.98797 0.95218 12 9 21
-1.99043 -3.98548 0.95904 34 16 26
-1.98676 -3.98630 0.94844 19 13 20
-1.98308 -3.98713 0.93784 17 16 9
-2.08140 -3.91995 0.91221 43 29 49
-2.07475 -3.92079 0.92631 38 36 45
-2.07114 -3.92160 0.91589 30 28 37
-2.06753 -3.92240 0.90547 34 28 35
-2.08805 -3.91912 0.89811 58 47 37
-2.09531 -3.90078 0.90647 53 50 49
-2.10292 -3.91175 0.90427 30 19 27
-2.10956 -3.91092 0.89019 30 20 24
-2.13530 -3.94983 0.89455 57 49 51
-2.14547 -3.94930 0.89095 49 56 52
-2.15221 -3.94846 0.87666 35 21 20
-2.22512 -3.89626 0.86059 36 31 22
-2.21125 -3.89871 0.85385 33 27 24
-2.22151 -3.89707 0.85017 30 25 28
-2.23202 -3.91510 0.85899 69 73 29
-2.25266 -3.91183 0.85158 55 47 17
-2.24903 -3.91264 0.84109 33 25 25
-2.25935 -3.91099 0.83739 29 26 22
-2.26220 -3.91526 0.84837 37 26 20
-2.26890 -3.91442 0.83416 20 26 16
-2.71853 -3.68784 0.67776 63 65 55
-2.70526 -3.69018 0.67131 71 72 64
-2.73817 -3.68188 0.67058 39 38 38
-2.74452 -3.68108 0.65710 39 40 31
-3.03133 -3.95366 0.57938 20 20 22
-3.01661 -3.95626 0.57222 15 16 14
-3.02749 -3.95452 0.56832 18 18 14
-3.04202 -3.94991 0.57545 26 27 26
-3.34195 -3.87690 0.46668 15 13 11
-3.33496 -3.87778 0.48152 9 10 7
-3.33116 -3.87863 0.47055 11 10 9
-3.34575 -3.87605 0.47764 12 12 9
-3.35654 -3.87432 0.47377 14 11 14
-3.35376 -3.88034 0.46267 17 15 19
-3.36838 -3.87776 0.46977 16 11 16
-3.36509 -3.88118 0.45872 18 15 23
-3.37723 -3.88596 0.45466 24 17 23
-3.38738 -3.88089 0.45086 42 37 37
-3.39440 -3.88001 0.43597 67 74 59
-3.51949 -4.00960 0.41003 47 61 76
-3.55136 -4.09208 0.40245 116 140 132
-5.30573 -4.43504 -0.19989 191 189 195
-5.29683 -4.43616 -0.18099 202 208 206
-5.28715 -4.43833 -0.20892 209 219 213
-5.31057 -4.43396 -0.18592 205 208 214
-5.30089 -4.43613 -0.21385 194 196 187
-5.32432 -4.43176 -0.19086 208 206 204
-1.93359 -3.94608 0.95364 93 81 71
-1.91971 -3.94853 0.94690 99 85 72
-1.93747 -3.96967 0.95322 65 58 41
-1.94516 -3.97863 0.95087 39 21 23
