ply
format ascii 1.0
element face 0
property list uchar int vertex_indices
element vertex 1283
property float x
property float y
property float z
property uchar diffuse_red
property uchar diffuse_green
property uchar diffuse_blue
end_header
-3.01235 -3.32929 1.48400 192 171 194
-3.75251 -4.93995 1.89833 82 71 27
-3.76725 -4.93561 1.89243 64 45 28
-2.11083 -3.62700 1.84598 188 153 143
-2.10443 -3.62777 1.85930 183 156 134
-2.10110 -3.62867 1.84940 186 154 133
-2.12696 -3.64052 1.84656 216 205 206
-2.13818 -3.63141 1.83984 221 218 227
-2.15340 -3.65104 1.84303 206 212 225
-2.16398 -3.64529 1.83779 184 189 207
-2.17043 -3.64451 1.82434 131 113 151
-2.17565 -3.63329 1.82983 147 132 176
-2.18298 -3.64546 1.83242 82 88 146
-2.19123 -3.65290 1.83292 52 48 152
-2.20005 -3.65730 1.83208 75 70 184
-2.21221 -3.64194 1.82269 135 116 193
-2.21852 -3.66170 1.82849 193 181 209
-2.22504 -3.66092 1.81491 223 220 232
-2.22947 -3.65355 1.82222 220 216 231
-2.23597 -3.65277 1.80868 222 220 233
-2.99676 -3.30251 1.46752 246 243 238
-2.98449 -3.30493 1.46145 253 254 254
-3.01006 -3.33787 1.47731 177 160 168
-3.74683 -4.93936 1.88227 81 65 24
-3.76075 -4.93174 1.87535 62 41 23
-3.77070 -4.93055 1.85461 45 25 13
-2.09994 -3.61908 1.83489 191 156 135
-2.09357 -3.61985 1.84817 184 157 132
-2.09025 -3.62075 1.83831 187 156 134
-2.11578 -3.63342 1.83580 219 211 212
-2.13469 -3.63308 1.83025 218 214 228
-2.14245 -3.64186 1.83136 199 203 221
-2.14989 -3.65271 1.83336 170 171 198
-2.16119 -3.64310 1.82645 135 133 171
-2.18123 -3.63729 1.81849 145 130 155
-2.18988 -3.64220 1.81788 141 116 162
-2.19472 -3.66951 1.82689 177 160 200
-2.20124 -3.66873 1.81330 226 224 233
-2.20553 -3.66251 1.82112 211 208 222
-2.21204 -3.66173 1.80755 224 221 230
-2.21516 -3.66243 1.81832 223 224 228
-2.22167 -3.66164 1.80475 223 218 230
-2.99274 -3.29518 1.45536 242 236 238
-2.98051 -3.29760 1.44931 251 251 254
-3.00685 -3.33844 1.46778 164 137 164
-3.01977 -3.36859 1.47555 143 116 98
-3.02593 -3.36785 1.46271 148 127 102
-3.74034 -4.93542 1.86518 79 64 25
-3.75553 -4.93303 1.85991 59 41 16
-3.76548 -4.93183 1.83917 37 26 14
-3.66253 -3.95532 1.51443 23 23 15
-3.65480 -3.95625 1.53053 40 27 11
-3.65077 -3.95734 1.51857 38 26 15
-3.66655 -3.95423 1.52639 35 28 11
-3.67830 -3.95221 1.52224 38 28 27
-3.67428 -3.95330 1.51029 75 71 49
-3.71364 -4.00185 1.51747 180 187 187
-3.70579 -4.00279 1.53383 112 121 109
-3.70170 -4.00391 1.52168 148 156 147
-3.72558 -3.99980 1.51326 172 174 161
-2.08662 -3.57954 1.81267 188 158 138
-2.08034 -3.58029 1.82575 185 157 133
-2.07707 -3.58118 1.81603 187 160 136
-2.08989 -3.57865 1.82238 185 157 134
-2.09289 -3.57878 1.79959 209 195 190
-2.09153 -3.59987 1.81892 196 165 141
-2.10612 -3.61925 1.82202 221 217 212
-2.12172 -3.63501 1.82347 209 212 223
-2.13135 -3.63395 1.82030 190 191 213
-2.14323 -3.62123 1.81209 156 146 188
-2.14965 -3.63706 1.81621 137 130 165
-2.15840 -3.64089 1.81513 147 138 169
-2.16727 -3.64432 1.81387 166 150 171
-2.17142 -3.67424 1.82395 182 169 196
-2.18314 -3.66228 1.81608 211 205 211
-2.18964 -3.66150 1.80253 223 222 232
-2.19114 -3.67152 1.81726 226 224 230
-2.19766 -3.67074 1.80366 222 220 234
-2.98777 -3.27871 1.44010 251 245 233
-3.00348 -3.33754 1.45774 158 124 149
-3.00957 -3.33680 1.44506 144 124 105
-3.01393 -3.34636 1.45807 141 117 97
-3.02004 -3.34563 1.44533 143 122 102
-3.73756 -4.94683 1.85285 75 60 33
-3.73236 -4.94824 1.83741 71 62 29
-3.74753 -4.94563 1.83206 51 31 18
-3.75386 -4.94886 1.84892 55 38 19
-3.76385 -4.94766 1.82811 32 20 8
-3.64039 -3.93615 1.50004 34 23 17
-3.63272 -3.93707 1.51603 41 26 16
-3.62872 -3.93816 1.50416 39 25 13
-3.62472 -3.93924 1.49228 39 22 8
-3.64806 -3.93523 1.48405 73 66 46
-3.65430 -3.94189 1.49820 37 41 27
-3.66572 -3.93891 1.49380 110 125 97
-3.68537 -3.96375 1.49750 169 183 167
-3.69991 -3.97086 1.49600 182 186 180
-3.71863 -3.99152 1.49839 169 165 148
-3.73462 -3.98836 1.50631 161 157 139
-3.72646 -3.99058 1.48208 157 150 132
-4.25487 -5.14110 1.77722 215 223 221
-4.26548 -5.13983 1.75511 219 219 223
-2.09327 -3.62100 1.81522 220 220 222
-2.10343 -3.61709 1.81083 214 216 230
-2.11019 -3.62981 1.81363 195 203 220
-2.11659 -3.62904 1.80029 147 139 168
-2.12287 -3.61336 1.80384 173 173 193
-2.13204 -3.61431 1.80155 150 141 173
-2.14043 -3.61940 1.80103 147 134 173
-2.14750 -3.63166 1.80356 168 159 168
-2.15391 -3.63089 1.79019 223 220 227
-2.15511 -3.64146 1.80502 184 174 187
-2.16279 -3.65131 1.80648 206 196 208
-2.16925 -3.65054 1.79300 225 221 235
-2.97379 -3.26312 1.42790 254 252 254
-2.96788 -3.26383 1.44022 254 254 254
-2.96480 -3.26467 1.43107 254 254 254
-2.96172 -3.26550 1.42193 254 254 254
-2.98372 -3.27056 1.42781 242 234 221
-3.00017 -3.33713 1.44789 151 125 120
-3.00625 -3.33640 1.43521 145 125 104
-3.63170 -3.92069 1.48335 22 16 11
-3.61610 -3.92377 1.47563 32 16 7
-3.67574 -3.94590 1.48005 170 184 176
-3.70761 -3.96967 1.47972 164 159 138
-3.71538 -3.96874 1.46352 158 149 131
-4.24100 -5.16826 1.77277 194 198 193
-4.21922 -5.17256 1.76198 171 168 153
-4.25751 -5.16632 1.76728 219 228 231
-4.26818 -5.16504 1.74505 219 221 223
-2.10428 -3.59782 1.79233 186 183 207
-2.11278 -3.60166 1.79129 156 151 186
-2.13571 -3.62745 1.79418 180 172 187
-2.14259 -3.64076 1.79710 197 189 202
-2.14902 -3.63999 1.78370 227 220 235
-2.16337 -3.63080 1.78742 229 226 232
-2.16003 -3.63171 1.77749 227 223 233
-2.16979 -3.63003 1.77404 225 220 230
-2.96982 -3.25508 1.41574 254 254 254
-2.95779 -3.25745 1.40979 254 254 254
-2.97570 -3.25437 1.40347 203 194 202
-2.98297 -3.29378 1.42622 215 195 213
-2.99573 -3.32625 1.43451 150 115 93
-3.63602 -3.90820 1.46413 113 114 92
-3.65150 -3.91970 1.46389 157 171 156
-3.68019 -3.93402 1.46088 167 169 148
-3.68787 -3.93310 1.44487 158 151 133
-3.69818 -3.95295 1.46267 161 155 131
-3.70592 -3.95202 1.44655 156 150 134
-4.29412 -5.29076 1.78393 220 230 235
-4.30508 -5.28944 1.76109 213 216 217
-2.10364 -3.58596 1.77712 150 137 184
-2.09078 -3.58849 1.77075 147 140 162
-2.10036 -3.58685 1.76738 160 149 179
-2.10994 -3.60028 1.78052 159 139 166
-2.11842 -3.60433 1.77955 176 166 180
-2.12476 -3.60357 1.76633 231 232 232
-2.13874 -3.59577 1.77054 218 215 218
-2.14507 -3.59501 1.75735 230 226 235
-2.14694 -3.60155 1.77027 219 213 224
-2.15328 -3.60079 1.75704 230 226 236
-2.56553 -3.29234 1.53615 245 243 245
-2.55972 -3.29304 1.54827 240 238 243
-2.55669 -3.29386 1.53927 245 243 246
-2.55366 -3.29468 1.53027 248 248 247
-2.56857 -3.29152 1.54515 244 244 245
-2.57741 -3.29000 1.54204 234 233 240
-2.57451 -3.28821 1.53204 224 222 234
-2.58638 -3.28586 1.53792 214 209 230
-2.58335 -3.28669 1.52893 205 203 224
-2.96547 -3.24305 1.40231 254 252 250
-2.95350 -3.24541 1.39638 254 254 254
-3.31023 -3.97708 1.57033 25 23 15
-3.30259 -3.97800 1.58624 21 23 20
-3.29861 -3.97908 1.57442 16 18 14
-3.29463 -3.98016 1.56260 13 11 13
-3.32440 -3.98886 1.57052 63 58 38
-3.33206 -3.98794 1.55454 94 83 63
-3.33842 -3.99933 1.57028 94 86 60
-3.35413 -3.99622 1.57807 94 88 63
-3.35012 -3.99731 1.56615 94 83 60
-3.34611 -3.99840 1.55424 89 80 51
-3.60360 -3.89414 1.45507 21 11 9
-3.59604 -3.89505 1.47083 37 22 8
-3.59210 -3.89612 1.45912 38 22 5
-3.58816 -3.89719 1.44742 37 24 12
-3.63023 -3.90288 1.45054 146 152 137
-3.63782 -3.90196 1.43472 177 182 183
-3.64451 -3.91036 1.44914 173 182 175
-3.65721 -3.91218 1.44612 171 175 165
-3.67199 -3.92094 1.44504 164 160 142
-3.67964 -3.92002 1.42910 157 150 131
-2.56272 -3.28923 1.52567 235 232 241
-2.56853 -3.28853 1.51357 205 203 226
-2.57144 -3.28986 1.52336 212 209 228
-2.57725 -3.28916 1.51125 217 216 231
-2.96117 -3.23123 1.38903 254 252 247
-2.94926 -3.23358 1.38313 244 249 254
-2.97673 -3.29547 1.40771 185 182 190
-2.98706 -3.30559 1.40836 143 127 90
-2.99661 -3.30778 1.40638 81 76 75
-3.00262 -3.30705 1.39384 57 51 49
-3.01258 -3.36694 1.42310 60 51 39
-3.01874 -3.36621 1.41028 57 53 51
-3.30517 -3.97217 1.55666 37 35 16
-3.31944 -3.98472 1.55705 79 73 47
-3.32709 -3.98381 1.54109 90 80 56
-3.59752 -3.88744 1.44118 38 21 23
-3.62429 -3.89698 1.43685 165 174 163
-3.64974 -3.90127 1.43101 169 168 158
-3.65734 -3.90036 1.41518 158 150 123
-2.05232 -3.50335 1.74052 216 200 182
-2.06848 -3.51059 1.73841 217 217 228
-2.07970 -3.58286 1.76095 150 139 173
-2.55102 -3.28910 1.51887 244 245 249
-2.54522 -3.28980 1.53096 244 243 246
-2.54219 -3.29062 1.52198 245 247 249
-2.55682 -3.28840 1.50678 218 211 235
-2.55977 -3.28882 1.51622 224 219 237
-2.58571 -3.29581 1.51117 241 241 245
-2.59457 -3.29429 1.50804 252 254 254
-2.59153 -3.29511 1.49902 254 254 254
-2.98348 -3.30214 1.39766 110 87 99
-2.98948 -3.30142 1.38516 61 49 56
-2.99341 -3.30808 1.39689 65 53 56
-2.99942 -3.30736 1.38436 60 55 45
-3.23751 -3.94773 1.55428 36 20 29
-3.22997 -3.94864 1.57000 27 27 33
-3.22604 -3.94971 1.55833 35 22 34
-3.24144 -3.94667 1.56596 26 23 29
-3.25291 -3.94469 1.56191 28 20 21
-3.24823 -3.94122 1.54884 37 18 16
-3.26361 -3.93819 1.55646 26 18 17
-3.27377 -3.95259 1.54546 30 14 19
-3.56680 -3.87812 1.43359 34 26 17
-3.55929 -3.87902 1.44924 27 21 8
-3.55537 -3.88008 1.43761 21 18 10
-3.57071 -3.87705 1.44521 36 24 13
-3.57918 -3.87968 1.43054 31 23 21
-3.58111 -3.84312 1.41692 66 60 53
-3.60183 -3.87493 1.42225 141 154 144
-3.61839 -3.89113 1.42322 176 186 177
-3.64473 -3.89872 1.41826 164 160 142
-3.65232 -3.89781 1.40245 157 148 123
-4.30419 -5.42917 1.77289 196 205 195
-2.02624 -3.48886 1.73236 195 167 147
-2.02020 -3.48958 1.74496 193 167 138
-2.01705 -3.49044 1.73560 195 167 145
-2.02939 -3.48800 1.74172 192 167 139
-2.05689 -3.50922 1.73061 217 219 227
-2.09932 -3.51978 1.72196 226 224 224
-2.10547 -3.51905 1.70916 237 236 239
-2.53943 -3.28743 1.51151 234 233 244
-2.53364 -3.28812 1.52358 244 244 247
-2.52760 -3.28976 1.50565 227 218 238
-2.53641 -3.28825 1.50254 224 220 238
-2.54522 -3.28673 1.49944 225 221 239
-2.54808 -3.28843 1.50934 229 227 243
-2.56556 -3.28824 1.50417 214 210 231
-2.57455 -3.28370 1.49995 231 231 242
-2.58035 -3.28300 1.48786 253 254 254
-2.95284 -3.20934 1.36333 243 244 235
-2.94104 -3.21167 1.35748 222 239 248
-2.94982 -3.21015 1.35439 219 218 210
-3.22326 -3.95815 1.54892 54 48 25
-3.21571 -3.95905 1.56467 32 29 30
-3.21177 -3.96012 1.55298 42 31 25
-3.20783 -3.96119 1.54128 45 37 16
-3.24864 -3.96882 1.54529 73 60 32
-3.25623 -3.96790 1.52947 83 66 49
-3.26137 -3.97389 1.54337 70 58 28
-3.26897 -3.97298 1.52751 83 70 43
-3.27424 -3.97952 1.54160 72 60 27
-3.28186 -3.97860 1.52571 85 76 47
-3.28666 -3.98222 1.53893 79 67 40
-3.29429 -3.98130 1.52302 90 81 54
-3.29871 -3.98271 1.53559 88 83 62
-3.30635 -3.98179 1.51966 98 88 58
-3.37468 -3.82877 1.45906 111 95 70
-3.36735 -3.82965 1.47432 98 85 55
-3.35972 -3.83172 1.45165 130 112 69
-3.37850 -3.82773 1.47040 98 86 56
-3.38964 -3.82582 1.46647 97 85 62
-3.38200 -3.82789 1.44379 134 119 73
-3.38999 -3.84630 1.46078 111 99 66
-3.40504 -3.84333 1.46824 96 81 59
-3.40120 -3.84438 1.45683 108 93 61
-3.51485 -3.87774 1.43546 46 25 13
-3.50736 -3.87864 1.45107 19 14 4
-3.50345 -3.87970 1.43948 44 22 11
-3.51875 -3.87668 1.44706 24 16 7
-3.53014 -3.87472 1.44304 23 17 6
-3.52660 -3.87719 1.43184 45 24 14
-3.54190 -3.87417 1.43942 24 18 4
-3.53731 -3.87257 1.42708 46 25 13
-3.55013 -3.87610 1.42459 51 29 15
-3.56170 -3.87475 1.42074 63 42 17
-3.57537 -3.88114 1.41901 56 32 19
-3.57411 -3.83275 1.40228 72 69 56
-3.59759 -3.87484 1.41030 136 150 145
-3.61334 -3.88826 1.41045 172 185 173
-3.62600 -3.89039 1.40751 171 171 148
-3.63356 -3.88949 1.39175 157 153 126
-3.63920 -3.89431 1.40504 160 154 129
-3.64677 -3.89340 1.38926 155 149 127
-4.29833 -5.43079 1.75546 188 194 189
-2.02355 -3.48782 1.72221 205 188 164
-2.02964 -3.49915 1.72438 213 211 205
-2.03957 -3.49460 1.71989 203 214 233
-2.04657 -3.50251 1.72061 210 216 235
-2.06549 -3.49751 1.71333 214 206 215
-2.07232 -3.50666 1.71453 218 209 216
-2.08416 -3.49352 1.70647 231 223 223
-2.09024 -3.49279 1.69381 238 235 242
-2.09409 -3.48882 1.70193 244 243 240
-2.10016 -3.48809 1.68928 230 228 237
-2.55381 -3.28894 1.49770 229 224 239
-2.56283 -3.28392 1.49331 235 232 240
-2.56862 -3.28323 1.48124 254 254 253
-2.57163 -3.28254 1.49025 246 247 249
-2.57742 -3.28184 1.47818 254 254 254
-2.92161 -3.19266 1.35653 249 248 250
-2.91589 -3.19335 1.36846 252 253 254
-2.91290 -3.19416 1.35960 247 243 248
-2.93331 -3.19035 1.36232 226 218 238
-2.93032 -3.19116 1.35346 220 219 241
-2.92734 -3.19198 1.34459 200 184 214
-2.96408 -3.26432 1.36914 90 66 67
-3.22246 -3.97943 1.54337 64 61 26
-3.20693 -3.98250 1.53568 40 34 27
-3.23006 -3.97852 1.52752 80 67 53
-3.23366 -3.97515 1.53860 79 70 45
-3.24126 -3.97424 1.52277 85 65 53
-3.37086 -3.82981 1.44772 132 116 71
-3.35590 -3.83276 1.44031 129 108 68
-3.36704 -3.83084 1.43638 131 111 76
-3.37818 -3.82893 1.43245 134 112 80
-3.50710 -3.91144 1.43639 123 99 63
-3.49954 -3.91234 1.45215 51 22 8
-3.49166 -3.91448 1.42874 136 115 73
-3.50316 -3.91251 1.42469 137 117 78
-3.51466 -3.91053 1.42064 137 118 83
-3.51930 -3.91223 1.43311 123 110 72
-3.52686 -3.91133 1.41734 142 119 91
-3.52996 -3.90691 1.42813 126 105 76
-3.53752 -3.90600 1.41237 141 121 91
-3.53807 -3.89176 1.42046 128 106 77
-3.54560 -3.89085 1.40478 139 119 96
-3.54789 -3.88355 1.41473 134 114 77
-3.55725 -3.87378 1.40857 138 117 69
-3.56323 -3.85160 1.39908 106 85 57
-3.57228 -3.84129 1.39283 81 62 63
-3.59327 -3.87444 1.39828 133 138 135
-3.60882 -3.88724 1.39820 165 179 168
-3.62023 -3.88501 1.39409 165 166 139
-3.62777 -3.88410 1.37836 157 149 125
-4.29085 -5.42757 1.73680 198 203 194
-2.00584 -3.47664 1.71297 203 180 155
-1.99983 -3.47736 1.72549 200 173 151
-1.99670 -3.47821 1.71619 199 178 157
-2.02010 -3.48990 1.71337 228 223 207
-2.02628 -3.50083 1.71533 188 186 224
-2.04148 -3.47420 1.70168 132 113 212
-2.05673 -3.48423 1.70067 219 223 235
-2.06701 -3.47790 1.69548 239 236 237
-2.07304 -3.47718 1.68290 248 248 250
-2.07537 -3.47992 1.69372 248 245 245
-2.08142 -3.47919 1.68113 241 241 246
-2.08294 -3.48564 1.69348 245 244 243
-2.08900 -3.48492 1.68086 239 238 243
-2.43955 -3.27620 1.51663 232 239 245
-2.43382 -3.27688 1.52857 241 238 243
-2.43083 -3.27769 1.51971 240 243 247
-2.44253 -3.27539 1.52550 239 235 242
-2.45124 -3.27389 1.52243 238 235 242
-2.44808 -3.27650 1.51424 224 229 241
-2.45978 -3.27419 1.52004 239 237 242
-2.45714 -3.27143 1.50983 228 231 240
-2.46883 -3.26912 1.51562 241 239 244
-2.46584 -3.26993 1.50676 240 241 246
-2.51637 -3.28401 1.49682 231 229 245
-2.50759 -3.28552 1.49991 234 229 242
-2.51938 -3.28319 1.50576 230 222 240
-2.52214 -3.28332 1.48479 254 254 254
-2.52495 -3.28541 1.49479 234 235 248
-2.53073 -3.28472 1.48274 254 254 254
-2.54222 -3.28724 1.49036 246 246 250
-2.53920 -3.28806 1.48139 254 254 254
-2.54801 -3.28655 1.47829 254 254 254
-2.55093 -3.28737 1.48785 251 249 251
-2.55673 -3.28667 1.47577 254 254 254
-2.55976 -3.28565 1.48467 253 252 251
-2.56555 -3.28496 1.47260 254 254 254
-2.89077 -3.17409 1.34913 235 234 243
-2.88510 -3.17477 1.36095 249 248 249
-2.88214 -3.17557 1.35217 239 238 245
-2.87919 -3.17637 1.34339 239 237 243
-2.89373 -3.17328 1.35791 248 248 249
-2.90235 -3.17180 1.35487 246 246 248
-2.89960 -3.17532 1.34697 232 236 245
-2.90528 -3.17463 1.33513 201 190 221
-2.90868 -3.17936 1.34570 231 233 244
-2.91437 -3.17868 1.33384 193 190 224
-2.91772 -3.18248 1.34413 231 227 238
-2.93802 -3.21236 1.34850 172 155 199
-2.96045 -3.25949 1.35821 51 43 26
-2.96634 -3.25878 1.34593 58 57 52
-3.21937 -3.98622 1.53332 62 57 46
-3.22699 -3.98531 1.51744 77 67 44
-3.55225 -3.87068 1.39586 135 117 82
-3.53696 -3.87370 1.38828 138 115 90
-3.54835 -3.87175 1.38427 138 116 80
-3.56190 -3.86223 1.39011 126 104 65
-3.57024 -3.84910 1.38313 97 70 71
-3.58718 -3.86760 1.38456 133 133 132
-3.60403 -3.88523 1.38571 159 168 160
-3.61157 -3.88432 1.37000 156 153 133
-3.61453 -3.87984 1.38077 159 156 133
-3.62206 -3.87894 1.36507 156 150 128
-4.28573 -5.43142 1.71993 194 198 197
-4.26273 -5.43596 1.70854 172 170 156
-4.30916 -5.44727 1.71854 209 217 228
-4.32046 -5.44591 1.69498 222 227 229
-1.99822 -3.46080 1.69928 207 180 158
-1.99226 -3.46152 1.71172 201 179 156
-1.98914 -3.46236 1.70248 206 180 159
-2.00377 -3.47327 1.70191 215 194 179
-2.00737 -3.49392 1.70791 238 227 222
-2.02033 -3.47700 1.69832 240 241 244
-2.02393 -3.49833 1.70455 200 192 240
-2.04109 -3.50058 1.70028 191 177 232
-2.04717 -3.49985 1.68762 252 252 251
-2.05598 -3.47477 1.68709 235 237 244
-2.06200 -3.47405 1.67454 253 251 251
-2.06469 -3.47518 1.68467 251 248 247
-2.07071 -3.47445 1.67211 249 249 250
-2.41960 -3.27583 1.51235 234 234 244
-2.41389 -3.27652 1.52427 236 234 242
-2.41091 -3.27733 1.51542 235 230 240
-2.42258 -3.27502 1.52120 241 241 246
-2.42843 -3.27317 1.50885 211 217 241
-2.43897 -3.25399 1.49920 170 188 218
-2.44477 -3.28050 1.50655 145 145 188
-2.45677 -3.24567 1.49113 191 190 214
-2.46242 -3.27538 1.49962 235 236 245
-2.47413 -3.27307 1.50542 246 245 248
-2.47114 -3.27388 1.49655 248 248 252
-2.50469 -3.28486 1.49044 254 252 251
-2.49892 -3.28555 1.50246 237 232 241
-2.49291 -3.28718 1.48460 253 253 254
-2.50169 -3.28567 1.48150 253 254 254
-2.51046 -3.28416 1.47841 253 253 254
-2.51335 -3.28503 1.48795 254 254 252
-2.51912 -3.28434 1.47592 253 254 254
-2.88730 -3.16770 1.33805 232 224 237
-2.87575 -3.16998 1.33232 241 240 246
-2.88435 -3.16850 1.32929 237 237 244
-2.89296 -3.16702 1.32626 233 230 239
-2.89652 -3.17447 1.33765 212 205 225
-2.92373 -3.18550 1.33342 188 179 206
-2.93424 -3.20451 1.33683 149 126 156
-2.94726 -3.24923 1.34827 76 49 57
-2.95312 -3.24853 1.33606 60 50 52
-3.20526 -3.99895 1.52849 39 28 32
-3.19762 -3.99987 1.54441 45 38 32
-3.19364 -4.00095 1.53258 45 37 34
-3.18966 -4.00203 1.52076 42 43 20
-3.20128 -4.00003 1.51666 27 29 14
-3.21718 -3.99893 1.52498 59 54 37
-3.55912 -3.86748 1.37965 130 114 68
-3.54385 -3.87049 1.37208 139 117 80
-3.56989 -3.86325 1.37504 96 77 80
-3.58529 -3.87602 1.37488 127 126 127
-3.59854 -3.88065 1.37257 153 155 144
-3.60606 -3.87974 1.35689 154 151 130
-4.28411 -5.44589 1.70565 197 204 196
-4.26104 -5.45044 1.69423 172 170 161
-1.99590 -3.45855 1.68877 218 202 186
-2.00119 -3.47194 1.69173 240 235 229
-2.00719 -3.47122 1.67924 252 251 252
-2.00944 -3.47386 1.68995 249 249 248
-2.01544 -3.47314 1.67744 251 251 251
-2.01853 -3.47245 1.68679 244 244 249
-2.02453 -3.47173 1.67428 250 250 250
-2.02709 -3.47323 1.68454 238 233 247
-2.03684 -3.46913 1.68028 232 221 246
-2.04284 -3.46841 1.66778 253 254 254
-2.04510 -3.47123 1.67856 245 245 250
-2.05111 -3.47050 1.66604 253 253 254
-2.40830 -3.27492 1.50537 243 239 244
-2.40259 -3.27561 1.51727 236 232 240
-2.39961 -3.27641 1.50843 244 244 247
-2.41884 -3.25690 1.49618 213 205 231
-2.42260 -3.30010 1.50966 148 121 196
-2.43292 -3.28404 1.50120 83 67 139
-2.44165 -3.28254 1.49812 67 45 109
-2.45145 -3.27022 1.49108 160 156 194
-2.46006 -3.26965 1.48835 231 236 246
-2.46804 -3.27594 1.48812 250 253 254
-2.47975 -3.27362 1.49393 249 248 251
-2.47676 -3.27444 1.48505 252 253 254
-2.90217 -3.17348 1.32573 231 229 237
-2.91141 -3.17960 1.32507 230 233 237
-2.91993 -3.17641 1.32149 204 205 205
-2.92796 -3.16785 1.31623 108 87 116
-2.93363 -3.16717 1.30442 49 48 58
-2.94347 -3.24198 1.33669 58 35 44
-2.94931 -3.24128 1.32451 61 55 53
-3.21306 -3.99912 1.51288 55 50 25
-3.19745 -4.00220 1.50515 24 31 18
-3.22571 -4.00374 1.51072 78 64 46
-3.24134 -4.00065 1.51847 81 67 47
-3.23735 -4.00173 1.50661 80 65 50
-3.23336 -4.00282 1.49476 82 67 45
-3.55607 -3.87173 1.36890 134 113 66
-3.54078 -3.87475 1.36132 137 118 86
-3.56356 -3.87084 1.35329 98 82 81
-4.27939 -5.45105 1.68903 195 205 205
-4.25631 -5.45561 1.67760 174 173 159
-4.29069 -5.44970 1.66548 210 221 233
-4.30485 -5.47299 1.68894 216 231 234
-4.31621 -5.47162 1.66526 215 222 221
-1.97667 -3.45486 1.68278 213 189 172
-1.98363 -3.46131 1.68288 229 217 214
-1.98960 -3.46059 1.67045 254 254 254
-2.00162 -3.45880 1.67673 252 253 251
-2.00759 -3.45808 1.66430 254 252 254
-2.03547 -3.46269 1.66805 253 253 252
-2.02324 -3.46511 1.66199 253 253 253
-2.03235 -3.46354 1.65878 254 254 253
-2.04145 -3.46198 1.65557 253 254 254
-2.39665 -3.27711 1.49955 235 236 246
-2.39094 -3.27779 1.51145 245 248 249
-2.38499 -3.27941 1.49377 230 223 238
-2.39367 -3.27791 1.49071 229 221 237
-2.40518 -3.27690 1.49696 233 233 242
-2.41688 -3.24896 1.48419 188 171 209
-2.41999 -3.29725 1.49938 148 109 162
-2.42876 -3.29574 1.49629 144 116 149
-2.43715 -3.29790 1.49453 144 126 149
-2.45087 -3.24719 1.47357 186 174 200
-2.45734 -3.26780 1.47853 228 231 241
-2.46607 -3.26583 1.47530 239 242 249
-2.47179 -3.26515 1.46340 236 228 240
-2.47459 -3.26621 1.47291 243 242 249
-2.48627 -3.26390 1.47870 253 254 254
-2.48329 -3.26471 1.46985 246 246 250
-2.48031 -3.26552 1.46100 242 238 244
-2.86322 -3.15636 1.32159 243 240 247
-2.85760 -3.15704 1.33330 243 242 247
-2.85467 -3.15783 1.32460 247 243 246
-2.86615 -3.15557 1.33029 245 244 247
-2.87226 -3.16250 1.32097 221 218 246
-2.88099 -3.16324 1.31864 211 207 244
-2.89019 -3.17027 1.31827 212 208 244
-2.89874 -3.16808 1.31501 215 211 242
-2.90751 -3.16861 1.31260 214 207 235
-2.91849 -3.19563 1.31838 154 154 171
-2.93068 -3.23444 1.32773 57 52 51
-2.93650 -3.23374 1.31560 59 56 53
-3.20952 -4.00312 1.50190 51 49 25
-3.19390 -4.00621 1.49417 21 31 28
-3.22250 -4.00994 1.50034 75 63 39
-3.23017 -4.00902 1.48436 79 68 41
-3.55423 -3.88062 1.35931 134 111 74
-3.53890 -3.88365 1.35172 137 119 78
-3.56173 -3.87972 1.34367 92 80 83
-3.58044 -3.88915 1.35442 118 113 113
-1.96789 -3.44470 1.67163 218 203 178
-1.97630 -3.44540 1.66937 236 230 221
-1.98222 -3.44469 1.65703 245 245 248
-1.98450 -3.44695 1.66746 250 250 248
-2.40287 -3.27209 1.48607 227 219 234
-2.41351 -3.25346 1.47678 209 191 215
-2.42246 -3.24891 1.47263 217 204 210
-2.42812 -3.24823 1.46084 245 247 248
-2.42930 -3.26378 1.47551 231 226 219
-2.43843 -3.25776 1.47083 235 232 226
-2.44634 -3.26350 1.47038 228 224 228
-2.45465 -3.26569 1.46864 225 221 229
-2.46328 -3.26470 1.46577 229 223 238
-2.85131 -3.15110 1.31355 244 239 240
-2.84571 -3.15178 1.32522 248 246 246
-2.84279 -3.15257 1.31655 247 244 246
-2.86046 -3.16008 1.31380 217 206 212
-2.87874 -3.17427 1.31308 130 105 142
-2.89640 -3.17704 1.30877 142 127 147
-2.90527 -3.17850 1.30662 141 131 139
-2.91560 -3.19763 1.30988 74 74 99
-2.92133 -3.19694 1.29793 60 53 58
-3.20476 -3.99902 1.48858 43 43 36
-3.18916 -4.00210 1.48086 27 31 21
-3.21793 -4.00724 1.48740 70 61 38
-3.22559 -4.00632 1.47144 78 68 42
-3.32382 -3.99478 1.45197 103 90 54
-3.31615 -3.99570 1.46796 100 87 54
-3.31215 -3.99678 1.45608 96 86 52
-3.32782 -3.99369 1.46385 108 91 58
-3.33949 -3.99168 1.45973 114 95 64
-3.33549 -3.99277 1.44786 109 93 62
-3.55061 -3.88279 1.34797 138 116 71
-3.53527 -3.88582 1.34038 139 117 78
-3.59107 -3.89959 1.34154 141 142 122
-3.59863 -3.89868 1.32578 154 152 126
-1.97541 -3.43795 1.65685 243 245 245
-1.99276 -3.43724 1.65147 245 243 246
-2.00023 -3.44163 1.65069 251 245 249
-2.00924 -3.44008 1.64752 254 253 254
-2.00616 -3.44092 1.63834 253 254 254
-2.26820 -3.35643 1.54350 222 223 242
-2.25932 -3.35796 1.54663 222 223 242
-2.27706 -3.35498 1.54040 227 227 246
-2.28290 -3.35428 1.52823 254 254 253
-2.28454 -3.36230 1.54057 233 234 247
-2.29650 -3.35994 1.54649 233 226 237
-2.29040 -3.36160 1.52836 254 254 254
-2.39284 -3.26117 1.47552 245 242 248
-2.38126 -3.26346 1.46978 253 252 253
-2.38989 -3.26198 1.46674 252 251 253
-2.39851 -3.26049 1.46370 253 252 253
-2.40175 -3.25738 1.47164 247 245 248
-2.40741 -3.25670 1.45983 254 252 253
-2.41013 -3.25791 1.46933 249 243 245
-2.41870 -3.25695 1.46648 249 246 247
-2.43511 -3.26196 1.46324 234 235 242
-2.44455 -3.25285 1.45748 210 194 219
-2.45357 -3.24741 1.45303 211 191 202
-2.46009 -3.26778 1.45774 234 229 235
-2.46881 -3.26592 1.45454 245 243 249
-2.47750 -3.26443 1.45148 249 247 249
-2.51769 -3.30154 1.45166 250 248 249
-2.51188 -3.30224 1.46377 249 249 251
-2.50885 -3.30306 1.45478 250 247 250
-2.52072 -3.30071 1.46065 250 249 251
-2.52955 -3.29920 1.45754 251 250 252
-2.52568 -3.31216 1.45275 251 246 247
-2.53760 -3.30981 1.45866 251 251 252
-2.57982 -3.28547 1.42801 243 239 240
-2.59167 -3.28313 1.43387 249 251 253
-2.59844 -3.25968 1.41408 246 240 240
-2.61018 -3.25736 1.41990 250 250 252
-2.60732 -3.25473 1.40984 246 242 241
-2.61904 -3.25242 1.41565 250 250 252
-2.61617 -3.24984 1.40562 246 240 241
-2.62788 -3.24753 1.41142 250 249 252
-2.62489 -3.24834 1.40255 246 238 239
-2.62190 -3.24915 1.39368 242 225 219
-2.84824 -3.14919 1.30404 239 232 223
-2.85909 -3.18703 1.31315 182 152 153
-2.86647 -3.16542 1.30392 142 99 94
-2.88446 -3.17443 1.30152 137 115 97
-2.88151 -3.17523 1.29275 145 125 93
-2.89334 -3.17648 1.29956 139 121 103
-2.90310 -3.18958 1.30094 111 99 89
-2.90880 -3.18890 1.28904 57 55 54
-2.91453 -3.22239 1.30824 62 58 45
-2.92032 -3.22169 1.29618 60 57 61
-3.20088 -4.00081 1.47696 38 36 35
-3.18528 -4.00389 1.46923 36 26 23
-3.21361 -4.00613 1.47493 64 59 36
-3.22126 -4.00521 1.45897 77 69 38
-3.30804 -3.99726 1.44404 88 80 41
-3.30037 -3.99818 1.46003 90 81 54
-3.29637 -3.99927 1.44815 86 76 49
-3.29237 -4.00035 1.43628 81 67 46
-3.32049 -3.99951 1.44109 92 85 38
-3.33098 -3.99112 1.43524 99 91 48
-3.34663 -3.98803 1.44300 115 97 70
-3.34288 -3.99036 1.43147 106 96 63
-3.35854 -3.98727 1.43923 120 100 79
-3.36267 -3.96848 1.41847 116 103 72
-3.37824 -3.96541 1.42619 128 107 69
-3.37353 -3.96281 1.41341 121 104 71
-3.38909 -3.95974 1.42111 130 109 74
-3.38115 -3.96190 1.39753 102 90 57
-3.39362 -3.94407 1.40134 125 110 71
-3.40911 -3.94101 1.40902 129 111 78
-3.40516 -3.94209 1.39728 126 114 70
-3.54958 -3.89492 1.33910 141 117 79
-3.53419 -3.89796 1.33148 137 116 86
-3.56487 -3.90745 1.33865 78 63 83
-3.57507 -3.90056 1.33338 93 90 85
-1.97800 -3.41749 1.63917 219 202 199
-1.96603 -3.41985 1.63324 214 194 170
-1.98731 -3.41446 1.63543 218 201 200
-1.99764 -3.40749 1.63012 224 211 213
-2.00266 -3.42100 1.63297 244 238 243
-2.00854 -3.42030 1.62072 254 254 254
-2.25906 -3.34228 1.53146 254 253 251
-2.25326 -3.34298 1.54355 223 222 240
-2.24721 -3.34462 1.52559 254 254 254
-2.25603 -3.34310 1.52248 253 254 254
-2.26486 -3.34159 1.51937 253 252 254
-2.26898 -3.33413 1.52589 254 253 251
-2.27477 -3.33344 1.51383 254 254 254
-2.41577 -3.25750 1.45761 251 251 252
-2.42422 -3.25768 1.45516 232 232 237
-2.42989 -3.25700 1.44333 193 150 151
-2.43347 -3.25041 1.45007 206 185 203
-2.44116 -3.25781 1.45016 195 158 178
-2.45083 -3.24606 1.44351 212 185 187
-2.45798 -3.25966 1.44576 233 222 225
-2.46600 -3.26496 1.44508 242 234 238
-2.47439 -3.26666 1.44314 243 235 238
-2.48607 -3.26435 1.44892 251 249 249
-2.48279 -3.26855 1.44125 242 233 236
-2.49448 -3.26624 1.44704 251 249 249
-2.49043 -3.27972 1.44258 241 233 235
-2.50217 -3.27740 1.44839 250 248 249
-2.59547 -3.25991 1.40499 241 223 217
-2.60122 -3.25922 1.39302 240 220 208
-2.61332 -3.24710 1.39557 240 224 219
-2.61904 -3.24641 1.38364 244 223 211
-2.83624 -3.14041 1.29499 249 244 240
-2.82486 -3.14266 1.28936 251 251 249
-2.84484 -3.14129 1.29272 216 193 180
-2.87245 -3.16993 1.29374 143 120 91
-2.89068 -3.18135 1.29200 132 118 84
-2.90200 -3.21519 1.29953 71 71 60
-2.90776 -3.21449 1.28751 56 56 54
-3.19800 -4.00942 1.46724 44 26 33
-3.18237 -4.01250 1.45949 30 29 23
-3.20939 -4.00568 1.46265 64 57 31
-3.21704 -4.00476 1.44671 77 71 37
-3.30385 -3.99726 1.43188 70 57 45
-3.28818 -4.00035 1.42412 79 67 44
-3.31151 -3.99634 1.41589 51 50 41
-3.31666 -4.00155 1.42945 65 52 47
-3.32937 -4.00508 1.42681 73 61 52
-3.35002 -3.98676 1.41478 84 76 59
-3.36107 -3.98163 1.40984 93 81 54
-3.39196 -3.95615 1.39247 105 92 63
-3.40267 -3.95010 1.38733 109 94 67
-3.41820 -3.94704 1.39502 128 112 70
-3.41320 -3.94331 1.38202 114 101 68
-3.42870 -3.94025 1.38970 129 111 72
-3.42489 -3.94195 1.37811 113 100 68
-3.44039 -3.93889 1.38579 132 112 73
-3.43788 -3.94647 1.37571 110 96 71
-3.45341 -3.94340 1.38340 133 111 88
-3.44923 -3.94350 1.37138 115 102 77
-3.46476 -3.94044 1.37907 136 110 78
-3.46119 -3.94325 1.36774 124 106 74
-3.47673 -3.94018 1.37544 135 111 80
-3.47277 -3.94126 1.36366 132 110 80
-3.54904 -3.90907 1.33064 140 114 91
-3.53359 -3.91212 1.32298 137 116 80
-3.56239 -3.91407 1.32828 61 37 72
-3.57363 -3.91099 1.32396 79 69 80
-3.59176 -3.93344 1.32579 132 136 121
-3.59940 -3.93252 1.30988 155 151 130
-1.97776 -3.40781 1.62592 217 195 174
-1.98583 -3.40935 1.62400 226 211 206
-1.99968 -3.38882 1.61335 244 239 239
-2.00549 -3.38813 1.60125 254 254 254
-2.00982 -3.38223 1.60823 253 254 251
-2.01562 -3.38153 1.59616 254 254 254
-2.40540 -3.24954 1.44825 249 250 251
-2.39680 -3.25102 1.45128 253 252 253
-2.41285 -3.25802 1.44873 230 225 234
-2.42336 -3.23962 1.43975 196 158 189
-2.43960 -3.24526 1.43670 217 184 155
-2.44525 -3.24458 1.42492 231 199 180
-2.44838 -3.24198 1.43304 227 199 174
-2.45403 -3.24130 1.42127 229 203 184
-2.45526 -3.25795 1.43608 229 205 191
-2.46095 -3.25727 1.42422 230 206 189
-2.46351 -3.26064 1.43447 230 211 203
-2.46921 -3.25996 1.42260 232 207 186
-2.47174 -3.26392 1.43307 231 213 207
-2.47745 -3.26324 1.42117 230 207 187
-2.47978 -3.26965 1.43250 230 212 208
-2.48550 -3.26897 1.42057 231 206 190
-2.48714 -3.28403 1.43488 230 212 207
-2.49289 -3.28333 1.42288 232 207 194
-2.83336 -3.14162 1.28650 229 220 214
-2.83893 -3.14095 1.27488 149 122 103
-2.85126 -3.15541 1.28555 144 117 87
-2.85687 -3.15474 1.27386 146 126 94
-2.86021 -3.16081 1.28460 144 122 96
-2.87821 -3.17085 1.28244 138 123 106
-2.88916 -3.20253 1.28925 98 83 85
-2.89489 -3.20184 1.27731 56 54 59
-2.89918 -3.21855 1.29136 54 52 49
-2.90495 -3.21785 1.27933 62 58 58
-3.19522 -4.01880 1.45767 36 25 27
-3.17954 -4.02189 1.44990 35 34 21
-3.20645 -4.01383 1.45274 60 57 27
-3.29976 -3.99782 1.41987 62 55 39
-3.30742 -3.99690 1.40389 58 47 18
-3.32474 -4.00278 1.41400 55 53 45
-3.32073 -4.00387 1.40210 58 52 27
-3.33242 -4.00186 1.39798 63 53 32
-3.33717 -4.00470 1.41091 59 55 47
-3.34487 -4.00378 1.39487 73 55 36
-3.34761 -3.99609 1.40507 68 57 44
-3.35530 -3.99517 1.38906 76 58 37
-3.36025 -3.99893 1.40221 69 55 34
-3.36794 -3.99801 1.38617 75 60 37
-3.37153 -3.99479 1.39753 67 52 36
-3.37921 -3.99387 1.38151 77 65 42
-3.38207 -3.98710 1.39195 71 56 52
-3.38974 -3.98618 1.37595 80 65 38
-3.39279 -3.98047 1.38665 74 57 53
-3.40045 -3.97955 1.37068 84 68 37
-3.40441 -3.97831 1.38250 79 63 58
-3.41208 -3.97739 1.36653 89 77 45
-3.41339 -3.96377 1.37520 85 76 57
-3.42102 -3.96285 1.35929 87 76 45
-3.42413 -3.95776 1.37009 82 74 45
-3.43176 -3.95684 1.35420 78 66 45
-3.43600 -3.95699 1.36631 73 60 35
-3.44715 -3.95296 1.36171 82 74 63
-3.45861 -3.95037 1.35748 97 85 68
-3.47099 -3.95177 1.35423 128 110 88
-3.48657 -3.94869 1.36195 134 111 77
-3.48260 -3.94977 1.35014 132 112 79
-3.47862 -3.95085 1.33833 133 112 77
-3.54548 -3.91162 1.31929 141 113 84
-3.53002 -3.91467 1.31163 136 113 82
-3.55861 -3.91581 1.31671 61 41 68
-3.57014 -3.91383 1.31264 71 58 74
-3.57773 -3.91292 1.29684 127 126 112
-1.99221 -3.37466 1.60099 250 247 243
-1.99798 -3.37397 1.58896 254 254 254
-2.00327 -3.36444 1.59448 254 254 254
-2.00902 -3.36375 1.58249 254 254 254
-2.39676 -3.22807 1.43421 246 244 249
-2.39117 -3.22874 1.44587 253 252 253
-2.38825 -3.22953 1.43721 253 254 254
-2.40410 -3.23647 1.43465 221 214 224
-2.41270 -3.23460 1.43150 188 146 180
-2.42011 -3.24323 1.43200 191 140 156
-2.42959 -3.23346 1.42610 219 183 163
-2.43521 -3.23278 1.41439 229 203 180
-2.43774 -3.23583 1.42442 229 200 176
-2.44337 -3.23515 1.41268 231 200 178
-2.81247 -3.12073 1.27643 254 254 252
-2.80695 -3.12140 1.28793 254 254 254
-2.80407 -3.12218 1.27939 254 254 254
-2.80120 -3.12296 1.27085 254 254 253
-2.81534 -3.11995 1.28497 254 254 254
-2.82099 -3.12212 1.27432 240 236 232
-2.82651 -3.12146 1.26281 158 131 116
-2.82964 -3.12578 1.27289 189 169 168
-2.83517 -3.12512 1.26136 147 125 100
-2.86596 -3.16199 1.27342 142 126 105
-2.85446 -3.16426 1.26773 148 128 94
-2.86302 -3.16278 1.26471 133 120 86
-2.88719 -3.21796 1.28467 66 59 66
-2.89296 -3.21727 1.27265 63 59 60
-3.19296 -4.03202 1.44908 26 23 25
-3.18895 -4.03311 1.43716 20 19 13
-3.20379 -4.02399 1.44333 55 53 32
-3.21625 -4.02702 1.44056 78 67 45
-3.23197 -4.02391 1.44835 82 69 46
-3.22796 -4.02500 1.43643 83 67 54
-3.22394 -4.02609 1.42451 83 68 40
-3.28418 -4.00142 1.41224 83 68 31
-3.27652 -4.00234 1.42822 82 71 52
-3.27252 -4.00342 1.41635 84 72 42
-3.26852 -4.00451 1.40448 86 69 44
-3.29636 -4.00229 1.40888 69 54 18
-3.44442 -3.95960 1.35129 87 74 54
-3.45496 -3.95289 1.34603 98 85 60
-3.46872 -3.96023 1.34423 129 114 85
-3.47636 -3.95932 1.32830 135 113 78
-3.54402 -3.92238 1.30987 142 115 80
-3.52852 -3.92544 1.30219 140 115 90
-3.55616 -3.92267 1.30634 64 48 60
-3.56772 -3.92068 1.30226 66 52 65
-1.96187 -3.38363 1.60276 226 211 203
-1.95007 -3.38596 1.59691 239 223 204
-1.96765 -3.38294 1.59072 253 253 251
-1.97727 -3.35788 1.59017 240 236 230
-1.98299 -3.35720 1.57824 254 254 254
-1.98743 -3.35100 1.58499 251 252 246
-1.99314 -3.35031 1.57309 254 254 254
-2.13149 -3.26714 1.51589 253 253 254
-2.12591 -3.26781 1.52752 254 254 254
-2.12300 -3.26860 1.51888 253 253 254
-2.13440 -3.26635 1.52453 254 254 253
-2.14289 -3.26489 1.52154 254 254 254
-2.13998 -3.26568 1.51290 253 253 254
-2.37880 -3.21655 1.42623 250 253 253
-2.37324 -3.21722 1.43782 254 254 254
-2.37034 -3.21801 1.42921 250 253 254
-2.38170 -3.21577 1.43484 254 254 254
-2.38665 -3.21992 1.42492 239 240 246
-2.39620 -3.20984 1.41894 213 190 217
-2.41148 -3.22078 1.41776 187 142 136
-2.41955 -3.22309 1.41607 219 188 164
-2.42514 -3.22242 1.40441 231 200 175
-2.42807 -3.22147 1.41301 229 203 173
-2.43367 -3.22079 1.40135 229 199 180
-2.80925 -3.11324 1.26543 249 244 239
-2.79802 -3.11545 1.25986 251 252 246
-3.20105 -4.03374 1.43373 51 48 24
-3.18531 -4.03685 1.42593 18 21 14
-3.21371 -4.03798 1.43126 79 66 38
-3.22143 -4.03705 1.41517 80 69 39
-3.28018 -4.00244 1.40036 86 69 38
-3.26451 -4.00553 1.39260 84 69 46
-3.27618 -4.00352 1.38849 85 71 54
-3.29240 -4.00364 1.39707 70 52 34
-3.30398 -4.00110 1.39282 60 39 33
-3.31653 -4.00389 1.38993 62 45 31
-3.32894 -4.00575 1.38680 65 47 26
-3.34095 -4.00537 1.38308 75 50 28
-3.35267 -4.00340 1.37897 77 51 35
-3.36392 -3.99904 1.37425 75 53 33
-3.37631 -4.00045 1.37098 81 60 48
-3.38704 -3.99363 1.36566 84 62 47
-3.39884 -3.99213 1.36166 89 64 45
-3.40981 -3.98665 1.35668 95 78 50
-3.41845 -3.97045 1.34908 92 78 52
-3.42804 -3.95909 1.34268 75 62 48
-3.44010 -3.95918 1.33910 87 71 32
-3.45135 -3.95558 1.33462 101 83 56
-3.46820 -3.97640 1.33604 129 114 80
-3.47588 -3.97548 1.32003 138 116 85
-3.54189 -3.93059 1.29979 144 120 82
-3.52635 -3.93366 1.29209 137 115 86
-3.55237 -3.92439 1.29473 68 54 47
-3.56393 -3.92240 1.29066 65 50 44
-3.58763 -3.96599 1.29708 124 122 106
-3.59935 -3.96398 1.29295 156 151 128
-1.96527 -3.36128 1.58480 250 246 242
-1.95358 -3.36358 1.57900 237 234 212
-2.03277 -3.32528 1.55354 254 254 254
-2.02710 -3.32596 1.56536 254 254 254
-2.02414 -3.32676 1.55658 254 254 254
-2.03573 -3.32448 1.56232 254 254 254
-2.04436 -3.32299 1.55928 254 254 254
-2.04104 -3.32524 1.55105 254 254 254
-2.05263 -3.32295 1.55679 254 254 254
-2.04967 -3.32375 1.54800 254 254 254
-2.07826 -3.30810 1.53464 253 254 254
-2.07260 -3.30878 1.54642 254 254 254
-2.06966 -3.30958 1.53767 254 254 254
-2.08120 -3.30730 1.54339 254 254 254
-2.08980 -3.30582 1.54036 254 254 254
-2.08969 -3.29463 1.52709 247 254 254
-2.10118 -3.29236 1.53278 254 254 254
-2.09910 -3.28951 1.52270 240 251 254
-2.11057 -3.28724 1.52838 253 254 254
-2.10963 -3.27940 1.51644 235 242 250
-2.11922 -3.27321 1.51168 233 232 245
-2.12855 -3.26809 1.50731 234 230 243
-2.13702 -3.26670 1.50435 234 232 244
-2.14842 -3.26445 1.50999 253 253 254
-2.14591 -3.26343 1.50068 234 237 246
-2.15730 -3.26118 1.50632 253 253 254
-2.15455 -3.26125 1.49742 235 236 247
-2.16594 -3.25900 1.50306 253 253 254
-2.16325 -3.25874 1.49404 234 237 248
-2.17464 -3.25649 1.49968 253 253 254
-2.17166 -3.25764 1.49118 232 239 247
-2.18305 -3.25539 1.49683 253 253 254
-2.18028 -3.25550 1.48795 232 239 248
-2.19166 -3.25325 1.49359 253 254 254
-2.18868 -3.25443 1.48510 232 243 249
-2.20006 -3.25218 1.49074 253 254 254
-2.19717 -3.25292 1.48209 233 244 249
-2.20856 -3.25067 1.48773 252 254 254
-2.20545 -3.25247 1.47947 234 245 250
-2.21684 -3.25022 1.48511 253 254 254
-2.21446 -3.24829 1.47549 236 245 250
-2.22584 -3.24604 1.48113 253 254 254
-2.22293 -3.24684 1.47251 237 246 251
-2.23431 -3.24459 1.47814 253 254 254
-2.23321 -3.23567 1.46601 237 244 248
-2.24455 -3.23343 1.47162 253 254 254
-2.24279 -3.22797 1.46077 238 244 248
-2.25410 -3.22573 1.46637 253 254 254
-2.25125 -3.22632 1.45773 239 245 249
-2.26256 -3.22409 1.46334 253 253 254
-2.26012 -3.22236 1.45386 239 244 249
-2.27141 -3.22013 1.45946 253 253 253
-2.26891 -3.21869 1.45010 240 245 250
-2.28020 -3.21646 1.45569 253 254 253
-2.27543 -3.22834 1.45110 240 246 249
-2.28677 -3.22610 1.45672 253 254 254
-2.28404 -3.22594 1.44779 238 242 248
-2.29537 -3.22370 1.45340 252 254 254
-2.29297 -3.22146 1.44374 236 242 248
-2.30429 -3.21922 1.44934 252 254 254
-2.30081 -3.22370 1.44207 236 241 248
-2.31214 -3.22146 1.44769 252 254 254
-2.30869 -3.22582 1.44036 234 242 248
-2.32004 -3.22358 1.44598 251 253 254
-2.31743 -3.22247 1.43671 232 240 247
-2.32877 -3.22023 1.44233 251 254 254
-2.32586 -3.22113 1.43378 231 240 247
-2.33720 -3.21889 1.43939 251 253 253
-2.33471 -3.21695 1.42984 229 235 244
-2.34604 -3.21471 1.43546 251 253 254
-2.34346 -3.21334 1.42611 229 235 244
-2.35478 -3.21110 1.43172 251 253 254
-2.35250 -3.20756 1.42163 227 235 244
-2.36380 -3.20533 1.42723 251 253 254
-2.36059 -3.20847 1.41949 225 234 243
-2.36841 -3.21154 1.41808 227 234 243
-2.37627 -3.21452 1.41664 225 231 236
-2.38183 -3.21385 1.40506 175 124 134
-2.38345 -3.22300 1.41708 197 168 200
-2.39189 -3.22197 1.41424 165 120 152
-2.40007 -3.22304 1.41211 189 146 140
-2.40565 -3.22237 1.40047 235 206 180
-2.40915 -3.21659 1.40742 225 193 159
-2.41473 -3.21592 1.39580 235 202 174
-2.41746 -3.21667 1.40495 234 202 170
-2.42304 -3.21601 1.39333 234 200 172
-2.80524 -3.08515 1.24842 226 218 202
-3.19847 -4.04479 1.42442 50 50 17
-3.18269 -4.04790 1.41660 21 21 25
-3.21078 -4.04642 1.42123 76 66 36
-3.21852 -4.04549 1.40510 81 68 42
-3.28928 -4.00981 1.38648 84 71 51
-3.27358 -4.01291 1.37871 85 71 53
-3.28528 -4.01090 1.37458 87 73 53
-3.29697 -4.00889 1.37046 88 74 60
-3.30186 -4.01277 1.38362 82 71 46
-3.30956 -4.01185 1.36757 90 77 63
-3.31435 -4.01505 1.38057 86 73 47
-3.32205 -4.01412 1.36451 94 83 61
-3.32690 -4.01752 1.37757 91 77 48
-3.33462 -4.01660 1.36148 98 88 66
-3.33993 -4.02233 1.37513 94 83 48
-3.34766 -4.02140 1.35902 104 91 60
-3.35093 -4.01632 1.37000 97 84 38
-3.35865 -4.01539 1.35389 111 94 51
-3.36269 -4.01437 1.36587 99 84 36
-3.37446 -4.01242 1.36175 100 90 51
-3.38218 -4.01150 1.34565 126 109 56
-3.38583 -4.00854 1.35715 100 91 58
-3.39355 -4.00761 1.34106 132 111 60
-3.39633 -4.00048 1.35153 103 89 60
-3.40404 -3.99956 1.33547 137 110 65
-3.40763 -3.99645 1.34691 110 92 62
-3.41704 -3.98361 1.34016 111 92 63
-3.42643 -3.97110 1.33351 106 79 62
-3.43692 -3.96384 1.32815 108 81 49
-3.45147 -3.97487 1.32716 114 95 67
-3.45914 -3.97395 1.31117 137 114 76
-3.46536 -3.98261 1.32537 133 113 75
-3.47305 -3.98168 1.30933 139 118 79
-3.53956 -3.93810 1.28949 141 117 79
-3.52399 -3.94117 1.28178 138 116 87
-3.55083 -3.93486 1.28512 73 59 46
-3.56242 -3.93287 1.28103 63 58 48
-3.61345 -4.03241 1.29622 156 154 132
-3.62951 -4.02924 1.30418 160 152 127
-3.62541 -4.03035 1.29201 160 152 129
-3.62131 -4.03147 1.27983 157 153 127
-1.96363 -3.35725 1.57406 240 239 245
-1.95195 -3.35955 1.56828 206 174 148
-1.97367 -3.35089 1.56913 239 238 244
-1.98330 -3.34587 1.56471 239 235 243
-1.99292 -3.34086 1.56031 239 231 240
-2.00454 -3.33856 1.56607 254 254 254
-2.00284 -3.33460 1.55544 239 232 238
-2.01445 -3.33231 1.56119 254 254 254
-2.01249 -3.32928 1.55093 240 235 238
-2.02096 -3.32841 1.54812 240 233 239
-2.02981 -3.32608 1.54476 240 230 239
-2.03808 -3.32604 1.54226 241 229 238
-2.04682 -3.32412 1.53905 241 233 240
-2.05841 -3.32183 1.54479 254 254 254
-2.05633 -3.31907 1.53467 241 234 240
-2.06735 -3.30777 1.52794 241 234 239
-2.07627 -3.30489 1.52439 236 229 235
-2.08678 -3.29534 1.51835 220 213 224
-2.09630 -3.28975 1.51379 201 184 209
-2.10192 -3.28907 1.50209 215 177 151
-2.10532 -3.28621 1.51001 191 165 179
-2.11094 -3.28554 1.49832 216 184 143
-2.11452 -3.28183 1.50592 186 159 175
-2.12013 -3.28116 1.49424 218 182 143
-2.12307 -3.28028 1.50289 188 163 172
-2.12868 -3.27960 1.49120 217 180 151
-2.13223 -3.27599 1.49884 188 165 175
-2.13783 -3.27532 1.48717 215 178 157
-2.14128 -3.27209 1.49494 189 168 177
-2.14687 -3.27142 1.48328 218 179 158
-2.14931 -3.27286 1.49276 194 165 177
-2.15491 -3.27219 1.48109 221 185 143
-2.15883 -3.26669 1.48804 192 166 171
-2.16442 -3.26602 1.47638 221 183 148
-2.16800 -3.26201 1.48386 192 165 172
-2.17358 -3.26134 1.47223 223 185 155
-2.17606 -3.26268 1.48165 191 160 177
-2.18164 -3.26201 1.47000 223 183 149
-2.18445 -3.26172 1.47883 192 170 173
-2.19004 -3.26105 1.46719 224 183 155
-2.19358 -3.25713 1.47470 195 173 179
-2.19916 -3.25646 1.46307 219 182 155
-2.20159 -3.25810 1.47259 196 173 185
-2.20718 -3.25743 1.46095 221 180 153
-2.21099 -3.25202 1.46793 200 177 191
-2.21656 -3.25135 1.45631 218 185 153
-2.21914 -3.25228 1.46555 201 179 199
-2.22473 -3.25161 1.45392 219 181 157
-2.22744 -3.25187 1.46294 205 185 193
-2.23302 -3.25120 1.45130 218 180 163
-2.23527 -3.25401 1.46123 205 184 193
-2.24338 -3.25474 1.45902 210 186 200
-2.25077 -3.25962 1.45827 211 189 196
-2.26006 -3.25378 1.45372 209 188 202
-2.26938 -3.24762 1.44905 211 189 201
-2.27842 -3.24297 1.44493 208 181 202
-2.28400 -3.24230 1.43330 217 185 172
-2.28809 -3.23437 1.43942 205 178 206
-2.29365 -3.23370 1.42782 213 183 170
-2.29730 -3.22830 1.43482 205 173 204
-2.30286 -3.22763 1.42324 217 182 166
-2.30433 -3.23588 1.43500 203 173 204
-2.30990 -3.23521 1.42338 216 184 164
-2.31147 -3.24310 1.43504 198 169 196
-2.31706 -3.24243 1.42338 216 184 171
-2.31970 -3.24350 1.43269 195 168 194
-2.32529 -3.24283 1.42102 217 178 160
-2.32739 -3.24758 1.43161 194 156 189
-2.33300 -3.24690 1.41991 220 183 160
-2.33612 -3.24482 1.42815 195 158 185
-2.34172 -3.24415 1.41646 220 186 151
-2.34555 -3.23698 1.42295 192 157 184
-2.35115 -3.23631 1.41129 222 188 148
-2.35473 -3.23073 1.41830 190 156 176
-2.36031 -3.23006 1.40666 225 187 144
-2.36332 -3.22858 1.41507 194 158 176
-2.36890 -3.22791 1.40343 225 189 154
-2.37238 -3.22280 1.41060 194 155 177
-2.38889 -3.22344 1.40583 194 156 128
-2.39841 -3.21360 1.40000 227 199 165
-2.64430 -3.15379 1.30803 248 232 219
-2.63878 -3.15445 1.31955 247 230 214
-2.63590 -3.15523 1.31099 247 231 218
-2.64718 -3.15301 1.31658 248 232 218
-2.65558 -3.15156 1.31362 249 235 222
-2.65265 -3.15459 1.30577 248 235 222
-2.66394 -3.15236 1.31136 249 238 228
-2.66101 -3.15607 1.30370 249 237 227
-2.67231 -3.15384 1.30931 249 241 231
-2.66940 -3.15631 1.30125 250 240 231
-2.68071 -3.15408 1.30686 250 244 233
-2.67785 -3.15261 1.29759 250 244 234
-2.68916 -3.15037 1.30319 250 246 237
-2.68635 -3.14322 1.29220 251 246 237
-2.69762 -3.14100 1.29779 251 248 241
-2.69480 -3.13185 1.28623 252 248 241
-2.70602 -3.12963 1.29179 253 252 246
-2.70318 -3.12275 1.28096 252 251 245
-2.71437 -3.12054 1.28650 254 254 250
-2.71151 -3.11564 1.27631 253 252 250
-2.72267 -3.11344 1.28183 254 254 253
-2.71978 -3.10403 1.27031 253 253 253
-2.73089 -3.10184 1.27582 254 254 254
-2.72805 -3.10261 1.26739 254 254 253
-2.78585 -3.08766 1.24551 254 254 251
-2.78041 -3.08831 1.25683 254 254 254
-2.77758 -3.08908 1.24842 254 254 254
-2.78868 -3.08689 1.25392 254 254 254
-2.79415 -3.08741 1.24294 239 236 227
-2.80207 -3.07701 1.23741 190 174 157
-2.80748 -3.07636 1.22613 146 128 97
-2.81227 -3.12256 1.24812 150 127 97
-2.81779 -3.12189 1.23662 154 134 107
-3.19451 -4.04631 1.41256 49 47 27
-3.20653 -4.04606 1.40887 74 64 38
-3.21426 -4.04513 1.39275 81 65 46
-3.37288 -4.02592 1.35280 117 100 55
-3.35705 -4.02905 1.34496 109 91 61
-3.36884 -4.02702 1.34080 116 95 61
-3.38064 -4.02499 1.33664 121 100 63
-3.41966 -4.01587 1.33571 137 113 69
-3.40383 -4.01900 1.32787 127 107 73
-3.41562 -4.01697 1.32371 131 110 77
-3.42741 -4.01494 1.31956 134 111 81
-3.43085 -4.01110 1.33090 138 116 78
-3.43860 -4.01017 1.31477 134 111 85
-3.44064 -4.00000 1.32461 137 118 81
-3.44836 -3.99908 1.30851 135 113 78
-3.45173 -3.99503 1.31977 138 115 74
-3.45944 -3.99411 1.30369 136 114 80
-3.53765 -3.94736 1.27954 142 115 78
-3.52204 -3.95044 1.27181 138 117 81
-3.54812 -3.94085 1.27443 86 62 39
-3.55973 -3.93885 1.27034 63 57 42
-3.58363 -3.98345 1.27664 117 123 106
-1.96593 -3.33914 1.55798 200 172 157
-1.95433 -3.34143 1.55224 207 170 136
-1.96297 -3.33994 1.54919 205 169 140
-1.97160 -3.33846 1.54615 203 168 138
-1.97576 -3.33330 1.55327 195 173 161
-1.98143 -3.33262 1.54146 204 171 134
-1.98559 -3.32741 1.54856 197 172 160
-1.99124 -3.32673 1.53677 204 173 133
-1.99514 -3.32242 1.54419 197 172 157
-2.00079 -3.32174 1.53242 202 173 135
-2.00573 -3.31344 1.53832 196 171 154
-2.01137 -3.31276 1.52658 202 175 132
-2.01416 -3.31250 1.53550 197 173 154
-2.01980 -3.31183 1.52376 203 176 131
-2.02261 -3.31153 1.53267 199 172 153
-2.02824 -3.31085 1.52092 204 174 132
-2.03158 -3.30853 1.52908 201 174 155
-2.03721 -3.30785 1.51733 206 173 132
-2.03858 -3.31323 1.52837 203 168 152
-2.04422 -3.31256 1.51660 207 172 134
-2.04640 -3.31482 1.52649 203 170 158
-2.05205 -3.31414 1.51471 207 172 135
-2.05445 -3.31554 1.52428 203 172 160
-2.06011 -3.31487 1.51249 208 172 136
-2.06347 -3.31239 1.52062 204 176 166
-2.06912 -3.31171 1.50884 209 172 135
-2.07202 -3.31111 1.51766 203 178 167
-2.07768 -3.31043 1.50588 209 173 142
-2.08221 -3.30297 1.51217 204 176 162
-2.08786 -3.30229 1.50041 209 174 146
-2.09185 -3.29701 1.50749 209 175 158
-2.09748 -3.29634 1.49575 207 172 146
-2.24035 -3.25614 1.45057 220 182 161
-2.22892 -3.25839 1.44491 213 177 150
-2.23743 -3.25693 1.44190 214 176 144
-2.24595 -3.25546 1.43890 214 175 151
-2.24781 -3.26061 1.44966 218 183 163
-2.25342 -3.25994 1.43797 209 178 148
-2.25704 -3.25512 1.44524 211 183 158
-2.26265 -3.25445 1.43357 214 177 149
-2.26630 -3.24940 1.44074 216 185 158
-2.27189 -3.24873 1.42909 210 177 151
-2.27536 -3.24465 1.43660 213 187 166
-2.28094 -3.24398 1.42496 213 177 156
-2.37750 -3.22562 1.40016 228 191 149
-2.36610 -3.22787 1.39451 216 177 144
-2.37459 -3.22641 1.39152 215 177 143
-2.38308 -3.22495 1.38853 216 179 152
-2.38579 -3.22575 1.39770 231 200 153
-2.39510 -3.21773 1.39251 228 200 166
-2.40360 -3.21602 1.38944 228 202 171
-2.41224 -3.21312 1.38597 230 200 168
-2.41969 -3.22068 1.38598 230 201 166
-2.43110 -3.21843 1.39164 232 201 174
-2.42789 -3.22191 1.38388 231 201 164
-2.43931 -3.21965 1.38954 231 199 172
-2.43640 -3.22044 1.38088 229 200 165
-2.47112 -3.20725 1.36649 230 200 169
-2.48251 -3.20500 1.37213 234 207 185
-2.48130 -3.18706 1.35740 229 201 168
-2.49260 -3.18483 1.36300 234 208 190
-2.48986 -3.18402 1.35391 229 202 170
-2.50116 -3.18179 1.35951 235 208 193
-2.49835 -3.18163 1.35064 230 202 173
-2.50965 -3.17940 1.35623 238 210 191
-2.50657 -3.18252 1.34843 232 201 175
-2.51788 -3.18029 1.35403 239 212 189
-2.51504 -3.18043 1.34525 232 201 176
-2.52635 -3.17820 1.35085 241 213 190
-2.52366 -3.17630 1.34143 233 204 180
-2.53495 -3.17407 1.34702 241 215 189
-2.53226 -3.17213 1.33759 233 206 176
-2.54354 -3.16990 1.34318 241 214 193
-2.54047 -3.17351 1.33553 233 203 178
-2.55176 -3.17129 1.34113 240 215 199
-2.54887 -3.17219 1.33261 232 205 183
-2.56016 -3.16997 1.33820 241 218 202
-2.55702 -3.17495 1.33098 232 207 183
-2.56833 -3.17272 1.33658 242 219 198
-2.56543 -3.17387 1.32812 234 209 184
-2.57674 -3.17164 1.33373 243 219 196
-2.57383 -3.17277 1.32527 236 208 184
-2.58515 -3.17054 1.33087 246 221 200
-2.58234 -3.16977 1.32181 236 208 184
-2.59364 -3.16754 1.32741 246 224 206
-2.59095 -3.16430 1.31758 236 210 187
-2.60224 -3.16207 1.32317 245 225 207
-2.61621 -3.15903 1.30840 237 213 190
-2.62470 -3.15478 1.30458 238 213 197
-2.63308 -3.15384 1.30177 239 214 201
-2.64153 -3.15070 1.29829 238 215 199
-2.64977 -3.15537 1.29721 239 218 202
-2.65812 -3.15686 1.29513 240 219 208
