ply
format ascii 1.0
element face 0
property list uchar int vertex_indices
element vertex 1289
property float x
property float y
property float z
property uchar diffuse_red
property uchar diffuse_green
property uchar diffuse_blue
end_header
-3.19027 -3.84005 0.52063 3 6 8
-3.56950 -3.98398 0.61192 12 11 9
-3.55391 -3.97742 0.62269 6 11 6
-3.55688 -3.97834 0.60883 8 9 4
-3.57513 -4.00250 0.61416 23 22 30
-3.43831 -4.51911 0.61190 82 80 65
-3.42730 -4.51374 0.59257 58 52 37
-3.45195 -4.52705 0.61534 101 100 88
-3.46974 -4.53453 0.60303 104 102 83
-3.78544 -5.08253 0.71876 105 109 93
-3.76613 -5.07442 0.73210 110 109 91
-3.76982 -5.07556 0.71494 105 110 92
-3.80879 -5.11863 0.72585 111 124 117
-3.82819 -5.12678 0.71244 114 128 133
-3.81418 -5.15491 0.72899 113 128 125
-3.83371 -5.16312 0.71550 112 126 136
-4.08908 -5.31562 0.79821 132 141 147
-4.10460 -5.32415 0.80208 138 149 154
-4.11896 -5.33691 0.80594 147 155 160
-4.17347 -5.40106 0.82140 169 173 175
-4.19331 -5.40940 0.80769 175 189 190
-4.28616 -5.45001 0.84886 197 208 213
-4.27010 -5.44284 0.84494 184 190 208
-4.28994 -5.45118 0.83123 196 211 218
-4.30221 -5.45717 0.85278 204 210 216
-4.92526 -5.76857 1.00680 201 207 208
-4.91291 -5.76255 0.98511 201 215 225
-2.06712 -4.39470 0.28491 130 120 110
-2.07086 -4.39586 0.26748 127 117 112
-2.08665 -4.39759 0.28938 120 108 87
-2.11542 -4.38984 0.29537 85 66 48
-2.18079 -4.33961 0.30733 46 36 26
-2.20177 -4.34023 0.31202 25 20 8
-2.21505 -4.34976 0.31544 7 9 17
-2.22692 -4.35556 0.33629 72 83 79
-2.23058 -4.35670 0.31924 70 73 64
-2.23424 -4.35783 0.30218 55 55 54
-3.14395 -3.79278 0.49332 56 52 55
-3.12836 -3.78623 0.50410 36 37 45
-3.13134 -3.78715 0.49024 35 36 46
-3.13431 -3.78808 0.47638 29 35 45
-3.16006 -3.79348 0.49693 62 55 62
-3.16815 -3.80551 0.49933 48 48 54
-3.17383 -3.82110 0.50138 31 31 37
-3.18304 -3.83174 0.50396 17 15 21
-3.20111 -3.82955 0.50785 8 7 11
-3.21078 -3.83427 0.52484 3 5 8
-3.21376 -3.83520 0.51094 5 5 7
-3.56823 -3.96403 0.59607 15 8 6
-3.55271 -3.95751 0.60679 8 9 10
-3.55567 -3.95843 0.59300 8 8 5
-3.57339 -3.98321 0.59818 23 20 26
-3.58898 -3.98976 0.58741 55 75 82
-3.57199 -4.01475 0.59946 43 53 67
-3.58199 -4.02548 0.60222 50 71 73
-3.44062 -4.52231 0.59596 80 78 66
-3.42961 -4.51694 0.57662 54 54 35
-3.45429 -4.53020 0.59939 99 100 88
-3.47210 -4.53769 0.58708 104 100 84
-3.76174 -5.05933 0.69430 104 109 95
-3.74248 -5.05123 0.70761 107 108 83
-3.74615 -5.05237 0.69049 101 106 92
-3.75807 -5.05819 0.71142 108 107 83
-3.78100 -5.06743 0.68098 108 121 110
-3.77701 -5.06715 0.69808 104 114 103
-3.79049 -5.07990 0.70171 106 115 111
-3.80978 -5.08801 0.68838 114 131 139
-3.80378 -5.09332 0.70534 114 125 127
-3.82310 -5.10144 0.69199 112 127 127
-4.08214 -5.29133 0.77707 135 145 149
-4.06255 -5.28309 0.79061 126 137 137
-4.06629 -5.28425 0.77320 131 140 142
-4.07002 -5.28541 0.75578 135 145 148
-4.09997 -5.29136 0.78103 139 152 154
-4.11630 -5.29663 0.78491 145 157 158
-4.12978 -5.31227 0.78869 153 162 164
-4.14333 -5.32786 0.79249 159 167 171
-4.15840 -5.33800 0.79634 158 168 178
-4.17057 -5.35931 0.80011 172 180 179
-4.19026 -5.36759 0.78650 192 209 206
-4.18372 -5.37718 0.80393 181 192 192
-4.20346 -5.38548 0.79029 180 192 197
-4.26655 -5.40052 0.82348 185 193 208
-4.24686 -5.39224 0.83709 176 184 200
-4.25061 -5.39340 0.81959 180 187 199
-4.26279 -5.39935 0.84098 184 198 202
-4.28623 -5.40880 0.80987 204 217 211
-4.31468 -5.42041 0.83516 197 204 210
-4.32685 -5.42635 0.85655 199 208 211
-4.33060 -5.42752 0.83905 186 203 212
-4.33436 -5.42869 0.82156 177 199 213
-4.36785 -5.41702 0.84678 183 192 201
-4.35200 -5.40994 0.84291 186 192 203
-4.35574 -5.41110 0.82550 182 200 212
-4.48255 -5.44698 0.87373 199 210 220
-4.46305 -5.43878 0.88721 187 204 213
-4.46677 -5.43993 0.86988 189 201 214
-4.47049 -5.44109 0.85254 192 205 215
-4.47883 -5.44582 0.89107 199 214 222
-4.49834 -5.45402 0.87759 198 214 219
-4.79612 -5.60473 0.95124 196 210 220
-4.77656 -5.59650 0.96477 202 216 218
-4.78402 -5.59882 0.92998 189 199 211
-4.79239 -5.60357 0.96864 204 219 226
-4.80823 -5.61064 0.97251 200 218 225
-4.81196 -5.61180 0.95511 200 218 227
-5.33415 -5.87170 1.08404 205 213 224
-5.31823 -5.86459 1.08016 200 211 219
-5.32198 -5.86576 1.06267 204 210 219
-5.33790 -5.87286 1.06656 197 202 213
-5.41380 -5.81533 1.09886 205 216 219
-5.39447 -5.80720 1.11222 204 217 222
-5.39816 -5.80835 1.09504 207 217 222
-5.41012 -5.81418 1.11604 203 216 223
-5.42576 -5.82116 1.11987 197 212 223
-5.43313 -5.82346 1.08550 190 198 210
-1.75224 -4.34889 0.19412 134 124 114
-1.73229 -4.34050 0.20791 141 139 129
-1.74844 -4.34771 0.21186 134 130 125
-1.75605 -4.35007 0.17639 124 113 108
-1.76458 -4.35491 0.21580 130 129 131
-1.76839 -4.35610 0.19807 130 121 117
-2.09797 -4.39010 0.27327 126 124 103
-2.08588 -4.38421 0.25204 123 122 109
-2.10169 -4.39126 0.25590 127 127 103
-2.11844 -4.39180 0.27792 116 104 84
-2.16690 -4.36105 0.28730 75 72 70
-2.20563 -4.34113 0.29501 28 24 11
-3.14823 -3.79187 0.47967 44 42 59
-3.13859 -3.78717 0.46274 30 36 41
-3.16381 -3.79842 0.46890 63 69 84
-3.16525 -3.79126 0.48344 62 66 77
-3.17851 -3.79590 0.48662 57 61 71
-3.18538 -3.80972 0.48881 42 45 54
-3.19407 -3.82103 0.49128 29 28 37
-3.20290 -3.83221 0.49378 19 15 23
-3.22565 -3.82303 0.49842 13 8 11
-3.23528 -3.82773 0.51534 5 4 6
-3.56362 -3.95034 0.57989 15 11 14
-3.54814 -3.94383 0.59059 6 8 11
-3.55109 -3.94475 0.57683 5 7 11
-3.57120 -3.96494 0.58227 28 22 24
-3.58672 -3.97146 0.57154 43 66 73
-3.57671 -3.98350 0.58437 39 50 54
-3.58866 -4.01954 0.58874 47 64 70
-3.60436 -4.02614 0.57789 36 43 55
-3.59310 -4.04079 0.59073 40 51 64
-3.60586 -4.04649 0.59385 36 49 61
-3.60886 -4.04742 0.57983 32 43 55
-3.45051 -4.51045 0.58098 78 79 64
-3.43954 -4.50509 0.56170 52 57 35
-3.45909 -4.52845 0.58374 101 99 86
-3.47688 -4.53593 0.57144 103 100 86
-3.74527 -5.06568 0.67292 100 111 106
-3.72596 -5.05756 0.68627 105 106 96
-3.72964 -5.05870 0.66911 103 106 104
-3.74895 -5.06683 0.65576 108 122 118
-3.76458 -5.07380 0.65958 112 123 119
-3.76538 -5.06055 0.67717 107 118 110
-3.78464 -5.06865 0.66386 110 119 119
-4.09321 -5.26665 0.76008 138 149 151
-4.08116 -5.26077 0.73891 141 153 151
-4.10969 -5.27115 0.76397 144 155 157
-4.12426 -5.28246 0.76776 152 164 162
-4.14375 -5.29066 0.75429 161 175 169
-4.13888 -5.29372 0.77155 156 169 167
-4.15839 -5.30192 0.75807 158 172 174
-4.15367 -5.30450 0.77536 163 176 177
-4.16644 -5.32297 0.77908 167 181 190
-4.17983 -5.33937 0.78285 181 197 198
-4.19944 -5.34762 0.76929 192 207 210
-4.28107 -5.35665 0.80627 194 208 216
-4.26900 -5.35076 0.78507 185 200 203
-4.28479 -5.35781 0.78893 186 199 209
-4.31288 -5.36966 0.81398 199 210 216
-4.31660 -5.37082 0.79665 196 211 215
-4.33238 -5.37786 0.80051 183 191 197
-4.32820 -5.37876 0.81783 190 194 197
-4.37533 -5.40092 0.82940 188 207 209
-4.36326 -5.39503 0.80820 186 206 215
-4.37905 -5.40208 0.81206 193 208 211
-4.39484 -5.40913 0.81591 192 201 214
-4.38916 -5.41714 0.83325 189 207 219
-4.41907 -5.43967 0.84099 204 213 209
-4.43118 -5.44558 0.86227 192 201 205
-4.43492 -5.44674 0.84486 196 210 211
-4.48656 -5.44664 0.85639 186 193 203
-4.49028 -5.44780 0.83906 178 186 192
-4.50260 -5.45228 0.86024 184 197 206
-4.51466 -5.45816 0.88142 198 209 225
-4.80161 -5.59167 0.93357 187 201 216
-4.78954 -5.58578 0.91237 191 206 216
-4.80533 -5.59283 0.91622 184 196 208
-5.25908 -5.81227 1.04611 196 211 217
-5.24324 -5.80520 1.04224 198 215 219
-5.25534 -5.81111 1.06351 185 196 200
-5.26281 -5.81343 1.02871 199 219 219
-5.27492 -5.81934 1.04998 196 211 214
-5.27865 -5.82050 1.03258 199 213 214
-5.40185 -5.80909 1.07784 192 201 221
-5.38252 -5.80096 1.09120 208 219 224
-5.38621 -5.80211 1.07402 202 211 222
-5.38989 -5.80326 1.05684 199 209 218
-5.42117 -5.81722 1.06448 184 183 207
-5.41749 -5.82055 1.08187 190 201 216
-1.77480 -4.35459 0.18080 129 121 103
-1.78713 -4.36061 0.20246 130 124 118
-1.79474 -4.36298 0.16702 141 137 125
-2.13050 -4.38335 0.26204 122 110 101
-2.11847 -4.37748 0.24090 127 122 111
-2.16112 -4.37315 0.26848 116 101 87
-2.20667 -4.34532 0.27751 38 30 17
-2.21693 -4.35843 0.28039 9 10 16
-2.23615 -4.36651 0.26710 48 38 31
-3.15732 -3.78418 0.46682 44 53 56
-3.14771 -3.77948 0.44994 34 40 43
-3.17286 -3.79071 0.45608 54 63 72
-3.18873 -3.78646 0.47398 61 57 77
-3.19168 -3.78738 0.46021 58 67 68
-3.20422 -3.79297 0.46328 57 61 65
-3.19927 -3.79493 0.47672 47 46 61
-3.21477 -3.80145 0.46601 44 52 56
-3.21040 -3.80259 0.47956 37 44 49
-3.22592 -3.80911 0.46884 37 52 54
-3.23290 -3.81764 0.48528 30 29 33
-3.24374 -3.82583 0.48807 22 17 21
-3.25929 -3.83236 0.47732 39 37 35
-3.26656 -3.81614 0.49278 13 9 10
-3.27613 -3.82081 0.50959 4 4 5
-3.28318 -3.81557 0.49649 8 7 5
-3.29273 -3.82023 0.51327 4 5 5
-3.29568 -3.82114 0.49955 6 6 6
-3.54277 -3.91017 0.55899 7 6 14
-3.52741 -3.90370 0.56961 9 7 12
-3.53034 -3.90462 0.55595 7 6 18
-3.53984 -3.90925 0.57265 6 8 10
-3.55228 -3.91480 0.57569 5 7 10
-3.55418 -3.91754 0.56188 9 12 24
-3.55608 -3.94201 0.56337 14 18 29
-3.57154 -3.94852 0.55268 44 57 66
-3.56422 -3.95552 0.56579 31 32 44
-3.56821 -3.97672 0.56761 40 50 55
-3.58894 -4.02557 0.57440 36 41 60
-3.60465 -4.03218 0.56353 39 44 50
-3.46319 -4.49299 0.56649 77 81 60
-3.45227 -4.48766 0.54731 54 57 25
-3.46656 -4.49404 0.55080 75 83 57
-3.46663 -4.52117 0.56849 101 100 83
-3.48438 -4.52864 0.55622 102 100 81
-3.70035 -5.05035 0.64411 108 110 105
-3.68102 -5.04222 0.65747 111 108 89
-3.68471 -5.04337 0.64029 107 110 98
-3.69666 -5.04920 0.66129 111 106 93
-3.71231 -5.05619 0.66512 106 105 98
-3.71968 -5.05848 0.63075 115 126 123
-3.71511 -5.05965 0.64783 107 112 113
-3.73445 -5.06778 0.63447 112 125 131
-4.10673 -5.23315 0.74346 144 156 157
-4.17514 -5.30533 0.76199 161 178 186
-4.18888 -5.32018 0.76572 180 197 199
-4.20840 -5.32839 0.75223 191 205 208
-4.35239 -5.36599 0.80449 186 208 218
-4.37181 -5.37416 0.79106 197 208 219
-4.42647 -5.42302 0.82363 210 225 222
-4.43997 -5.44137 0.82747 196 208 215
-4.45207 -5.44727 0.84872 193 205 211
-4.45580 -5.44843 0.83133 193 206 209
-4.45953 -5.44959 0.81395 194 209 212
-4.50717 -5.44890 0.84291 179 193 202
-4.52470 -5.44633 0.84674 194 212 224
-4.54413 -5.45450 0.83330 198 216 224
-4.61099 -5.43558 0.86567 204 216 220
-4.59174 -5.42748 0.87898 199 208 219
-4.59908 -5.42976 0.84475 221 234 231
-4.60732 -5.43443 0.88278 195 210 218
-4.62290 -5.44139 0.88659 191 200 212
-4.62657 -5.44253 0.86948 200 212 213
-5.23167 -5.78416 1.02043 192 202 212
-5.21588 -5.77711 1.01657 193 201 203
-5.21960 -5.77827 0.99922 191 196 203
-5.22795 -5.78300 1.03778 199 219 220
-5.23539 -5.78532 1.00308 188 192 206
-5.24751 -5.78985 1.02424 192 205 215
-5.40553 -5.81353 1.06080 189 193 210
-5.39356 -5.80769 1.03979 200 214 217
-5.42486 -5.82166 1.04744 190 196 205
-2.15327 -4.36255 0.24818 134 120 108
-2.14130 -4.35671 0.22716 132 128 120
-2.15695 -4.36370 0.23098 128 126 114
-2.17643 -4.36083 0.25335 129 121 95
-2.19573 -4.36894 0.24001 112 101 84
-2.21283 -4.34353 0.26090 67 57 33
-2.23201 -4.35159 0.24765 108 94 47
-2.22634 -4.35281 0.26433 44 28 15
-2.24553 -4.36088 0.25107 96 88 58
-3.23769 -3.84015 0.47275 44 50 55
-3.22803 -3.83543 0.45578 37 47 61
-3.28553 -3.81737 0.48267 31 29 21
-3.30607 -3.81074 0.48705 24 21 19
-3.31559 -3.81539 0.50377 6 5 5
-3.32000 -3.81404 0.49034 21 19 17
-3.32951 -3.81868 0.50705 7 5 4
-3.33302 -3.81870 0.49347 19 15 15
-3.34254 -3.82334 0.51018 5 5 4
-3.34672 -3.82230 0.49672 13 8 11
-3.35622 -3.82694 0.51341 4 6 5
-3.50028 -3.85489 0.53279 7 4 3
-3.48505 -3.84848 0.54332 3 3 3
-3.48796 -3.84939 0.52978 6 3 2
-3.49738 -3.85398 0.54633 3 3 2
-3.50971 -3.85949 0.54934 2 4 6
-3.51075 -3.86358 0.53551 7 4 7
-3.52018 -3.86818 0.55208 4 4 11
-3.51856 -3.87689 0.53781 8 8 15
-3.52802 -3.88151 0.55442 5 5 12
-3.52755 -3.88828 0.54031 11 10 14
-3.53715 -3.89872 0.54290 14 12 24
-3.54360 -3.91479 0.54500 24 20 34
-3.54858 -3.93366 0.54689 34 39 56
-3.57820 -3.99355 0.55600 34 43 61
-3.58592 -4.00835 0.55834 32 34 58
-3.46767 -4.52695 0.55237 99 101 81
-3.45667 -4.52158 0.53305 74 81 60
-3.48545 -4.53442 0.54008 102 100 78
-3.67936 -5.02072 0.62011 103 110 108
-3.66010 -5.01262 0.63342 106 108 91
-3.66378 -5.01376 0.61630 105 107 101
-3.67569 -5.01957 0.63722 104 109 93
-3.69862 -5.02881 0.60679 109 126 125
-3.69156 -5.03637 0.62350 109 117 114
-3.71086 -5.04449 0.61016 112 126 119
-3.70503 -5.04890 0.62705 113 122 116
-3.72435 -5.05703 0.61370 111 120 117
-4.11866 -5.20509 0.72696 155 170 165
-4.13497 -5.20931 0.73083 164 180 177
-4.16857 -5.27886 0.74122 170 182 178
-4.15657 -5.27301 0.72014 171 186 186
-4.17228 -5.28001 0.72398 171 187 190
-4.18220 -5.29375 0.74491 172 184 191
-4.19665 -5.30571 0.74866 183 195 203
-4.21611 -5.31389 0.73521 192 204 204
-4.34626 -5.33415 0.78367 176 194 208
-4.33063 -5.32717 0.77985 190 213 220
-4.33431 -5.32831 0.76268 196 208 219
-4.40219 -5.39316 0.79870 199 206 216
-4.38646 -5.38614 0.79486 202 215 215
-4.39017 -5.38729 0.77758 202 210 219
-4.41778 -5.40088 0.80254 215 232 234
-4.43271 -5.41185 0.80636 211 227 227
-4.44570 -5.43259 0.81014 193 202 212
-4.46522 -5.44080 0.79665 201 214 217
-4.49532 -5.44198 0.82175 188 196 201
-4.47957 -5.43495 0.81790 196 212 213
-4.48328 -5.43611 0.80059 198 215 219
-4.49904 -5.44314 0.80444 194 208 216
-4.51288 -5.43940 0.82562 188 203 208
-4.53231 -5.44757 0.81219 182 198 210
-4.53042 -5.43651 0.82947 185 205 219
-4.61416 -5.43975 0.84856 218 231 228
-4.61783 -5.44089 0.83144 216 232 234
-4.62922 -5.44999 0.85238 209 219 221
-4.64482 -5.45695 0.85620 202 212 220
-4.64849 -5.45809 0.83906 197 206 216
-5.25210 -5.76382 1.00600 186 197 211
-5.25581 -5.76497 0.98875 204 214 220
-5.26808 -5.76169 1.00953 191 211 217
-5.28376 -5.76869 1.01336 199 215 220
-5.28745 -5.76984 0.99614 190 202 216
-2.18419 -4.35723 0.23695 124 120 111
-2.18787 -4.35838 0.21982 120 121 109
-2.20347 -4.36534 0.22363 123 125 101
-3.24506 -3.83452 0.45963 55 64 76
-3.23543 -3.82982 0.44270 29 38 47
-3.24804 -3.83545 0.44578 45 51 64
-3.26891 -3.82330 0.46466 69 83 81
-3.28441 -3.82982 0.45394 53 74 72
-3.27118 -3.86924 0.46686 50 61 61
-3.28685 -3.87582 0.45603 59 69 64
-3.29796 -3.87835 0.47330 40 47 50
-3.34261 -3.83419 0.48185 34 28 36
-3.35610 -3.83816 0.48508 25 18 23
-3.37310 -3.83656 0.48889 16 10 15
-3.38261 -3.84120 0.50560 4 5 4
-3.40944 -3.82926 0.49691 13 11 14
-3.41890 -3.83388 0.51352 4 5 4
-3.42462 -3.83023 0.50041 11 8 11
-3.43407 -3.83484 0.51700 3 5 4
-3.44554 -3.82178 0.50486 10 6 9
-3.45494 -3.82637 0.52138 4 4 7
-3.45700 -3.82864 0.50773 10 5 11
-3.46641 -3.83323 0.52425 4 4 11
-3.46852 -3.83545 0.51060 13 6 19
-3.47793 -3.84004 0.52714 4 3 7
-3.48195 -3.83908 0.51380 16 9 21
-3.49254 -3.84746 0.51652 23 17 18
-3.50776 -3.85386 0.50600 60 75 80
-3.50302 -3.85607 0.51922 30 24 23
-3.51138 -3.86838 0.52158 25 21 24
-3.52034 -3.87976 0.52404 26 25 38
-3.53563 -3.88620 0.51347 32 40 35
-3.53704 -3.90496 0.52877 30 35 47
-3.54345 -3.92118 0.53082 48 57 68
-3.54915 -3.93882 0.53277 61 64 73
-3.56461 -3.94533 0.52208 35 35 50
-3.56060 -3.94634 0.53566 44 40 39
-3.57607 -3.95284 0.52496 31 39 46
-3.58642 -4.01391 0.54402 34 35 54
-3.59046 -4.03584 0.54574 44 52 61
-3.59655 -4.05416 0.54780 48 53 55
-3.60633 -4.05894 0.56499 32 38 45
-3.60398 -4.07014 0.55008 46 49 45
-3.61379 -4.07492 0.56732 57 68 48
-3.61984 -4.07680 0.53912 126 154 142
-3.66002 -4.94236 0.59483 108 112 93
-3.64102 -4.93437 0.60796 109 107 83
-3.64464 -4.93549 0.59107 107 109 82
-3.65640 -4.94123 0.61172 109 107 87
-3.67177 -4.94810 0.61547 109 108 95
-3.66705 -4.97005 0.59744 108 114 106
-3.68614 -4.97808 0.58425 110 123 123
-3.67599 -4.99338 0.60034 103 114 115
-3.69515 -5.00143 0.58709 110 128 125
-3.68677 -5.01234 0.60349 102 117 123
-3.70598 -5.02042 0.59021 110 126 120
-4.05344 -5.08439 0.68971 137 146 140
-4.03456 -5.07645 0.70276 129 140 132
-4.03816 -5.07757 0.68598 135 146 134
-4.04984 -5.08327 0.70649 130 144 139
-4.06511 -5.09009 0.71023 133 141 141
-4.07231 -5.09233 0.67667 146 156 161
-4.06631 -5.09921 0.69319 140 149 144
-4.07800 -5.10492 0.71374 136 141 137
-4.08522 -5.10716 0.68012 147 158 160
-4.09257 -5.12770 0.70022 144 155 148
-4.08896 -5.12657 0.71709 140 149 142
-4.09619 -5.12882 0.68336 150 163 162
-4.10463 -5.14596 0.70364 146 158 149
-4.11524 -5.16959 0.70693 154 168 160
-4.12910 -5.18215 0.71055 166 179 176
-4.14821 -5.19019 0.69734 186 199 194
-4.14291 -5.19504 0.71417 170 183 178
-4.15273 -5.22266 0.71742 171 184 179
-4.17195 -5.23074 0.70413 174 187 189
-4.18831 -5.28575 0.72784 178 190 194
-4.17631 -5.27989 0.70676 174 189 185
-4.20322 -5.29581 0.73161 186 199 205
-4.22263 -5.30398 0.71819 193 211 210
-4.25462 -5.29960 0.74346 181 191 199
-4.23897 -5.29262 0.73964 176 192 196
-4.24266 -5.29376 0.72245 177 193 196
-4.25093 -5.29846 0.76066 170 181 192
-4.27396 -5.30774 0.73010 188 204 211
-4.27283 -5.29611 0.74749 185 198 208
-4.28477 -5.30194 0.76846 184 202 210
-4.28845 -5.30308 0.75130 183 200 215
-4.29213 -5.30423 0.73415 183 205 215
-4.35518 -5.31206 0.76684 192 207 211
-4.34329 -5.30625 0.74596 203 216 228
-4.35885 -5.31320 0.74976 203 217 219
-4.37440 -5.32014 0.75356 189 205 210
-4.40940 -5.37773 0.78161 196 204 218
-4.39742 -5.37188 0.76056 207 217 225
-4.41310 -5.37888 0.76439 203 212 212
-4.42424 -5.38881 0.78540 211 227 239
-4.43726 -5.40888 0.78910 218 237 236
-4.45671 -5.41706 0.77566 192 207 221
-4.44998 -5.43095 0.79281 196 214 215
-4.46949 -5.43915 0.77933 204 218 218
-4.51817 -5.43205 0.80840 196 213 216
-4.50617 -5.42619 0.78732 191 206 219
-4.52186 -5.43320 0.79115 199 215 219
-4.60238 -5.43312 0.82763 213 229 232
-4.58312 -5.42502 0.84095 213 225 235
-4.59047 -5.42730 0.80670 196 211 222
-4.63356 -5.44700 0.83525 208 218 222
-5.27256 -5.73478 0.99146 198 207 220
-5.29183 -5.74289 0.97814 182 196 211
-5.41291 -5.80901 1.02618 203 210 212
-5.39728 -5.80204 1.02236 207 219 218
-5.40096 -5.80318 1.00519 205 214 216
-5.42854 -5.81599 1.02999 190 196 201
-5.45982 -5.83313 1.03775 192 199 210
-5.46351 -5.83427 1.02058 180 182 187
-5.47534 -5.82883 1.04113 203 211 221
-5.48727 -5.83465 1.06209 205 214 225
-5.49098 -5.83841 1.04505 202 207 222
-5.50291 -5.84423 1.06601 201 210 219
-5.50637 -5.83228 1.04833 196 201 214
-5.51827 -5.83809 1.06925 193 203 214
-5.52194 -5.83923 1.05214 189 196 210
-3.26149 -3.83980 0.44901 57 74 77
-3.27402 -3.87039 0.45290 53 67 62
-3.32149 -3.87265 0.46387 57 68 71
-3.34999 -3.85332 0.46977 53 53 59
-3.36563 -3.85397 0.47338 37 30 41
-3.38112 -3.85478 0.47697 35 37 50
-3.40077 -3.84882 0.48128 34 39 49
-3.41307 -3.85462 0.48429 29 28 41
-3.44296 -3.83164 0.49039 29 21 38
-3.45571 -3.83645 0.49348 29 22 39
-3.46586 -3.84560 0.49611 35 25 51
-3.48111 -3.85202 0.48556 42 45 56
-3.47982 -3.84840 0.49941 37 35 57
-3.49490 -3.84929 0.50290 49 58 70
-3.51799 -3.86293 0.50865 45 62 54
-3.52204 -3.88277 0.51024 43 53 36
-3.53734 -3.88921 0.49966 22 30 26
-3.54371 -3.92683 0.51667 39 45 62
-3.53417 -3.92217 0.49991 31 35 46
-3.54666 -3.92774 0.50296 33 37 48
-3.55914 -3.93332 0.50601 36 33 62
-3.55095 -3.94181 0.51883 39 39 68
-3.56642 -3.94831 0.50813 33 39 63
-3.58067 -4.00186 0.52764 34 42 51
-3.57099 -3.99714 0.51064 28 46 35
-3.59632 -4.00844 0.51683 36 53 58
-3.58907 -4.01547 0.53002 41 51 61
-3.59371 -4.03632 0.53178 49 69 57
-3.60277 -4.04900 0.53428 48 56 68
-3.61856 -4.05564 0.52337 114 150 159
-3.65577 -4.91824 0.57529 106 114 104
-3.63685 -4.91029 0.58837 107 107 87
-3.64046 -4.91141 0.57155 105 109 97
-3.67469 -4.92620 0.56221 116 129 130
-3.66534 -4.93928 0.57819 111 119 116
-3.68433 -4.94726 0.56507 113 125 134
-3.67438 -4.96195 0.58101 111 119 120
-3.69343 -4.96996 0.56785 111 127 130
-4.05679 -5.08632 0.67291 145 158 158
-4.07567 -5.09426 0.65986 148 157 156
-4.11146 -5.13596 0.68710 157 166 163
-4.09973 -5.13023 0.66648 154 165 160
-4.12314 -5.15576 0.69044 169 177 172
-4.13534 -5.17405 0.69384 180 192 188
-4.15441 -5.18207 0.68066 181 194 195
-4.19685 -5.26839 0.71109 182 197 191
-4.18490 -5.26256 0.69010 187 195 195
-4.20054 -5.26954 0.69392 189 201 199
-4.21618 -5.27652 0.69774 183 196 198
-4.21116 -5.28056 0.71478 187 205 215
-4.23050 -5.28869 0.70141 193 206 201
-4.26159 -5.28747 0.72658 184 199 202
-4.43069 -5.37663 0.76835 207 214 224
-4.41873 -5.37079 0.74734 204 210 208
-4.43438 -5.37778 0.75116 204 215 215
-4.45002 -5.38476 0.75499 198 210 223
-4.44294 -5.40035 0.77195 206 214 230
-4.46234 -5.40851 0.75854 203 220 222
-4.54152 -5.41843 0.79518 198 209 220
-4.54520 -5.41958 0.77801 208 217 222
-4.55715 -5.42541 0.79899 195 211 221
-4.56083 -5.42655 0.78183 193 201 220
-4.60570 -5.43636 0.81050 206 216 228
-4.59378 -5.43055 0.78956 195 210 219
-4.60938 -5.43751 0.79337 195 204 217
-4.62497 -5.44447 0.79718 200 212 224
-4.62208 -5.43853 0.81433 212 223 231
-4.64133 -5.44663 0.80103 196 201 224
-4.63733 -5.44754 0.81813 203 209 221
-4.65659 -5.45564 0.80482 212 220 233
-4.65408 -5.44713 0.82196 202 211 217
-4.66597 -5.45294 0.84286 201 208 216
-4.67331 -5.45522 0.80867 221 232 231
-5.26108 -5.71484 0.97015 198 205 214
-5.24553 -5.70790 0.96635 206 214 215
-5.24919 -5.70904 0.94927 199 211 217
-5.26474 -5.71598 0.95307 185 192 206
-5.28029 -5.72292 0.95687 173 187 202
-5.41659 -5.80651 1.00889 200 210 211
-5.42027 -5.80765 0.99173 194 204 210
-5.43589 -5.81462 0.99555 189 203 206
-5.52542 -5.83084 1.03467 186 198 205
-5.53730 -5.83664 1.05554 191 201 211
-5.54096 -5.83778 1.03847 196 204 214
-3.22850 -3.86998 0.42773 36 41 47
-3.21576 -3.86429 0.42462 29 32 44
-3.21876 -3.86522 0.41062 43 40 30
-3.23150 -3.87091 0.41374 31 35 31
-3.24413 -3.89628 0.43212 31 30 39
-3.30576 -3.87737 0.44580 53 64 62
-3.32473 -3.87317 0.45006 54 59 67
-3.34032 -3.87972 0.43928 35 35 40
-3.35398 -3.85259 0.45621 53 49 58
-3.37159 -3.85010 0.46020 51 50 54
-3.38809 -3.84926 0.46399 61 68 70
-3.40719 -3.84412 0.46825 53 65 74
-3.42213 -3.84557 0.47174 48 56 61
-3.43746 -3.85202 0.46114 35 45 56
-3.43569 -3.84922 0.47498 51 55 62
-3.45101 -3.85566 0.46439 37 45 54
-3.46958 -3.84515 0.48269 53 55 68
-3.49855 -3.84892 0.48950 36 38 53
-3.51377 -3.85532 0.47898 23 26 27
-3.50911 -3.85740 0.49219 35 35 46
-3.52435 -3.86381 0.48166 24 28 28
-3.51746 -3.86974 0.49449 30 34 45
-3.53273 -3.87616 0.48394 26 31 38
-3.52390 -3.88552 0.49644 28 33 31
-3.53921 -3.89196 0.48586 28 32 41
-3.57925 -4.01097 0.51296 34 51 55
-3.56954 -4.00623 0.49592 26 49 47
-3.58224 -4.01190 0.49902 30 51 61
-3.59642 -4.03779 0.51773 37 42 42
-3.60197 -4.05719 0.51958 55 71 85
-3.61779 -4.06384 0.50865 160 194 207
-3.63518 -4.89023 0.55202 104 110 100
-3.61633 -4.88230 0.56505 107 105 87
-3.61992 -4.88342 0.54829 101 103 91
-3.63158 -4.88911 0.56877 107 108 92
-3.64908 -4.90032 0.55553 106 115 107
-3.66795 -4.90826 0.54249 116 126 121
-4.11634 -5.13270 0.67040 161 169 170
-4.12897 -5.14911 0.67380 164 175 179
-4.14278 -5.16155 0.67736 173 188 188
-4.16180 -5.16955 0.66422 185 195 198
-4.25495 -5.26043 0.70622 183 190 198
-4.24308 -5.25463 0.68536 189 208 212
-4.27415 -5.26850 0.69295 203 208 214
-4.27114 -5.26472 0.71009 188 199 203
-4.30702 -5.25837 0.71819 189 208 216
-4.31883 -5.26414 0.73895 198 216 217
-4.95399 -5.57407 0.87705 195 204 209
-4.93478 -5.56600 0.89033 193 207 210
-4.93845 -5.56714 0.87326 201 207 204
-4.95765 -5.57521 0.85998 197 218 222
-4.97319 -5.58215 0.86378 199 216 224
-5.09796 -5.57287 0.91028 198 201 207
-5.07900 -5.56490 0.92339 196 208 216
-5.08262 -5.56602 0.90653 205 214 220
-5.10158 -5.57400 0.89343 207 214 219
-5.10969 -5.57860 0.93089 196 195 213
-5.11324 -5.58087 0.91405 194 195 208
-5.12497 -5.58660 0.93466 190 197 224
-5.12859 -5.58772 0.91780 192 203 216
-5.13221 -5.58885 0.90094 198 208 211
-5.40468 -5.79208 0.98766 196 206 215
-5.38541 -5.78398 1.00098 207 214 216
-5.38908 -5.78512 0.98386 199 209 218
-5.40835 -5.79322 0.97054 185 193 196
-5.54365 -5.79847 1.01996 188 200 218
-5.55907 -5.80536 1.02373 185 194 206
-5.56271 -5.80649 1.00679 181 186 195
-3.23188 -3.89523 0.41446 28 30 30
-3.26787 -3.89081 0.42272 16 21 22
-3.28010 -3.89730 0.42573 24 30 38
-3.29586 -3.90393 0.41484 39 43 52
-3.30292 -3.88736 0.43078 37 45 53
-3.31860 -3.89395 0.41994 39 44 53
-3.32977 -3.87086 0.43659 40 44 52
-3.34535 -3.87741 0.42582 34 42 49
-3.37384 -3.85212 0.44635 36 40 39
-3.37678 -3.85304 0.43263 31 43 51
-3.38927 -3.85861 0.43568 36 45 65
-3.39166 -3.84915 0.45042 45 48 63
-3.40706 -3.85563 0.43977 35 42 60
-3.47288 -3.84539 0.46921 40 45 57
-3.46345 -3.84079 0.45264 35 39 52
-3.47579 -3.84630 0.45566 42 39 48
-3.48813 -3.85181 0.45867 35 36 44
-3.48513 -3.85107 0.47221 32 41 49
-3.50038 -3.85748 0.46167 27 31 37
-3.49933 -3.85342 0.47557 26 35 40
-3.51456 -3.85983 0.46504 23 30 33
-3.59225 -4.02259 0.50163 33 47 58
-3.59774 -4.04192 0.50341 49 74 61
-3.61351 -4.04855 0.49251 168 197 212
-3.56590 -4.13267 0.49839 115 151 151
-3.58206 -4.13947 0.48722 167 196 223
-3.61282 -4.86696 0.52858 96 104 105
-3.59401 -4.85905 0.54158 105 106 91
-3.59760 -4.86017 0.52486 102 102 98
-3.60923 -4.86585 0.54530 100 104 92
-3.63794 -4.89336 0.53512 107 111 115
-3.65680 -4.90129 0.52208 118 130 123
-3.65343 -4.89962 0.53888 113 119 119
-3.67229 -4.90755 0.52585 118 125 121
-3.95337 -5.05197 0.61265 130 142 146
-3.96508 -5.05768 0.63322 127 137 136
-3.97230 -5.05993 0.59957 139 147 147
-4.10644 -5.12069 0.65006 151 165 162
-4.08751 -5.11273 0.66314 146 155 154
-4.09112 -5.11385 0.64632 143 154 160
-4.09473 -5.11497 0.62949 142 156 164
-4.12043 -5.13215 0.65361 161 171 171
-4.13938 -5.14012 0.64052 167 180 183
-4.13366 -5.14646 0.65707 165 178 182
-4.14779 -5.15773 0.66065 173 187 191
-4.26351 -5.24188 0.68977 198 213 209
-4.26715 -5.24302 0.67278 192 210 216
-4.28263 -5.24992 0.67656 195 206 219
-4.29680 -5.24596 0.69762 202 214 219
-4.34986 -5.23736 0.70974 196 217 208
-4.36521 -5.24421 0.71349 183 200 211
-4.36882 -5.24533 0.69664 185 200 203
-4.50973 -5.35933 0.75013 187 200 210
-4.49424 -5.35242 0.74634 192 204 209
-4.49789 -5.35355 0.72932 200 207 220
-4.52888 -5.36738 0.73689 178 191 205
-4.83760 -5.48365 0.82965 204 216 213
-4.82217 -5.47676 0.82588 205 218 217
-4.83396 -5.48252 0.84660 190 201 200
-4.84123 -5.48478 0.81271 207 220 228
-4.84939 -5.48941 0.85037 189 205 207
-4.85303 -5.49054 0.83342 190 204 207
-5.07232 -5.53975 0.88572 194 206 217
-5.05344 -5.53181 0.89878 196 214 219
-5.06064 -5.53405 0.86520 184 194 210
-5.06872 -5.53863 0.90251 202 214 223
-5.07593 -5.54087 0.86894 182 194 210
-5.54712 -5.79301 1.00281 180 190 200
-5.53534 -5.78727 0.98212 184 192 208
-2.61550 -3.98742 0.25744 98 88 97
-2.59830 -3.98019 0.26932 129 125 114
-2.60486 -3.98222 0.23875 148 140 129
-2.61222 -3.98640 0.27272 89 87 82
-2.62613 -3.99261 0.27612 65 61 74
-2.61115 -4.01585 0.25707 70 76 75
-2.61292 -4.03709 0.25797 50 47 53
-2.62367 -4.04234 0.27686 46 47 44
-2.62699 -4.04337 0.26140 45 45 39
-2.63030 -4.04440 0.24595 46 44 45
-3.07433 -3.95766 0.36419 15 20 38
-3.05801 -3.95080 0.37548 27 36 34
-3.06112 -3.95177 0.36097 28 32 27
-3.06423 -3.95273 0.34645 29 32 25
-3.08443 -3.96259 0.38193 51 48 36
-3.08521 -3.96693 0.36695 75 80 96
-3.09532 -3.97186 0.38471 56 48 34
-3.11766 -3.94488 0.37405 133 144 136
-3.12769 -3.94977 0.39166 53 39 36
-3.13078 -3.95073 0.37725 160 167 137
-3.14080 -3.95562 0.39486 54 43 35
-3.14385 -3.95666 0.38045 165 168 123
-3.15675 -3.96283 0.38361 111 105 68
-3.23460 -3.87171 0.39976 62 44 29
-3.23611 -3.89434 0.40063 53 32 22
-3.25129 -3.89644 0.40423 40 27 16
-3.26948 -3.89388 0.40843 26 25 24
-3.28071 -3.90194 0.41125 31 34 44
-3.29648 -3.90858 0.40034 37 39 45
-3.58493 -4.01338 0.48502 29 41 60
-3.57224 -4.00772 0.48192 19 39 55
-3.56912 -4.10276 0.48335 136 160 173
-3.58517 -4.10951 0.47226 176 196 217
-3.53677 -4.29131 0.48008 129 130 141
-3.51998 -4.28425 0.49169 169 193 200
-3.52318 -4.28524 0.47675 167 190 207
-3.52638 -4.28624 0.46182 168 191 206
-3.54716 -4.29638 0.49833 66 54 50
-3.55037 -4.29738 0.48340 66 55 48
-3.54005 -4.35120 0.48221 42 41 17
-3.54329 -4.35221 0.46708 43 36 13
-3.55057 -4.35634 0.50070 70 75 62
-3.55382 -4.35735 0.48557 68 74 56
-3.59127 -4.88453 0.50636 106 105 104
-3.61018 -4.89248 0.49329 117 128 132
-3.62703 -4.88585 0.51476 111 124 121
-3.64588 -4.89378 0.50173 121 132 129
-3.92857 -5.03279 0.58871 135 150 152
-3.90967 -5.02484 0.60177 126 142 136
-3.93218 -5.03391 0.57191 139 151 153
-3.94747 -5.04074 0.57565 147 159 154
-3.94358 -5.04047 0.59240 141 153 152
-3.96248 -5.04842 0.57933 139 149 157
-4.11024 -5.12115 0.63326 151 169 170
-4.09854 -5.11543 0.61270 156 165 171
-4.11385 -5.12227 0.61644 156 167 173
-4.12917 -5.12911 0.62018 165 179 183
-4.12423 -5.13264 0.63680 165 181 179
-4.14317 -5.14061 0.62370 168 178 179
-4.15244 -5.15518 0.64392 164 176 189
-4.15606 -5.15630 0.62704 167 175 173
-4.17142 -5.16316 0.63080 171 181 183
-4.16732 -5.16377 0.64760 170 185 193
-4.17907 -5.16950 0.66823 188 198 203
-4.18136 -5.17555 0.65115 180 196 197
-4.19312 -5.18129 0.67181 186 194 198
-4.19674 -5.18241 0.65491 187 199 203
-4.30336 -5.23495 0.68107 196 207 219
-4.29159 -5.22921 0.66040 206 217 222
-4.30699 -5.23608 0.66416 208 224 228
-4.39089 -5.22189 0.70127 197 211 225
-4.98297 -5.51418 0.84656 201 213 215
-4.96765 -5.50734 0.84282 193 205 213
-4.99469 -5.51990 0.86714 202 219 224
-4.99845 -5.51922 0.85030 202 215 221
-5.01016 -5.52494 0.87088 200 212 217
-5.01738 -5.52718 0.83722 176 193 220
-5.01369 -5.52710 0.85405 192 207 217
-5.02901 -5.53394 0.85779 185 195 206
-5.09175 -5.53943 0.87261 190 198 212
-5.08009 -5.53374 0.85212 196 203 217
-5.11061 -5.54736 0.85958 203 214 226
-5.42758 -5.77951 0.95671 191 210 211
-5.41205 -5.77258 0.95292 182 195 198
-5.41571 -5.77372 0.93586 179 192 197
-5.44310 -5.78644 0.96051 200 216 215
-5.56481 -5.75375 0.98826 185 187 195
-5.55314 -5.74806 0.96776 192 207 222
-5.56840 -5.75487 0.97149 195 204 213
-5.58367 -5.76169 0.97522 181 194 210
-5.58015 -5.76312 0.99206 179 184 196
-5.59903 -5.77106 0.97902 178 193 218
-5.61020 -5.76345 0.99911 192 212 220
-5.63993 -5.75982 1.00599 176 188 209
-5.65519 -5.76815 1.00975 179 199 214
-5.66680 -5.77382 1.03014 187 201 207
-5.67038 -5.77493 1.01346 186 205 220
-5.67395 -5.77605 0.99678 193 207 215
-2.61988 -3.98710 0.24239 119 109 99
-2.60925 -3.98191 0.22371 135 137 125
-2.60041 -4.03398 0.23870 76 82 76
-2.61392 -4.04096 0.24202 52 47 53
-2.63132 -4.04827 0.23000 43 45 49
-3.07009 -3.96918 0.34815 16 20 32
-3.05996 -3.96423 0.33036 30 33 24
-3.08832 -3.96790 0.35242 69 75 105
-3.11772 -3.97538 0.35950 224 233 226
-3.13404 -3.98224 0.34822 232 239 243
-3.13767 -3.97132 0.36412 225 233 217
-3.13595 -3.99937 0.36426 189 188 168
-3.18204 -3.95601 0.37428 166 160 138
-3.20942 -3.94019 0.38043 173 165 126
-3.22436 -3.94301 0.38401 135 129 67
-3.28819 -3.89596 0.39814 44 36 32
-3.57257 -3.98458 0.46688 25 26 43
-3.55697 -3.97801 0.47766 27 43 51
-3.55994 -3.97894 0.46379 22 38 56
-3.56959 -3.98365 0.48075 24 44 51
-3.53339 -4.30525 0.46384 131 136 145
-3.52297 -4.30016 0.44552 169 191 202
-3.51961 -4.36573 0.46176 70 57 49
-3.53671 -4.37292 0.44994 40 35 18
-3.56905 -4.86098 0.48298 101 104 111
-3.55020 -4.85305 0.49602 105 104 94
-3.55379 -4.85417 0.47926 104 109 109
-3.55739 -4.85529 0.46249 118 123 118
-3.59621 -4.88253 0.48980 116 127 134
-3.61510 -4.89047 0.47674 116 130 132
-4.05349 -5.09194 0.60163 142 147 145
-4.03458 -5.08399 0.61470 141 147 154
-4.03819 -5.08511 0.59789 136 146 142
-4.04179 -5.08623 0.58107 141 154 148
-4.06519 -5.09765 0.62218 150 163 161
-4.07241 -5.09989 0.58855 154 163 158
-4.06818 -5.10083 0.60526 153 162 161
-4.07989 -5.10654 0.62582 146 161 167
-4.08350 -5.10767 0.60900 157 171 173
-4.08710 -5.10879 0.59218 155 160 162
-4.19012 -5.15760 0.63510 174 188 196
-4.19373 -5.15872 0.61827 178 187 192
-4.20905 -5.16556 0.62201 181 185 192
-4.20554 -5.16407 0.63886 185 197 201
-4.21725 -5.16979 0.65943 192 209 204
-4.22086 -5.17091 0.64260 190 201 204
-4.34343 -5.22552 0.67254 204 223 223
-4.36236 -5.23348 0.65946 190 205 216
-4.38158 -5.20583 0.68115 193 207 210
-4.40037 -5.21373 0.66816 212 228 231
-4.39757 -5.20909 0.68499 208 216 223
-4.41390 -5.21066 0.68886 214 221 231
-4.43265 -5.21855 0.67590 191 201 217
-4.42991 -5.21355 0.69269 203 209 218
-4.97260 -5.49366 0.82602 202 216 217
-4.95372 -5.48572 0.83907 199 210 211
-4.95732 -5.48684 0.82228 204 215 216
-4.96092 -5.48796 0.80550 198 212 226
-4.97620 -5.49478 0.80923 206 218 227
-4.98858 -5.49260 0.82976 193 202 211
-5.00743 -5.50053 0.81673 192 198 209
-5.00353 -5.50300 0.83349 181 190 216
-5.02239 -5.51093 0.82045 193 198 209
-5.04765 -5.54592 0.84471 192 208 212
-5.06298 -5.55277 0.84846 196 207 219
-5.44653 -5.74645 0.94260 188 199 205
-5.46194 -5.75332 0.94636 183 189 201
-5.46557 -5.75445 0.92944 178 189 203
-5.65818 -5.75678 0.99269 182 195 203
-5.67691 -5.76465 0.97975 193 202 218
-1.83962 -4.05737 0.04232 144 141 143
-1.82088 -4.04949 0.05527 148 142 132
-1.82445 -4.05060 0.03861 143 134 136
-1.83604 -4.05626 0.05898 151 140 127
-1.85479 -4.06414 0.04602 152 155 141
-1.85836 -4.06526 0.02936 153 151 149
-2.58760 -4.03121 0.21935 135 126 108
-2.57684 -4.02596 0.20044 141 140 143
-2.60064 -4.06238 0.22294 55 51 68
-2.61815 -4.06974 0.21085 45 45 53
-3.06012 -3.98896 0.33079 17 20 21
-3.04994 -3.98399 0.31289 32 34 28
-3.06327 -3.98994 0.31615 22 27 28
-3.06971 -4.00033 0.33324 49 50 63
-3.10256 -3.97785 0.34068 148 162 175
-3.11311 -3.98770 0.34334 213 224 234
-3.15563 -3.97564 0.35323 225 232 230
-3.15873 -3.97661 0.33878 231 237 240
-3.18192 -3.96177 0.35925 221 226 223
-3.19809 -3.96857 0.34808 240 246 248
-3.20963 -3.94547 0.36557 234 238 222
-3.22987 -3.94021 0.37028 229 231 197
-3.25120 -3.93311 0.37523 184 184 151
-3.25254 -3.95679 0.37593 112 97 91
-3.29907 -3.91017 0.38623 60 31 37
-3.32905 -3.88879 0.39300 42 26 23
-3.33873 -3.89352 0.41001 37 42 53
-3.34171 -3.89444 0.39609 35 34 38
-3.49180 -3.93800 0.43239 28 35 38
-3.47624 -3.93146 0.44315 23 32 22
-3.47921 -3.93238 0.42931 29 38 27
-3.48217 -3.93330 0.41548 21 19 10
-3.48883 -3.93708 0.44623 27 35 38
-3.50143 -3.94270 0.44930 31 34 43
-3.52120 -3.94185 0.43942 23 30 38
-3.53080 -3.94653 0.45630 28 32 43
-3.53376 -3.94746 0.44249 21 28 50
-3.56621 -3.97388 0.45061 36 34 40
-3.56931 -3.99696 0.45171 72 81 95
-3.52823 -4.32275 0.44713 132 137 142
-3.51776 -4.31764 0.42873 169 189 199
-3.51239 -4.38757 0.44440 69 57 50
-3.52959 -4.39480 0.43251 34 31 17
-3.57512 -4.85639 0.46672 112 122 121
-3.56347 -4.85071 0.44625 126 130 117
-3.57871 -4.85751 0.44997 113 124 124
-3.59396 -4.86431 0.45370 118 130 123
-3.58615 -4.87301 0.46960 117 128 122
-3.60503 -4.88095 0.45655 120 129 126
-3.96353 -5.00416 0.56120 145 159 157
-3.97869 -5.01092 0.56491 136 148 153
-4.17839 -5.15196 0.61452 176 188 192
-4.16668 -5.14624 0.59395 169 182 183
-4.18200 -5.15308 0.59769 170 186 194
-4.22870 -5.15584 0.62652 186 197 201
-4.24036 -5.16154 0.64701 188 201 204
-4.24396 -5.16265 0.63025 191 210 210
-4.24756 -5.16377 0.61348 186 206 208
-4.38561 -5.20496 0.66452 191 210 218
-4.38919 -5.20608 0.64782 188 203 217
-4.41913 -5.20415 0.67246 194 204 224
-4.42270 -5.20526 0.65582 204 219 232
-4.44724 -5.22818 0.67951 194 209 218
-4.45082 -5.22929 0.66283 187 206 211
-4.46600 -5.23607 0.66654 193 220 219
-4.46106 -5.24158 0.68300 198 215 223
-4.47986 -5.24948 0.67001 201 210 214
-4.47412 -5.25900 0.68638 215 230 231
-4.49296 -5.26692 0.67336 186 181 202
-4.49141 -5.25550 0.69043 188 194 215
-4.50662 -5.26229 0.69414 189 204 223
-4.51021 -5.26341 0.67743 195 207 225
-4.99296 -5.48459 0.81305 201 213 217
-4.98133 -5.47891 0.79260 200 212 221
-5.03709 -5.52506 0.82416 198 211 214
-5.05599 -5.53301 0.81110 212 226 226
-5.05149 -5.54398 0.82787 201 214 218
-5.07043 -5.55195 0.81478 209 224 226
-5.06652 -5.55501 0.83161 200 206 216
-5.08186 -5.56185 0.83536 199 202 219
-5.40404 -5.69403 0.91389 199 207 214
-5.39234 -5.68832 0.89334 213 218 222
-5.40764 -5.69515 0.89708 206 210 216
-5.42295 -5.70198 0.90082 195 198 201
-5.41934 -5.70680 0.91772 188 200 203
-5.43828 -5.71476 0.90464 190 196 198
-5.64633 -5.74500 0.97218 196 202 210
-5.63476 -5.73935 0.95186 203 210 215
-5.66503 -5.75286 0.95925 205 214 217
-5.66138 -5.74991 0.97583 195 206 218
-5.68007 -5.75777 0.96291 191 190 215
-1.83524 -4.04478 0.02359 139 136 126
-1.81653 -4.03692 0.03651 146 134 128
-1.82010 -4.03803 0.01989 141 134 123
-1.83880 -4.04589 0.00696 131 122 108
-1.83919 -4.12759 0.02555 150 153 132
-1.82380 -4.12072 0.02180 149 147 142
-1.83556 -4.12646 0.04245 150 148 125
-1.85094 -4.13333 0.04621 149 141 119
-1.85819 -4.13558 0.01242 135 118 116
-2.02060 -4.19019 0.06965 149 142 128
-2.00528 -4.18335 0.06591 147 150 126
-2.01699 -4.18907 0.08648 142 143 120
-2.03232 -4.19591 0.09023 134 135 117
-2.03954 -4.19815 0.05656 132 132 108
-2.03283 -4.20033 0.07270 130 119 118
-2.04817 -4.20717 0.07644 120 115 120
-2.05179 -4.20830 0.05959 135 128 92
-2.20900 -4.24295 0.11529 129 119 120
-2.19018 -4.23503 0.12830 137 141 121
-2.19377 -4.23615 0.11157 134 129 121
-2.19736 -4.23727 0.09484 133 129 124
-2.22065 -4.24863 0.13574 135 129 108
-2.58647 -4.08497 0.20347 58 56 68
-3.06391 -4.01428 0.31660 33 34 51
-3.05367 -4.00928 0.29861 30 30 24
-3.06567 -4.03727 0.31731 128 144 167
-3.08231 -4.04427 0.30580 196 212 226
-3.10994 -3.99793 0.32739 204 217 232
-3.12636 -4.00484 0.31604 227 235 240
-3.13360 -3.98849 0.33292 228 236 241
-3.14994 -3.99537 0.32162 231 236 241
-3.18030 -3.96983 0.34384 235 239 243
-3.18339 -3.97079 0.32944 235 239 244
-3.19650 -3.97664 0.33265 240 244 247
-3.25439 -3.93383 0.36109 234 239 234
-3.27667 -3.92502 0.36630 219 221 203
-3.29481 -3.92249 0.37060 188 184 143
-3.27211 -3.98419 0.36595 124 115 78
-3.34598 -3.89334 0.38246 66 52 38
-3.35566 -3.89806 0.39946 33 40 48
-3.35864 -3.89899 0.38555 45 24 14
-3.51411 -3.93274 0.42310 27 14 12
-3.52301 -3.94479 0.42537 29 16 16
-3.54696 -3.98658 0.43161 66 84 107
-3.58057 -4.01170 0.43994 189 206 209
-3.59626 -4.01830 0.42910 195 214 227
-3.51681 -4.35266 0.42894 133 136 138
-3.50626 -4.34751 0.41040 168 189 202
-3.51033 -4.39922 0.42797 68 54 47
-3.52758 -4.40648 0.41605 25 28 16
-3.52804 -4.43238 0.43261 56 66 51
-3.53877 -4.43761 0.45145 94 97 80
-3.54207 -4.43864 0.43604 90 97 74
-3.96571 -5.00948 0.54427 121 132 136
-3.98447 -5.01737 0.53130 141 161 156
-4.03135 -5.07648 0.56077 140 148 146
-4.01245 -5.06854 0.57383 142 152 153
-4.01966 -5.07078 0.54024 155 163 161
-4.02774 -5.07536 0.57757 141 150 151
-4.06045 -5.09504 0.56795 149 161 159
-4.07936 -5.10300 0.55487 158 172 174
-4.09181 -5.10618 0.57558 153 166 154
-4.10351 -5.11188 0.59612 154 165 165
-4.10750 -5.11166 0.57939 149 162 155
-4.11919 -5.11737 0.59993 158 168 168
-4.12335 -5.11656 0.58324 160 173 171
-4.13504 -5.12226 0.60377 166 172 170
-4.14224 -5.12450 0.57018 187 197 194
-4.14001 -5.11855 0.58724 178 190 190
-4.15168 -5.12424 0.60775 165 173 170
-4.15245 -5.13551 0.59042 179 189 188
-4.20175 -5.14338 0.60229 178 194 198
-4.21818 -5.14579 0.60624 180 192 196
-4.23676 -5.13979 0.61061 183 195 201
-4.25555 -5.14769 0.59762 187 201 204
-4.37386 -5.19986 0.64409 195 205 216
-4.36224 -5.19418 0.62367 209 218 222
-4.40862 -5.19362 0.65231 202 219 229
-4.41218 -5.19473 0.63568 180 206 211
-4.44024 -5.20079 0.65995 216 227 231
-4.44380 -5.20190 0.64334 209 226 226
-4.45892 -5.20865 0.64704 203 213 224
-4.95289 -5.44430 0.78538 192 205 210
-4.97162 -5.45217 0.77243 195 200 207
-5.01119 -5.49966 0.79999 189 202 195
-5.02611 -5.51058 0.80369 187 202 198
-5.04497 -5.51851 0.79065 195 202 216
-5.04097 -5.52266 0.80738 199 217 216
-5.05985 -5.53060 0.79433 201 214 227
-5.16424 -5.55678 0.83724 208 220 226
-5.14544 -5.54887 0.85024 211 225 225
-5.14903 -5.54999 0.83353 208 223 231
-5.16066 -5.55566 0.85396 210 215 223
-5.17587 -5.56245 0.85767 201 208 222
-5.18305 -5.56468 0.82425 189 199 211
-5.60307 -5.68665 0.94364 187 196 214
-5.58451 -5.67885 0.95646 187 191 199
-5.58805 -5.67995 0.93997 187 202 204
-5.59159 -5.68105 0.92347 182 199 217
-5.61808 -5.69336 0.94731 200 211 213
-1.85677 -4.04991 0.01131 151 132 127
-1.86034 -4.05102 -0.00530 152 140 131
-1.87546 -4.05777 -0.00161 156 147 136
-1.86013 -4.08979 0.01247 155 149 132
-1.87896 -4.09770 -0.00054 140 132 123
-2.29928 -4.24119 0.11937 153 144 141
-2.30284 -4.24230 0.10278 149 145 141
-2.31795 -4.24904 0.10647 147 145 142
-2.57663 -4.10228 0.18479 72 71 71
-2.58387 -4.11746 0.18666 54 43 57
-2.59484 -4.12281 0.20594 43 47 45
-2.59822 -4.12386 0.19017 47 45 44
-2.60160 -4.12492 0.17440 49 41 47
-3.05381 -4.03452 0.29887 17 21 43
-3.04351 -4.02949 0.28077 29 31 28
-3.06339 -4.04624 0.30128 105 126 154
-3.26916 -3.94235 0.34980 236 241 243
-3.25930 -3.93754 0.33247 241 246 248
-3.27221 -3.94330 0.33562 233 237 244
-3.28512 -3.94906 0.33878 228 232 241
-3.29586 -3.92650 0.35608 232 236 227
-3.31171 -3.93317 0.34512 223 231 238
-3.32904 -3.92598 0.36405 207 208 180
-3.34202 -3.93137 0.36722 178 176 140
-3.35178 -3.93614 0.38438 39 19 13
-3.35781 -3.93801 0.35630 215 217 205
-3.38818 -3.88308 0.37788 138 134 99
-3.39779 -3.88777 0.39476 39 21 14
-3.40372 -3.88961 0.36714 216 222 189
-3.47581 -4.00600 0.40004 100 97 67
-3.50735 -3.97864 0.40737 121 128 102
-3.52005 -3.98431 0.41048 135 152 129
-3.54069 -3.97571 0.41536 160 177 163
-3.55631 -3.98228 0.40456 183 199 212
-3.55890 -3.97126 0.41970 176 195 193
-3.57448 -3.97781 0.40893 184 198 214
-3.51617 -4.36137 0.41291 133 142 144
-3.50560 -4.35621 0.39433 171 190 202
-3.50660 -4.41426 0.41108 65 58 50
-3.53462 -4.42677 0.41792 46 61 52
-3.47024 -4.59372 0.40394 85 92 79
-3.48140 -4.59917 0.42354 99 99 65
-3.48484 -4.60024 0.40750 96 97 73
-4.04054 -5.05949 0.54516 150 159 160
-4.02890 -5.05381 0.52471 145 158 159
-4.04413 -5.06061 0.52843 150 162 161
-4.05936 -5.06741 0.53215 149 160 159
-4.05656 -5.06373 0.54904 148 156 157
-4.07537 -5.07163 0.53604 152 166 164
-4.09891 -5.09539 0.55950 170 179 178
-4.08725 -5.08970 0.53901 159 173 171
-4.10251 -5.09651 0.54274 166 178 180
-4.11777 -5.10332 0.54647 165 177 184
-4.11660 -5.09380 0.56374 172 180 177
-4.13180 -5.10074 0.56746 179 191 185
-4.15903 -5.12596 0.57422 185 193 189
-4.17212 -5.14072 0.57750 173 187 187
-4.18704 -5.14896 0.58116 173 183 194
-4.20684 -5.13893 0.58583 194 201 207
-4.22568 -5.14685 0.57281 201 213 222
-4.22441 -5.13687 0.59004 199 212 218
-4.24433 -5.12552 0.59472 195 208 208
-4.31424 -5.18372 0.61204 184 197 211
-4.29542 -5.17580 0.62506 185 200 219
-4.29901 -5.17692 0.60832 189 203 215
-4.32589 -5.18940 0.63250 198 210 221
-4.32977 -5.18931 0.61582 199 218 228
-4.34500 -5.19611 0.61955 201 215 226
-4.34859 -5.19723 0.60281 196 207 220
-4.39678 -5.18916 0.63193 194 210 215
-4.41549 -5.19703 0.61900 195 210 212
-4.92596 -5.43366 0.76129 194 205 221
-4.90721 -5.42578 0.77424 208 226 226
-4.91436 -5.42800 0.74092 188 199 217
-4.92953 -5.43477 0.74463 185 198 207
-4.95715 -5.43817 0.76883 205 217 216
-4.96072 -5.43928 0.75220 211 225 225
-5.01534 -5.49398 0.78331 210 223 216
-5.00370 -5.48829 0.76286 206 219 221
-5.01893 -5.49509 0.76658 212 226 227
-5.03416 -5.50189 0.77030 204 218 221
-5.03024 -5.50490 0.78699 205 215 209
-5.04907 -5.51282 0.77397 201 221 223
-5.16803 -5.55402 0.82054 191 200 211
-5.18681 -5.56192 0.80756 195 206 210
-2.56083 -4.10289 0.16442 110 110 92
-2.54987 -4.09754 0.14516 126 134 130
-2.57698 -4.10707 0.16835 83 78 62
-2.58466 -4.12173 0.17029 60 41 59
-2.60241 -4.12920 0.15801 50 43 51
-3.05355 -4.04050 0.28326 15 18 39
-3.07020 -4.04190 0.28730 93 108 133
-3.08441 -4.04684 0.29076 187 204 215
-3.09788 -4.05285 0.29405 227 234 240
-3.10106 -4.05384 0.27926 223 233 239
-3.33523 -3.92185 0.35075 221 228 233
-3.32547 -3.91709 0.33362 223 230 238
-3.33824 -3.92279 0.33673 217 227 236
-3.35100 -3.92848 0.33985 214 222 233
-3.35222 -3.92075 0.35485 219 221 220
-3.36795 -3.92737 0.34398 211 220 230
-3.47176 -3.96340 0.38400 169 179 152
-3.45607 -3.95680 0.39485 53 68 71
-3.45906 -3.95773 0.38090 169 180 164
-3.46205 -3.95866 0.36695 186 196 207
-3.48307 -3.97149 0.38678 173 182 161
-3.49600 -3.97678 0.38994 178 189 171
-3.51171 -3.98339 0.37908 182 196 210
-3.51081 -3.97874 0.39353 181 196 186
-3.52650 -3.98534 0.38269 184 195 209
-3.52665 -3.97880 0.39736 183 194 198
-3.54231 -3.98538 0.38654 182 197 211
-3.54222 -3.97924 0.40113 183 198 209
-3.55786 -3.98582 0.39032 181 198 217
-3.51934 -4.36257 0.39769 137 145 148
-3.50876 -4.35741 0.37910 170 191 204
-3.50728 -4.42053 0.39508 70 61 57
-3.51210 -4.44537 0.39638 26 24 26
-3.53440 -4.43495 0.40172 43 53 53
-3.55174 -4.44224 0.38974 84 86 82
-4.13669 -5.09727 0.55102 172 185 194
-4.12506 -5.09159 0.53058 166 176 178
-4.15467 -5.09424 0.55535 186 202 209
-4.17343 -5.10213 0.54238 198 214 215
-4.18027 -5.12521 0.56171 190 193 203
-4.19496 -5.13408 0.56531 183 188 206
-4.21380 -5.14200 0.55229 188 210 221
-4.21289 -5.13081 0.56963 197 212 217
-4.23169 -5.13871 0.55663 192 211 218
-4.24689 -5.13055 0.57785 197 210 213
-4.26564 -5.13843 0.56490 173 184 194
-4.26373 -5.13077 0.58193 182 191 198
-4.27531 -5.13642 0.60227 185 204 209
-4.27974 -5.13409 0.58582 181 190 202
-4.29131 -5.13974 0.60614 191 207 216
-4.29488 -5.14085 0.58952 196 212 217
-4.30534 -5.16680 0.59219 195 203 211
-4.31941 -5.17828 0.59565 186 192 210
-4.33821 -5.18618 0.58266 211 225 233
-4.40276 -5.17938 0.61582 201 209 216
-4.39122 -5.17374 0.59554 204 227 237
-5.14081 -5.54851 0.79636 189 204 218
-5.17182 -5.55090 0.80387 189 198 206
-5.17540 -5.55202 0.78718 197 212 216
-5.19059 -5.55880 0.79089 191 198 212
-5.23453 -5.52566 0.81890 190 203 206
-5.21596 -5.51785 0.83174 195 203 208
-5.21950 -5.51895 0.81523 193 198 205
-5.23099 -5.52456 0.83541 180 194 206
-5.23807 -5.52676 0.80239 210 221 219
-5.24602 -5.53127 0.83908 179 196 213
-5.24920 -5.54303 0.82254 194 210 213
-5.26071 -5.54865 0.84277 185 197 214
-5.26426 -5.54976 0.82622 200 210 213
-5.62423 -5.67277 0.91397 166 185 200
-1.77760 -4.00745 -0.04301 141 127 112
-1.75893 -3.99960 -0.03011 147 134 142
-1.76249 -4.00070 -0.04670 141 143 123
-1.76605 -4.00181 -0.06330 140 156 145
-1.77404 -4.00634 -0.02642 146 141 135
-1.78116 -4.00855 -0.05961 140 145 128
-1.79271 -4.01419 -0.03932 140 118 113
-1.80426 -4.01983 -0.01904 141 135 116
-1.80782 -4.02093 -0.03563 142 129 126
-1.81138 -4.02204 -0.05223 133 128 131
-2.12440 -4.18645 0.04176 139 125 127
-2.13601 -4.19212 0.06215 138 133 131
-2.55086 -4.12032 0.14545 131 131 121
-2.57883 -4.11000 0.15224 90 89 69
-2.58853 -4.12217 0.15462 61 49 58
-3.05110 -4.04969 0.26709 23 27 53
-3.04076 -4.04464 0.24892 66 64 63
-3.05429 -4.05068 0.25223 58 63 66
-3.06782 -4.05672 0.25553 93 97 118
-3.06935 -4.04880 0.27153 81 97 123
-3.08371 -4.05355 0.27503 176 194 207
-3.49887 -3.97794 0.37595 182 195 206
-3.51458 -3.98454 0.36509 181 196 213
-3.52159 -4.36559 0.38224 140 148 155
-3.51101 -4.36043 0.36365 170 191 208
-3.51259 -4.41753 0.38016 80 73 76
-3.51607 -4.44508 0.38106 39 39 46
-3.53349 -4.45240 0.36902 83 94 96
-3.53910 -4.43314 0.38664 50 57 62
-3.55643 -4.44043 0.37466 94 104 109
-4.14252 -5.09049 0.53483 169 181 190
-4.13091 -5.08482 0.51444 167 183 187
-4.14610 -5.09160 0.51815 172 186 194
-4.16221 -5.08121 0.53961 184 200 210
-4.20112 -5.12562 0.54917 184 197 210
-4.18949 -5.11994 0.52874 188 197 199
-4.21993 -5.13353 0.53617 188 206 223
-4.24975 -5.13447 0.56102 188 201 208
-4.23814 -5.12880 0.54064 184 205 217
-4.28103 -5.14429 0.56866 182 195 202
-4.29977 -5.15217 0.55570 199 216 224
-4.29396 -5.16016 0.57183 199 215 217
-4.31273 -5.16805 0.55886 200 221 225
-4.30803 -5.17158 0.57528 206 220 217
-4.32682 -5.17948 0.56229 207 220 229
-4.32392 -5.17552 0.57916 211 227 226
-4.34270 -5.18342 0.56617 204 216 227
-5.11439 -5.52890 0.77228 183 192 202
-5.10277 -5.52323 0.75187 184 201 211
-5.11797 -5.53001 0.75558 186 197 210
-5.16034 -5.54268 0.78350 183 197 208
-5.16392 -5.54379 0.76682 194 204 208
-5.17910 -5.55057 0.77053 192 201 211
-5.25279 -5.54288 0.80600 205 213 214
-5.25634 -5.54399 0.78946 195 203 207
-5.27140 -5.55071 0.79314 193 194 203
-5.61241 -5.65683 0.89377 197 213 215
-5.60100 -5.65126 0.87374 197 211 216
-5.65799 -5.69412 0.90494 192 206 219
-5.66943 -5.69970 0.92504 192 200 207
-5.67648 -5.70190 0.89216 207 212 219
-1.35269 -3.75020 -0.16419 141 138 120
-1.34129 -3.74464 -0.18421 145 142 136
-1.35620 -3.75129 -0.18056 137 134 123
