ply
format ascii 1.0
element face 0
property list uchar int vertex_indices
element vertex 1275
property float x
property float y
property float z
property uchar diffuse_red
property uchar diffuse_green
property uchar diffuse_blue
end_header
-3.31214 -3.89248 0.45731 40 47 50
-3.32335 -3.89978 0.46002 34 28 36
-3.34435 -3.89229 0.46447 25 18 23
-3.35938 -3.89881 0.45384 37 30 41
-3.47634 -3.93317 0.49505 30 24 23
-3.46700 -3.92828 0.47873 49 58 70
-3.47915 -3.93397 0.48160 60 75 80
-3.48334 -3.94733 0.49703 25 21 24
-3.49401 -3.95553 0.49964 26 25 38
-3.50901 -3.96204 0.48903 32 40 35
-3.50439 -3.96426 0.50221 25 31 36
-3.51940 -3.97078 0.49159 34 37 49
-3.51169 -3.97824 0.50426 30 35 47
-3.52736 -4.00477 0.50854 61 64 73
-3.54248 -4.01133 0.49784 35 35 50
-3.53646 -4.01603 0.51090 44 40 39
-3.55161 -4.02260 0.50018 31 39 46
-3.54360 -4.03080 0.51293 36 42 54
-3.55879 -4.03739 0.50218 31 41 43
-3.56474 -4.07655 0.51900 34 35 54
-3.57261 -4.09063 0.52117 44 52 61
-3.57978 -4.10613 0.52323 48 53 55
-3.58941 -4.11116 0.54004 32 38 45
-3.58817 -4.11957 0.52549 46 49 45
-3.59781 -4.12461 0.54234 57 68 48
-3.57547 -4.17219 0.52424 97 113 78
-3.58818 -4.17814 0.52725 105 114 96
-3.99796 -5.17622 0.64825 137 146 140
-3.97938 -5.16815 0.66140 129 140 132
-3.98286 -5.16915 0.64468 135 146 134
-3.99448 -5.17522 0.66497 130 144 139
-4.00957 -5.18229 0.66854 133 141 141
-4.01654 -5.18428 0.63510 146 156 161
-4.00867 -5.19707 0.65126 140 149 144
-4.02032 -5.20316 0.67161 136 141 137
-4.02731 -5.20516 0.63807 147 158 160
-4.02723 -5.24898 0.65694 144 155 148
-4.02371 -5.24797 0.67385 140 149 142
-4.03076 -5.24999 0.64003 150 163 162
-4.03963 -5.26549 0.66019 146 158 149
-4.05146 -5.28412 0.66338 154 168 160
-4.06320 -5.30337 0.66657 166 179 176
-4.08213 -5.31159 0.65317 186 199 194
-4.07482 -5.32332 0.66975 170 183 178
-4.11662 -5.42326 0.68204 178 190 194
-4.10458 -5.41697 0.66099 174 189 185
-4.13008 -5.43861 0.68549 186 199 205
-4.14939 -5.44699 0.67182 193 211 210
-4.35200 -5.45554 0.73534 196 204 218
-4.34013 -5.44934 0.71461 207 217 225
-4.35556 -5.45656 0.71826 203 212 212
-4.36562 -5.47085 0.73883 211 227 239
-4.38186 -5.47455 0.74255 218 237 236
-4.40088 -5.48280 0.72910 192 207 221
-4.39341 -5.49974 0.74588 196 214 215
-4.41249 -5.50802 0.73237 204 218 218
-4.45926 -5.50998 0.76083 196 213 216
-4.44737 -5.50377 0.74007 191 206 219
-4.46282 -5.51100 0.74372 199 215 219
-4.53310 -5.56443 0.77888 213 229 232
-4.51401 -5.55614 0.79238 213 225 235
-4.52117 -5.55819 0.75804 196 211 222
-4.56663 -5.56484 0.78635 208 218 222
-4.58566 -5.57309 0.77288 202 211 217
-3.28445 -3.89068 0.43684 53 67 62
-3.32005 -3.90981 0.44532 57 68 71
-3.33354 -3.91374 0.44845 53 53 59
-3.36770 -3.91050 0.45602 35 37 50
-3.36488 -3.90969 0.46956 12 10 13
-3.37710 -3.91541 0.47245 13 11 14
-3.38316 -3.91120 0.45950 34 39 49
-3.39255 -3.91611 0.47590 11 8 11
-3.39537 -3.91692 0.46238 29 28 41
-3.48823 -3.94470 0.48392 45 62 54
-3.49523 -3.95898 0.48587 43 53 36
-3.51024 -3.96550 0.47525 22 30 26
-3.52301 -3.99114 0.49294 39 45 62
-3.51358 -3.98622 0.47648 31 35 46
-3.52583 -3.99195 0.47937 33 37 48
-3.53808 -3.99769 0.48227 36 33 62
-3.52934 -4.00706 0.49478 39 39 68
-3.54447 -4.01362 0.48408 33 39 63
-3.55712 -4.06809 0.50262 34 42 51
-3.54755 -4.06309 0.48592 28 46 35
-3.57242 -4.07473 0.49179 36 53 58
-3.56345 -4.08484 0.50448 41 51 61
-3.57135 -4.09896 0.50663 49 69 57
-3.58072 -4.11053 0.50903 48 56 68
-3.58291 -4.13539 0.51018 67 81 87
-3.59842 -4.14212 0.49921 158 189 189
-3.54274 -4.23920 0.50393 126 154 142
-3.55009 -4.25576 0.50602 121 127 128
-3.56008 -4.26099 0.52348 69 60 47
-3.56308 -4.26185 0.50909 70 53 48
-3.56608 -4.26270 0.49470 67 52 53
-3.91861 -5.16340 0.61261 126 140 137
-3.89993 -5.15529 0.62583 125 138 128
-3.90344 -5.15629 0.60903 125 136 130
-3.90694 -5.15730 0.59223 127 137 136
-3.91511 -5.16239 0.62941 123 129 135
-3.98991 -5.15921 0.62847 140 154 143
-3.97137 -5.15117 0.64159 135 145 134
-3.97484 -5.15216 0.62491 137 145 136
-4.00844 -5.16726 0.61536 149 163 155
-4.00317 -5.17184 0.63178 145 158 158
-4.02173 -5.17989 0.61865 148 157 156
-4.04508 -5.26026 0.64351 157 166 163
-4.03332 -5.25412 0.62297 154 165 160
-4.05514 -5.28469 0.64641 169 177 172
-4.06882 -5.29746 0.64981 180 192 188
-4.08772 -5.30566 0.63644 181 194 195
-4.12342 -5.41290 0.66510 182 197 191
-4.11140 -5.40662 0.64411 187 195 195
-4.12703 -5.41393 0.64780 189 201 199
-4.14266 -5.42124 0.65149 183 196 198
-4.14023 -5.41593 0.66895 187 205 215
-4.15945 -5.42427 0.65535 193 206 201
-4.38444 -5.48005 0.72535 206 214 230
-4.40347 -5.48831 0.71188 203 220 222
-4.55010 -5.58421 0.76521 212 223 231
-4.56923 -5.59251 0.75168 196 201 224
-3.23806 -3.93969 0.41325 31 30 39
-3.24095 -3.94051 0.39941 23 23 21
-3.27800 -3.90514 0.42146 37 44 41
-3.28625 -3.91699 0.42360 52 64 52
-3.30927 -3.90685 0.42856 53 64 62
-3.31734 -3.91898 0.43066 54 59 67
-3.33251 -3.92556 0.41992 35 35 40
-3.33464 -3.91719 0.43452 53 49 58
-3.34837 -3.92075 0.43770 51 50 54
-3.36722 -3.91639 0.44185 61 68 70
-3.37977 -3.92166 0.44480 53 65 74
-3.39402 -3.92425 0.44808 48 56 61
-3.40343 -3.92917 0.46451 29 21 38
-3.40625 -3.92998 0.45097 51 55 62
-3.40908 -3.93079 0.43742 35 45 56
-3.48792 -3.95066 0.46987 30 34 45
-3.47855 -3.94577 0.45350 23 26 27
-3.49073 -3.95147 0.45638 24 28 28
-3.50291 -3.95717 0.45926 26 31 38
-3.49784 -3.96013 0.47233 28 33 31
-3.51286 -3.96664 0.46171 28 32 41
-3.55623 -4.07560 0.48816 34 51 55
-3.54665 -4.07059 0.47142 26 49 47
-3.55911 -4.07642 0.47437 30 51 61
-3.57448 -4.09934 0.49283 37 42 42
-3.58346 -4.11162 0.49514 55 71 85
-3.59888 -4.11831 0.48423 160 194 207
-3.53361 -4.23244 0.48668 114 150 159
-3.54955 -4.23936 0.47540 169 193 200
-3.54670 -4.26860 0.49046 127 130 139
-3.54971 -4.26946 0.47602 128 129 138
-3.52845 -4.36538 0.48858 47 42 26
-3.53872 -4.37075 0.50652 71 78 63
-3.54181 -4.37163 0.49174 71 77 63
-3.60319 -4.97368 0.51947 106 115 107
-3.61824 -4.98072 0.52303 110 121 115
-3.62171 -4.98172 0.50636 116 126 121
-3.92051 -5.16912 0.59556 133 144 143
-3.93920 -5.17723 0.58234 146 156 156
-3.93800 -5.16936 0.59951 139 155 156
-3.95667 -5.17746 0.58631 146 157 156
-3.99582 -5.15269 0.61217 145 160 149
-3.98426 -5.14665 0.59197 146 159 162
-3.99929 -5.15368 0.59553 147 162 158
-4.01433 -5.16072 0.59908 150 168 157
-4.05267 -5.24794 0.62720 161 169 170
-4.06430 -5.26707 0.63026 164 175 179
-4.07747 -5.28131 0.63356 173 188 188
-4.09630 -5.28948 0.62023 185 195 198
-4.47254 -5.48151 0.72730 198 214 217
-4.49143 -5.48971 0.71394 201 213 223
-5.03116 -5.66488 0.85756 198 201 207
-5.01255 -5.65681 0.87072 196 208 216
-5.01604 -5.65781 0.85398 205 214 220
-5.03465 -5.66588 0.84082 207 214 219
-5.04279 -5.67095 0.87787 196 195 213
-5.04619 -5.67307 0.86114 194 195 208
-5.05782 -5.67914 0.88145 190 197 224
-5.06131 -5.68014 0.86471 192 203 216
-5.06480 -5.68114 0.84797 198 208 211
-5.46982 -5.89949 0.96193 188 200 218
-5.48502 -5.90660 0.96552 185 194 206
-5.48853 -5.90761 0.94869 181 186 195
-3.22511 -3.93952 0.39580 28 30 30
-3.21259 -3.93366 0.39284 31 35 31
-3.21548 -3.93449 0.37898 62 44 29
-3.26753 -3.92559 0.40516 16 21 22
-3.27557 -3.93790 0.40723 24 30 38
-3.29088 -3.94454 0.39640 39 43 52
-3.30220 -3.92248 0.41298 37 45 53
-3.31741 -3.92908 0.40222 39 44 53
-3.31739 -3.92401 0.41646 40 44 52
-3.33258 -3.93060 0.40571 34 42 49
-3.34657 -3.92867 0.42318 36 40 39
-3.34941 -3.92948 0.40954 31 43 51
-3.36173 -3.93524 0.41246 36 45 65
-3.38118 -3.92467 0.43096 43 48 66
-3.39626 -3.93121 0.42029 30 39 47
-3.39553 -3.92712 0.43427 38 44 55
-3.41059 -3.93366 0.42361 28 39 52
-3.57468 -4.10505 0.47847 49 74 61
-3.59009 -4.11173 0.46757 168 197 212
-3.55459 -4.17059 0.47519 115 151 151
-3.57028 -4.17739 0.46410 167 196 223
-3.50257 -4.38959 0.46767 66 54 50
-3.49222 -4.38418 0.44958 129 130 141
-3.50568 -4.39048 0.45277 66 55 48
-3.53249 -4.36445 0.47397 44 41 23
-3.52008 -4.42034 0.47225 70 75 62
-3.53049 -4.42578 0.49043 95 98 85
-3.53361 -4.42668 0.47545 98 99 87
-3.53674 -4.42757 0.46047 97 98 85
-3.57558 -4.92181 0.49471 96 104 105
-3.55719 -4.91384 0.50771 105 106 91
-3.56064 -4.91482 0.49117 102 102 98
-3.57213 -4.92083 0.51124 100 104 92
-3.57853 -4.95611 0.49605 99 107 110
-3.59703 -4.96414 0.48296 116 129 122
-3.60297 -4.98327 0.50214 113 119 119
-3.62153 -4.99132 0.48900 118 125 121
-3.90928 -5.16167 0.57523 140 149 144
-3.89059 -5.15356 0.58846 125 132 142
-3.89760 -5.15557 0.55483 139 154 156
-3.91279 -5.16267 0.55842 139 147 147
-3.92797 -5.16978 0.56201 143 153 160
-3.92645 -5.16294 0.57916 147 153 151
-3.94511 -5.17104 0.56595 139 148 156
-4.04866 -5.21681 0.60798 151 165 162
-4.03001 -5.20871 0.62118 146 155 154
-4.03350 -5.20972 0.60440 143 154 160
-4.03700 -5.21072 0.58762 142 156 164
-4.05888 -5.24009 0.61076 161 171 171
-4.07760 -5.24821 0.59752 167 180 183
-4.07169 -5.25522 0.61397 165 178 182
-4.08265 -5.27675 0.61688 173 187 191
-4.32752 -5.31915 0.67335 186 202 222
-4.30897 -5.31110 0.68647 184 200 217
-4.31245 -5.31210 0.66979 183 200 211
-4.31593 -5.31310 0.65310 185 200 203
-4.32404 -5.31816 0.69004 196 209 215
-4.34607 -5.32720 0.66023 212 221 228
-4.34292 -5.32481 0.67696 205 218 230
-4.35451 -5.33087 0.69720 210 221 220
-4.35799 -5.33186 0.68052 212 219 223
-4.44434 -5.47315 0.70292 187 200 210
-4.42898 -5.46596 0.69928 192 204 209
-4.43252 -5.46698 0.68227 200 207 220
-4.46325 -5.48136 0.68954 178 191 205
-4.47521 -5.48684 0.71020 193 202 215
-4.49412 -5.49504 0.69682 201 212 222
-5.00650 -5.62750 0.83367 194 206 217
-4.98798 -5.61947 0.84677 196 214 219
-4.99493 -5.62146 0.81346 184 194 210
-5.00303 -5.62651 0.85032 202 214 223
-5.00997 -5.62850 0.81701 182 194 210
-5.02084 -5.64295 0.83723 202 209 216
-5.03939 -5.65100 0.82411 206 215 220
-2.59663 -4.08778 0.23986 50 47 53
-2.60726 -4.09334 0.25844 46 47 44
-2.61045 -4.09425 0.24313 45 45 39
-2.61364 -4.09517 0.22782 46 44 45
-3.04116 -4.03634 0.34074 15 20 38
-3.02509 -4.02937 0.35211 27 36 34
-3.02810 -4.03023 0.33766 28 32 27
-3.03111 -4.03110 0.32320 29 32 25
-3.05120 -4.04159 0.35829 51 48 36
-3.03281 -4.07222 0.33941 75 80 96
-3.04295 -4.07751 0.35712 56 48 34
-3.05965 -4.05924 0.34535 133 144 136
-3.06973 -4.06450 0.36295 53 39 36
-3.08449 -4.07344 0.35126 165 168 123
-3.09457 -4.07871 0.36887 43 40 30
-3.23006 -3.93735 0.38236 53 32 22
-3.24773 -3.93563 0.38638 40 27 16
-3.27524 -3.91926 0.39241 26 25 24
-3.28121 -3.93461 0.39402 31 34 44
-3.29650 -3.94124 0.38320 37 39 45
-3.55532 -4.08916 0.45924 29 41 60
-3.54282 -4.08331 0.45629 19 39 55
-3.55920 -4.11056 0.46048 68 80 115
-3.55193 -4.15249 0.45949 136 160 173
-3.56755 -4.15927 0.44844 176 196 217
-3.53222 -4.37173 0.45854 42 41 17
-3.52194 -4.36636 0.44057 70 57 49
-3.53531 -4.37261 0.44373 43 36 13
-3.54868 -4.37887 0.44689 66 69 52
-3.52825 -4.41150 0.45827 68 74 56
-3.54485 -4.41871 0.44652 95 94 84
-3.54246 -4.92365 0.46982 104 106 97
-3.52402 -4.91564 0.48287 105 106 86
-3.52748 -4.91664 0.46627 101 102 94
-3.53901 -4.92266 0.48641 104 104 89
-3.55416 -4.93805 0.47272 106 105 104
-3.57264 -4.94607 0.45965 117 128 132
-3.58292 -4.95500 0.47958 111 124 121
-3.60141 -4.96303 0.46650 121 132 129
-3.87929 -5.10738 0.54986 135 150 152
-3.86074 -5.09933 0.56298 126 142 136
-3.87581 -5.10638 0.56654 127 136 131
-3.88276 -5.10837 0.53318 139 151 153
-3.89088 -5.11343 0.57010 118 120 134
-3.89783 -5.11543 0.53674 147 159 154
-4.05650 -5.20367 0.59197 151 169 170
-4.04488 -5.19760 0.57167 156 165 171
-4.05999 -5.20467 0.57524 156 167 173
-4.07509 -5.21174 0.57881 165 179 183
-4.06812 -5.22222 0.59493 165 181 179
-4.08676 -5.23031 0.58174 168 178 179
-4.09272 -5.25564 0.60110 164 176 189
-4.09623 -5.25665 0.58426 167 175 173
-4.11144 -5.26376 0.58785 171 181 183
-4.10203 -5.28297 0.60367 170 185 193
-4.11378 -5.28911 0.62420 188 198 203
-4.11569 -5.29573 0.60700 180 196 197
-4.12746 -5.30188 0.62756 186 194 198
-4.13099 -5.30289 0.61062 187 199 203
-4.36420 -5.32107 0.66428 211 225 223
-4.37576 -5.32711 0.68447 206 217 218
-4.37923 -5.32810 0.66783 203 205 215
-4.38270 -5.32909 0.65119 199 214 219
-4.91759 -5.60647 0.79552 201 213 215
-4.89900 -5.59840 0.80867 197 218 222
-4.90249 -5.59940 0.79195 193 205 213
-4.90597 -5.60040 0.77522 202 216 217
-4.91410 -5.60547 0.81224 199 216 224
-4.92921 -5.61254 0.81582 202 219 224
-4.93381 -5.60261 0.79917 202 215 221
-4.94540 -5.60866 0.81942 200 212 217
-4.95236 -5.61066 0.78604 176 193 220
-4.95010 -5.59722 0.80281 192 207 217
-4.96514 -5.60426 0.80636 185 195 206
-5.43123 -5.88698 0.91759 197 209 211
-5.44996 -5.89511 0.90433 186 204 219
-1.23459 -3.86475 -0.09288 151 143 131
-1.21607 -3.85671 -0.07977 146 140 130
-1.21954 -3.85770 -0.09644 146 140 116
-1.23112 -3.86375 -0.07621 143 145 136
-1.23807 -3.86574 -0.10955 161 157 145
-1.25312 -3.87279 -0.10599 161 157 151
-1.24588 -3.87461 -0.09015 156 154 147
-1.25747 -3.88067 -0.06991 152 151 151
-1.26095 -3.88166 -0.08659 155 159 144
-2.58984 -4.05512 0.22183 119 109 99
-2.57293 -4.04778 0.23379 134 122 111
-2.57610 -4.04869 0.21858 148 140 129
-2.57927 -4.04959 0.20337 135 137 125
-2.59090 -4.07645 0.22234 76 82 76
-3.04053 -4.04224 0.32551 16 20 32
-3.03047 -4.03698 0.30794 30 33 24
-3.03585 -4.07309 0.32483 69 75 105
-3.07220 -4.07129 0.33318 224 233 226
-3.08835 -4.07830 0.32175 232 239 243
-3.09895 -4.05803 0.33917 225 233 217
-3.11797 -4.05554 0.34353 189 188 168
-3.13399 -4.06249 0.33220 221 226 223
-3.18733 -4.00460 0.35886 173 165 126
-3.23062 -3.96579 0.36834 135 129 67
-3.53802 -4.06980 0.44049 25 26 43
-3.52267 -4.06314 0.45135 27 43 51
-3.52555 -4.06397 0.43755 22 38 56
-3.53514 -4.06898 0.45430 24 44 51
-3.55963 -4.11583 0.44606 166 183 199
-3.57511 -4.12255 0.43511 184 202 219
-3.57124 -4.12348 0.44883 183 203 219
-3.58673 -4.13020 0.43788 176 194 214
-3.50453 -4.89588 0.44332 99 104 104
-3.48611 -4.88789 0.45634 110 105 83
-3.48957 -4.88888 0.43978 105 103 87
-3.50108 -4.89489 0.45988 105 104 90
-3.51604 -4.90189 0.46342 105 104 94
-3.52223 -4.89691 0.44741 104 109 109
-3.53050 -4.91857 0.44959 101 104 111
-3.55644 -4.94169 0.45586 116 127 134
-3.57494 -4.94971 0.44278 116 130 132
-4.01296 -5.13477 0.56352 142 147 145
-3.99455 -5.12678 0.57655 141 147 154
-3.99800 -5.12777 0.55998 136 146 142
-4.00145 -5.12876 0.54341 141 154 148
-4.02448 -5.14078 0.58362 150 163 161
-4.03138 -5.14276 0.55049 154 163 158
-4.12871 -5.26373 0.59183 174 188 196
-4.13221 -5.26474 0.57502 178 187 192
-4.14740 -5.27184 0.57861 181 185 192
-4.14610 -5.26305 0.59583 185 197 201
-4.15776 -5.26914 0.61620 192 209 204
-4.16126 -5.27015 0.59941 190 201 204
-4.33757 -5.30819 0.64052 208 216 223
-4.34104 -5.30919 0.62388 212 228 231
-4.35306 -5.31326 0.64416 214 221 231
-4.37155 -5.32128 0.63108 191 201 217
-4.36936 -5.31479 0.64793 203 209 218
-4.41206 -5.34629 0.65818 203 218 227
-4.39356 -5.33826 0.67127 208 217 217
-4.39703 -5.33926 0.65462 196 212 221
-4.40859 -5.34530 0.67483 206 208 212
-4.42363 -5.35234 0.67838 204 205 216
-4.42710 -5.35333 0.66173 197 218 229
-4.46073 -5.43012 0.67046 201 210 219
-4.44551 -5.42300 0.66686 201 210 221
-4.44902 -5.42401 0.65001 195 219 219
-4.47595 -5.43724 0.67406 188 200 207
-4.93897 -5.58695 0.78265 181 190 216
-4.95745 -5.59497 0.76957 193 198 209
-5.35892 -5.83007 0.88252 177 197 198
-5.36242 -5.83107 0.86574 175 186 195
-5.37058 -5.83616 0.90289 200 216 215
-5.37757 -5.83817 0.86932 174 192 203
-5.41951 -5.88338 0.89716 190 205 220
-5.43826 -5.89151 0.88390 193 198 211
-1.81876 -4.10432 0.02741 144 141 143
-1.80035 -4.09633 0.04044 148 142 132
-1.80380 -4.09732 0.02388 143 134 136
-1.81530 -4.10333 0.04397 151 140 127
-1.83371 -4.11132 0.03095 152 155 141
-1.83716 -4.11231 0.01439 153 151 149
-2.58345 -4.06721 0.20450 135 126 108
-2.57284 -4.06167 0.18598 141 140 143
-2.60344 -4.08909 0.20934 55 51 68
-2.62046 -4.09648 0.19731 45 45 53
-3.03591 -4.05368 0.30936 17 20 21
-3.02582 -4.04841 0.29173 32 34 28
-3.03894 -4.05455 0.29483 22 27 28
-3.03718 -4.07635 0.30986 49 50 63
-3.06487 -4.06214 0.31616 148 162 175
-3.07169 -4.07716 0.31788 213 224 234
-3.08787 -4.08418 0.30644 228 236 241
-3.12740 -4.04718 0.33053 225 232 230
-3.13039 -4.04803 0.31616 231 237 240
-3.14337 -4.05410 0.31923 235 239 243
-3.20517 -3.98372 0.34798 234 238 222
-3.20810 -3.98456 0.33394 240 246 248
-3.22102 -4.00967 0.35190 184 184 151
-3.26786 -3.96472 0.36235 112 97 91
-3.49003 -4.02200 0.41443 23 30 38
-3.49957 -4.02698 0.43109 28 32 43
-3.50243 -4.02780 0.41736 21 28 50
-3.54565 -4.06223 0.42771 72 81 95
-3.54837 -4.11364 0.42882 186 209 207
-3.56386 -4.12036 0.41786 194 212 230
-3.55799 -4.12489 0.43116 193 213 222
-3.57351 -4.13163 0.42018 184 201 222
-3.51643 -4.35196 0.42363 132 137 142
-3.50002 -4.34483 0.43525 168 191 206
-3.50310 -4.34572 0.42048 169 191 202
-3.50617 -4.34660 0.40571 169 189 199
-3.52977 -4.35820 0.42679 69 57 50
-3.47243 -4.85622 0.41812 106 103 84
-3.45410 -4.84827 0.43109 110 106 83
-3.45754 -4.84926 0.41460 106 102 78
-3.46899 -4.85524 0.43461 109 105 83
-3.48388 -4.86221 0.43813 109 104 87
-3.48780 -4.86216 0.42174 111 115 95
-3.50328 -4.86786 0.42539 106 116 107
-3.52160 -4.87581 0.41243 112 119 102
-3.51004 -4.89242 0.42718 107 120 112
-3.52585 -4.89751 0.43090 118 123 118
-3.54424 -4.90549 0.41789 113 124 124
-3.53455 -4.91827 0.43311 112 122 121
-3.55300 -4.92627 0.42006 118 130 123
-3.55087 -4.92231 0.43694 117 128 122
-3.56931 -4.93031 0.42390 120 129 126
-4.01772 -5.13170 0.54721 147 158 151
-4.00622 -5.12570 0.52712 141 146 146
-4.03612 -5.13969 0.53419 155 171 163
-4.12754 -5.22139 0.57353 176 188 192
-4.11596 -5.21533 0.55329 169 182 183
-4.13102 -5.22238 0.55685 170 186 194
-4.17962 -5.21784 0.58558 186 197 201
-4.19115 -5.22386 0.60571 188 201 204
-4.19461 -5.22485 0.58912 191 210 210
-4.19806 -5.22584 0.57254 186 206 208
-4.32770 -5.29515 0.62066 191 210 218
-4.30923 -5.28713 0.63373 182 205 214
-4.31270 -5.28813 0.61711 190 205 216
-4.33116 -5.29614 0.60405 188 203 217
-4.36035 -5.29792 0.62826 194 204 224
-4.36381 -5.29891 0.61169 204 219 232
-4.39170 -5.30573 0.63561 194 209 218
-4.39515 -5.30672 0.61906 187 206 211
-4.41010 -5.31371 0.62259 193 220 219
-4.40576 -5.31667 0.63897 198 215 223
-4.42418 -5.32466 0.62595 201 210 214
-4.41781 -5.33693 0.64196 215 230 231
-4.43628 -5.34494 0.62889 186 181 202
-4.43331 -5.34168 0.64560 188 194 215
-4.44830 -5.34870 0.64914 189 204 223
-4.45177 -5.34969 0.63254 195 207 225
-4.46675 -5.41895 0.65408 189 203 212
-4.45507 -5.41285 0.63368 195 212 210
-4.48543 -5.42705 0.64086 197 216 216
-4.50125 -5.41224 0.66202 197 214 231
-4.51985 -5.42031 0.64886 181 196 224
-4.92851 -5.57032 0.76263 201 213 217
-4.91698 -5.56429 0.74249 200 212 221
-5.33255 -5.79285 0.85845 199 207 214
-5.32095 -5.78679 0.83818 213 218 222
-5.58781 -5.87366 0.91843 195 206 218
-5.60623 -5.88166 0.90539 191 190 215
-1.68109 -4.02791 -0.02257 146 145 142
-1.66617 -4.02093 -0.02610 158 158 143
-1.67765 -4.02693 -0.00605 149 141 138
-1.69257 -4.03391 -0.00252 148 142 137
-1.69602 -4.03490 -0.01904 144 131 133
-1.69946 -4.03588 -0.03556 146 135 133
-1.83242 -4.07498 0.01306 139 136 126
-1.81414 -4.06704 0.02600 146 134 128
-1.81757 -4.06803 0.00955 141 134 123
-1.83584 -4.07596 -0.00338 131 122 108
-1.83321 -4.09504 0.01337 145 144 140
-1.85156 -4.10300 0.00038 160 151 135
-1.83549 -4.15633 0.01426 150 153 132
-1.82040 -4.14927 0.01069 149 147 142
-1.83201 -4.15533 0.03096 150 148 125
-1.84709 -4.16239 0.03453 149 141 119
-1.85406 -4.16439 0.00112 135 118 116
-1.85031 -4.16364 0.01777 149 141 113
-1.86192 -4.16970 0.03804 156 147 138
-1.86540 -4.17070 0.02133 151 146 131
-2.03617 -4.22093 0.06153 130 119 118
-2.05118 -4.22795 0.06507 120 115 120
-2.05464 -4.22894 0.04846 135 128 92
-2.19440 -4.28214 0.09885 129 119 120
-2.17599 -4.27415 0.11188 137 141 121
-2.17944 -4.27513 0.09532 134 129 121
-2.18289 -4.27612 0.07875 133 129 124
-2.20591 -4.28815 0.11896 135 129 108
-2.58834 -4.11172 0.18989 58 56 68
-3.03839 -4.07978 0.29485 33 34 51
-3.02824 -4.07448 0.27712 30 30 24
-3.03756 -4.10570 0.29481 128 144 167
-3.06688 -4.08915 0.30156 204 217 232
-3.08311 -4.09619 0.29008 227 235 240
-3.25616 -3.96275 0.34504 234 239 234
-3.24886 -3.99828 0.34355 219 221 203
-3.29555 -3.97770 0.35433 124 115 78
-3.30519 -3.98274 0.37118 35 34 38
-3.30809 -3.98357 0.35730 66 52 38
-3.31098 -3.98440 0.34342 207 208 180
-3.48102 -4.01614 0.39789 27 14 12
-3.50913 -4.02206 0.40450 33 17 30
-3.51500 -4.03906 0.40597 41 32 40
-3.52365 -4.05141 0.40806 66 84 107
-3.51733 -4.09010 0.40681 126 149 138
-3.53798 -4.10983 0.41175 189 206 209
-3.55348 -4.11656 0.40079 195 214 227
-3.51884 -4.35411 0.40872 133 136 138
-3.50857 -4.34875 0.39079 168 189 202
-3.48366 -4.45298 0.40108 68 54 47
-3.49419 -4.45848 0.41946 40 35 18
-3.49734 -4.45938 0.40431 34 31 17
-3.50050 -4.46029 0.38916 25 28 16
-3.45786 -4.81889 0.39720 103 101 94
-3.43964 -4.81099 0.41009 107 102 82
-3.44306 -4.81197 0.39370 106 100 87
-3.45445 -4.81791 0.41359 105 102 80
-3.46628 -4.83915 0.39929 105 111 103
-3.48456 -4.84708 0.38636 112 124 120
-3.50301 -4.83810 0.40786 130 142 119
-3.52122 -4.84600 0.39498 104 119 135
-3.53074 -4.89535 0.41468 126 130 117
-3.53418 -4.89634 0.39815 123 134 124
-3.54911 -4.90332 0.40168 117 124 129
-3.88422 -5.07644 0.49833 133 147 137
-3.86925 -5.06943 0.49479 132 145 138
-3.87270 -5.07042 0.47821 126 141 135
-3.88768 -5.07743 0.48175 137 142 132
-3.89863 -5.08505 0.50175 111 119 124
-3.91327 -5.09303 0.50522 121 132 136
-3.93171 -5.10103 0.49217 141 161 156
-3.92996 -5.09510 0.50913 133 141 146
-3.94147 -5.10112 0.52923 131 149 153
-3.94838 -5.10309 0.49609 145 154 158
-3.98987 -5.12298 0.52329 140 148 146
-3.97145 -5.11499 0.53632 142 152 153
-3.97835 -5.11696 0.50318 155 163 161
-3.98641 -5.12199 0.53986 141 150 151
-4.02291 -5.12727 0.53103 149 161 159
-4.04129 -5.13525 0.51803 158 172 174
-4.05347 -5.13902 0.53824 153 166 154
-4.06495 -5.14502 0.55829 154 165 165
-4.06974 -5.14163 0.54206 149 162 155
-4.08121 -5.14762 0.56209 158 168 168
-4.08416 -5.15022 0.54548 160 173 171
-4.09564 -5.15621 0.56552 166 172 170
-4.10252 -5.15819 0.53249 187 197 194
-4.09637 -5.16621 0.54842 178 190 190
-4.10786 -5.17222 0.56851 165 173 170
-4.11242 -5.16947 0.55219 179 189 188
-4.15631 -5.19363 0.56259 178 194 198
-4.17470 -5.18841 0.56686 180 192 196
-4.19066 -5.19157 0.57060 183 195 201
-4.20899 -5.19952 0.55764 187 201 204
-4.32239 -5.26363 0.60181 195 205 216
-4.30747 -5.25664 0.59828 197 206 220
-4.31091 -5.25763 0.58176 209 218 222
-4.35121 -5.28191 0.60865 202 219 229
-4.35466 -5.28290 0.59211 180 206 211
-4.38141 -5.29446 0.61578 216 227 231
-4.38485 -5.29545 0.59924 209 226 226
-4.39979 -5.30243 0.60277 203 213 224
-4.93234 -5.56772 0.74610 197 211 213
-4.92082 -5.56171 0.72598 196 209 217
-4.93579 -5.56871 0.72952 203 218 221
-4.94598 -5.58814 0.74941 189 202 195
-4.96239 -5.58070 0.75320 187 202 198
-4.97391 -5.58672 0.77332 198 211 214
-4.97736 -5.58771 0.75674 199 217 216
-4.98082 -5.58870 0.74016 195 202 216
-1.67645 -4.01595 -0.04102 146 145 133
-1.65812 -4.00799 -0.02805 161 158 141
-1.66156 -4.00898 -0.04454 155 151 138
-1.69479 -4.02390 -0.05399 139 129 133
-1.84116 -4.09181 -0.00209 151 132 127
-1.84460 -4.09280 -0.01858 152 140 131
-1.85949 -4.09977 -0.01506 156 147 136
-1.84683 -4.14984 -0.00062 147 132 119
-1.86536 -4.15788 -0.01373 132 122 130
-2.03405 -4.20529 0.04356 132 131 106
-2.02254 -4.19928 0.02346 139 142 111
-2.03750 -4.20628 0.02700 133 128 103
-2.05246 -4.21328 0.03053 133 127 113
-2.19206 -4.28948 0.08094 132 129 118
-2.18053 -4.28346 0.06080 124 126 121
-2.21051 -4.29749 0.06788 151 151 128
-2.55328 -4.11186 0.16548 141 128 120
-2.54254 -4.10625 0.14672 134 129 130
-2.55651 -4.11278 0.15002 134 128 120
-2.55901 -4.12812 0.16687 99 91 89
-2.58343 -4.12229 0.17260 72 71 71
-2.60342 -4.12159 0.17730 54 43 57
-2.61413 -4.12719 0.19601 43 47 45
-2.61735 -4.12811 0.18059 47 45 44
-2.62056 -4.12903 0.16518 49 41 47
-3.02256 -4.10707 0.27587 17 21 43
-3.01233 -4.10173 0.25800 29 31 28
-3.02563 -4.10795 0.26114 15 18 39
-3.03182 -4.11899 0.27807 105 126 154
-3.05729 -4.10796 0.28404 196 212 226
-3.26145 -3.98465 0.33177 236 241 243
-3.25175 -3.97958 0.31483 241 246 248
-3.26436 -3.98548 0.31781 233 237 244
-3.27696 -3.99138 0.32079 228 232 241
-3.28491 -3.97416 0.33726 232 236 227
-3.30035 -3.98086 0.32634 223 231 238
-3.50330 -4.03775 0.38879 135 152 129
-3.50553 -4.06118 0.38937 160 177 163
-3.52091 -4.06785 0.37849 183 199 212
-3.51445 -4.07325 0.39150 176 195 193
-3.52986 -4.07993 0.38060 184 198 214
-3.51050 -4.37664 0.39131 133 142 144
-3.50017 -4.37125 0.37328 171 190 202
-3.52702 -4.38381 0.37962 70 61 57
-3.48931 -4.44911 0.38650 65 58 50
-3.44980 -4.80612 0.37808 102 108 98
-3.46799 -4.81401 0.36521 110 121 113
-3.46711 -4.80778 0.38216 103 114 106
-3.48527 -4.81566 0.36930 115 124 119
-3.47618 -4.82659 0.38434 109 120 116
-3.49440 -4.83450 0.37145 114 123 120
-3.52508 -4.87670 0.39596 115 126 126
-3.52851 -4.87769 0.37948 128 135 138
-3.54339 -4.88465 0.38300 123 131 126
-3.99268 -5.12591 0.50657 150 159 160
-3.98117 -5.11989 0.48646 145 158 159
-3.99614 -5.12690 0.49000 150 162 161
-4.01111 -5.13390 0.49354 149 160 159
-4.00784 -5.13235 0.51015 148 156 157
-4.02626 -5.14035 0.49712 152 166 164
-4.05723 -5.13901 0.52179 170 179 178
-4.04575 -5.13301 0.50174 159 173 171
-4.06067 -5.13999 0.50527 166 178 180
-4.07559 -5.14698 0.50879 165 177 184
-4.07543 -5.13533 0.52606 172 180 177
-4.08857 -5.14802 0.52919 179 191 185
-4.12057 -5.15459 0.53673 185 193 189
-4.13542 -5.16166 0.54024 173 187 187
-4.14971 -5.17065 0.54362 173 183 194
-4.16947 -5.16051 0.54825 194 201 207
-4.18773 -5.16843 0.53533 201 213 222
-4.18556 -5.16297 0.55204 199 212 218
-4.20161 -5.16545 0.55582 195 208 208
-4.28317 -5.17081 0.57502 184 197 211
-4.26508 -5.16296 0.58782 185 200 219
-4.26847 -5.16393 0.57154 189 203 215
-4.29448 -5.17672 0.59477 198 210 221
-4.29577 -5.18597 0.57802 199 218 228
-4.30710 -5.19189 0.59781 199 212 219
-4.31050 -5.19286 0.58150 201 215 226
-4.31390 -5.19384 0.56519 196 207 220
-4.34269 -5.26354 0.58925 194 210 215
-4.33123 -5.25756 0.56923 203 216 228
-4.34613 -5.26453 0.57276 201 209 216
-4.36102 -5.27150 0.57628 195 210 212
-4.94898 -5.59389 0.73268 210 223 216
-4.93741 -5.58785 0.71248 206 219 221
-4.95245 -5.59488 0.71604 212 226 227
-4.96748 -5.60192 0.71959 204 218 221
-4.96530 -5.58742 0.73650 205 215 209
-4.98375 -5.59543 0.72345 201 221 223
-5.08703 -5.61774 0.76522 196 208 217
-5.07212 -5.61076 0.76169 194 208 216
-5.08359 -5.61676 0.78173 208 223 231
-5.09047 -5.61873 0.74871 179 189 206
-5.10236 -5.61841 0.76882 191 200 211
-5.11382 -5.62440 0.78883 199 216 223
-5.11726 -5.62538 0.77235 189 199 211
-5.12069 -5.62637 0.75586 195 206 210
-1.66831 -4.00708 -0.06025 155 156 143
-1.64999 -3.99914 -0.04729 156 146 141
-1.65343 -4.00012 -0.06377 155 151 143
-1.68663 -4.01503 -0.07321 135 133 130
-1.68367 -4.01363 -0.05662 144 136 135
-1.70198 -4.02158 -0.06958 135 124 129
-2.57052 -4.11926 0.15333 110 110 92
-2.55978 -4.11365 0.13457 126 134 130
-2.57208 -4.14056 0.15368 83 78 62
-2.59284 -4.13905 0.15860 60 41 59
-2.61006 -4.14652 0.14642 50 43 51
-3.01576 -4.14689 0.25876 93 108 133
-3.00543 -4.14149 0.24072 23 27 53
-3.04214 -4.13475 0.26502 187 204 215
-3.06541 -4.12679 0.27054 227 234 240
-3.07564 -4.13214 0.28841 231 236 241
-3.07871 -4.13302 0.27369 234 237 243
-3.08178 -4.13390 0.25896 233 237 243
-3.48143 -4.05370 0.36916 181 196 186
-3.47181 -4.04867 0.35235 182 195 206
-3.48432 -4.05452 0.35531 182 196 210
-3.49682 -4.06038 0.35826 184 195 209
-3.49494 -4.05784 0.37235 183 194 198
-3.51032 -4.06451 0.36147 182 197 211
-3.50596 -4.06625 0.37495 183 198 209
-3.52136 -4.07293 0.36406 181 198 217
-3.50638 -4.39124 0.37473 137 145 148
-3.49602 -4.38582 0.35663 170 191 204
-3.52296 -4.39843 0.36300 80 73 76
-3.48481 -4.49763 0.36951 26 24 26
-3.50182 -4.50501 0.35748 50 57 62
-3.51551 -4.47117 0.37681 43 53 53
-3.52604 -4.47668 0.39521 85 92 79
-3.52921 -4.47758 0.38005 82 89 73
-3.44086 -4.68658 0.35891 95 96 83
-3.43753 -4.68563 0.37490 96 97 73
-3.45197 -4.69239 0.37831 98 97 74
-3.45863 -4.69429 0.34634 100 113 106
-3.45228 -4.77193 0.36153 101 110 106
-3.44099 -4.76603 0.34182 100 114 112
-3.47034 -4.77977 0.34875 112 124 119
-3.46176 -4.78949 0.36376 106 119 107
-3.47987 -4.79734 0.35095 112 122 117
-3.92843 -5.07123 0.47401 123 137 129
-3.94304 -5.07905 0.47747 145 154 136
-3.95794 -5.08602 0.48099 146 151 148
-3.96138 -5.08701 0.46449 147 160 152
-4.09151 -5.15068 0.51256 172 185 194
-4.08004 -5.14469 0.49253 166 176 178
-4.10867 -5.15014 0.51663 186 202 209
-4.12699 -5.15809 0.50366 198 214 215
-4.12621 -5.14810 0.52078 197 211 209
-4.14449 -5.15603 0.50785 193 203 206
-4.14138 -5.15397 0.52437 190 193 203
-4.15675 -5.15913 0.52801 183 188 206
-4.17502 -5.16706 0.51508 188 210 221
-4.17533 -5.15292 0.53241 197 212 217
-4.19355 -5.16083 0.51952 192 211 218
-4.20759 -5.15716 0.54005 197 210 213
-4.22576 -5.16505 0.52719 173 184 194
-4.22611 -5.15030 0.54444 182 191 198
-4.23743 -5.15622 0.56422 185 204 209
-4.24220 -5.15210 0.54825 181 190 202
-4.25351 -5.15801 0.56801 191 207 216
-4.25691 -5.15898 0.55173 196 212 217
-4.27087 -5.16872 0.55503 195 203 211
-4.28668 -5.17133 0.55877 186 192 210
-4.30478 -5.17919 0.54597 211 225 233
-4.29980 -5.18443 0.56186 202 220 225
-4.31792 -5.19229 0.54904 213 226 231
-5.07684 -5.59404 0.74550 189 204 218
-5.05855 -5.58611 0.75844 189 205 207
-5.08027 -5.59502 0.72905 171 182 201
-5.10656 -5.60793 0.75253 189 198 206
-5.10999 -5.60891 0.73608 197 212 216
-5.12485 -5.61587 0.73959 191 198 212
-5.16737 -5.61005 0.76693 190 203 206
-5.14917 -5.60216 0.77980 195 203 208
-5.15259 -5.60313 0.76343 193 198 205
-5.16395 -5.60907 0.78329 180 194 206
-5.17078 -5.61103 0.75056 210 221 219
-5.17873 -5.61599 0.78678 179 196 213
-5.18167 -5.62632 0.77030 194 210 213
-5.19306 -5.63227 0.79020 185 197 214
-5.19648 -5.63325 0.77380 200 210 213
-5.56662 -5.80390 0.86130 179 199 222
-1.65208 -4.00524 -0.08140 142 147 133
-1.63374 -3.99728 -0.06843 153 142 129
-1.63718 -3.99826 -0.08492 153 144 132
-1.65552 -4.00622 -0.09790 139 129 120
-1.67042 -4.01319 -0.09438 129 127 136
-1.66278 -4.01586 -0.07890 132 139 132
-1.82961 -3.98798 -0.03899 141 127 112
-1.81163 -3.98018 -0.02627 147 134 142
-1.81500 -3.98115 -0.04244 141 143 123
-1.81837 -3.98211 -0.05861 140 156 145
-1.82624 -3.98702 -0.02282 146 141 135
-1.83298 -3.98895 -0.05516 140 145 128
-1.84235 -3.99651 -0.03599 140 118 113
-1.85359 -4.00238 -0.01636 141 135 116
-1.85696 -4.00335 -0.03254 142 129 126
-1.86033 -4.00431 -0.04871 133 128 131
-2.13536 -4.19897 0.03299 139 125 127
-2.11714 -4.19106 0.04588 135 131 121
-2.13195 -4.19799 0.04938 139 137 117
-2.13878 -4.19995 0.01659 154 156 131
-2.14675 -4.20492 0.05288 138 133 131
-2.56900 -4.14901 0.13662 90 89 69
-2.58264 -4.15609 0.13984 61 49 58
-3.02062 -4.14529 0.24433 81 97 123
-3.02371 -4.14617 0.22947 93 97 118
-3.03563 -4.14929 0.24789 176 194 207
-3.05275 -4.15025 0.25197 223 233 239
-3.06923 -4.15740 0.24031 231 237 241
-3.50141 -4.40751 0.35782 140 148 155
-3.49100 -4.40207 0.33964 170 191 208
-3.48862 -4.49735 0.35437 39 39 46
-3.49180 -4.49826 0.33907 80 83 81
-3.50562 -4.50473 0.34234 83 94 96
-3.44873 -4.64337 0.34421 84 86 82
-3.46633 -4.65101 0.33175 100 111 115
-3.46587 -4.75204 0.34781 108 122 119
-3.48384 -4.75983 0.33510 112 125 134
-3.93674 -5.05811 0.45874 120 133 135
-3.92531 -5.05214 0.43878 130 139 148
-3.94016 -5.05909 0.44229 128 142 153
-3.95502 -5.06604 0.44581 133 150 157
-3.96052 -5.03891 0.46450 145 156 153
-3.97869 -5.04679 0.45164 139 151 149
-4.09703 -5.14478 0.49658 169 181 190
-4.10047 -5.14576 0.48010 172 186 194
-4.11138 -5.15354 0.49996 184 200 210
-4.15869 -5.16529 0.51119 184 197 210
-4.14726 -5.15931 0.49122 188 197 199
-4.16212 -5.16627 0.49474 192 204 211
-4.17698 -5.17322 0.49825 188 206 223
-4.21281 -5.15157 0.52416 188 201 208
-4.20146 -5.14564 0.50434 184 205 217
-4.24528 -5.15426 0.53189 182 195 202
-4.26338 -5.16212 0.51908 199 216 224
-4.26067 -5.15857 0.53554 199 215 217
-4.27876 -5.16642 0.52274 200 221 225
-4.27636 -5.16164 0.53927 206 220 217
-4.29444 -5.16949 0.52648 207 220 229
-4.29244 -5.16311 0.54310 211 227 226
-4.31049 -5.17094 0.53032 204 216 227
-5.06697 -5.56730 0.72600 173 185 202
-5.04876 -5.55940 0.73888 197 213 219
-5.05217 -5.56037 0.72250 183 192 202
-5.05559 -5.56135 0.70612 186 197 210
-5.15595 -5.60501 0.74705 193 209 221
-5.13775 -5.59712 0.75993 195 198 208
-5.14458 -5.59907 0.72719 198 215 216
-5.15936 -5.60599 0.73069 200 216 220
-5.58418 -5.79057 0.84835 192 206 219
-5.59552 -5.79650 0.86815 192 200 207
-5.60232 -5.79844 0.83551 207 212 219
-1.36698 -3.76928 -0.16530 141 138 120
-1.84217 -4.00070 -0.05305 134 124 116
-1.83092 -3.99482 -0.07270 144 139 136
-1.86017 -4.00851 -0.06578 141 134 132
-2.14561 -4.21532 0.01811 153 158 135
-2.13419 -4.20935 -0.00183 156 134 122
-2.15702 -4.22128 0.03805 129 130 111
-2.16045 -4.22226 0.02162 140 136 123
-2.16387 -4.22324 0.00519 139 131 121
-2.52631 -4.15777 0.10996 128 136 131
-2.50891 -4.15022 0.12228 131 118 130
-2.51217 -4.15115 0.10662 140 129 114
-2.51543 -4.15209 0.09096 136 136 119
-2.52958 -4.15871 0.09431 133 132 126
-2.55337 -4.14908 0.11653 149 146 134
-2.54508 -4.18237 0.11428 101 91 89
-2.57555 -4.16944 0.12169 64 58 66
-2.59219 -4.17298 0.12566 51 49 53
-2.60303 -4.17865 0.14460 46 46 49
-2.60629 -4.17958 0.12899 45 49 38
-2.60954 -4.18051 0.11338 47 49 41
-2.93796 -4.24157 0.20813 58 63 66
-2.92095 -4.23419 0.22017 35 33 36
-2.92414 -4.23511 0.20486 66 64 63
-2.92733 -4.23602 0.18956 77 82 75
-3.02662 -4.16745 0.23000 174 187 202
-3.04430 -4.16772 0.23424 223 233 239
-3.06086 -4.17490 0.22253 232 237 240
-3.48980 -4.43648 0.33908 143 157 162
-3.47932 -4.43100 0.32076 169 189 207
-3.46452 -4.51770 0.33237 101 102 98
-3.48164 -4.52513 0.32026 87 96 95
-3.46851 -4.71802 0.33175 92 108 107
-3.45736 -4.71219 0.31227 94 100 104
-4.05464 -5.18377 0.46879 158 177 170
-4.03957 -5.17672 0.46523 147 168 157
-4.05116 -5.18277 0.48547 166 180 176
-4.07318 -5.19181 0.45568 174 186 193
-4.07712 -5.16649 0.47433 167 183 187
-4.09556 -5.17449 0.46128 177 183 192
-4.11373 -5.15819 0.48318 181 194 198
-4.11717 -5.15917 0.46668 176 186 195
-4.13207 -5.16615 0.47020 179 195 204
-4.21894 -5.14260 0.50857 191 206 211
-4.20762 -5.13668 0.48880 194 206 223
-4.22234 -5.14357 0.49227 202 217 221
-4.23483 -5.14516 0.51236 191 201 204
-4.25292 -5.15301 0.49956 205 219 226
-4.24885 -5.15455 0.51565 197 209 213
-4.26696 -5.16240 0.50285 205 219 230
-5.08650 -5.55648 0.71359 191 200 205
-5.07517 -5.55056 0.69379 197 208 211
-5.08990 -5.55746 0.69727 199 207 206
-5.10464 -5.56435 0.70075 199 202 200
-5.58710 -5.77646 0.83203 208 209 223
-5.60519 -5.78430 0.81924 197 208 215
-1.84472 -4.00242 -0.06945 139 137 125
-1.83346 -3.99654 -0.08910 145 144 136
-1.90815 -4.10846 -0.05532 140 123 128
-1.88987 -4.10053 -0.04238 155 142 123
-1.89672 -4.10249 -0.07528 155 142 137
-1.90472 -4.10748 -0.03887 148 127 127
-1.91158 -4.10945 -0.07177 148 138 134
-1.91958 -4.11443 -0.03536 151 125 133
-1.92331 -4.11512 -0.05173 142 121 124
-1.93474 -4.12109 -0.03177 144 142 139
-1.93379 -4.12631 -0.04932 138 135 130
-1.94523 -4.13228 -0.02934 150 147 123
-1.94866 -4.13327 -0.04581 143 144 128
-2.44975 -4.18205 0.07475 146 139 129
-2.43543 -4.17535 0.07136 133 131 112
-2.43874 -4.17630 0.05551 136 136 131
-2.44645 -4.18111 0.09061 152 150 137
-2.46408 -4.18876 0.07813 145 148 128
-2.46738 -4.18970 0.06228 143 148 138
-2.54623 -4.16235 0.09829 142 134 116
-2.53536 -4.15667 0.07930 132 130 134
-2.54260 -4.19019 0.09710 99 104 94
-2.57445 -4.17561 0.10496 75 65 60
-2.58631 -4.18498 0.10772 58 49 55
-2.60372 -4.19253 0.09541 49 49 43
-2.96953 -4.20254 0.20014 70 75 76
-2.95902 -4.19705 0.18178 83 83 76
-2.99979 -4.18538 0.20765 93 90 113
-3.02858 -4.16998 0.21478 167 176 195
-3.03983 -4.17952 0.21739 220 230 237
-3.05644 -4.18673 0.20564 232 238 244
-3.47934 -4.46337 0.32040 144 158 171
-3.46878 -4.45786 0.30196 168 189 205
-3.46395 -4.52592 0.31597 104 111 116
-3.48110 -4.53336 0.30384 88 96 92
-3.48379 -4.69471 0.31886 96 105 110
-3.47271 -4.68892 0.29950 97 106 101
-3.50152 -4.70241 0.30631 107 120 122
-3.48528 -4.72797 0.31884 104 120 122
-3.50313 -4.73572 0.30621 112 124 129
-4.24024 -5.13865 0.49666 206 217 219
-4.22895 -5.13275 0.47694 202 213 223
-4.24363 -5.13962 0.48041 205 217 224
-4.25830 -5.14648 0.48388 204 221 229
-5.23522 -5.67912 0.73101 195 208 220
-5.22032 -5.67215 0.72749 203 216 222
-5.23178 -5.67814 0.74750 190 204 217
-5.23865 -5.68011 0.71452 180 186 190
-5.24668 -5.68511 0.75103 199 210 216
-5.25088 -5.66481 0.73496 196 208 218
-5.26571 -5.67175 0.73847 194 206 210
-5.26913 -5.67273 0.72204 188 201 211
-5.32543 -5.68054 0.75280 189 197 201
-5.34362 -5.68843 0.73993 211 221 223
-1.86507 -4.00808 -0.08158 142 136 116
-1.87632 -4.01396 -0.06194 154 143 135
-1.88306 -4.01589 -0.09431 141 137 126
-1.87609 -4.01825 -0.07905 150 133 119
-1.89072 -4.02510 -0.07559 153 146 144
-1.93073 -4.11226 -0.06715 150 143 132
-1.91932 -4.10629 -0.08708 143 139 141
-1.93415 -4.11324 -0.08357 152 148 137
-1.94899 -4.12018 -0.08007 165 147 135
-1.93874 -4.12582 -0.06540 151 150 137
-1.95704 -4.13376 -0.07834 157 149 125
-2.02919 -4.12282 -0.04335 157 148 139
-2.01785 -4.11690 -0.06314 145 139 131
-2.02579 -4.12185 -0.02704 165 156 122
-2.03259 -4.12380 -0.05966 148 137 143
-2.04392 -4.12972 -0.03987 150 146 129
-2.04732 -4.13069 -0.05618 154 140 135
-2.33631 -4.19998 0.03024 143 147 130
-2.31842 -4.19222 0.04289 136 120 114
-2.32513 -4.19414 0.01071 136 134 127
-2.33296 -4.19902 0.04633 139 140 118
-2.34749 -4.20582 0.04976 138 140 114
-2.34805 -4.20993 0.03294 135 134 118
-2.35924 -4.21578 0.05249 139 124 127
-2.36260 -4.21674 0.03638 142 137 122
-2.36596 -4.21770 0.02028 134 134 121
-2.54027 -4.17424 0.08024 144 136 120
-2.52936 -4.16855 0.06119 129 129 128
-2.54006 -4.19809 0.07984 109 105 86
-2.56693 -4.18954 0.08650 81 77 72
-2.58382 -4.19290 0.09056 60 48 60
-2.60126 -4.20047 0.07822 52 49 48
-2.74824 -4.33124 0.12852 48 44 51
-2.75928 -4.33701 0.14780 44 35 35
-2.76400 -4.33606 0.13228 58 53 55
-2.77503 -4.34183 0.15156 49 36 46
-2.78165 -4.34372 0.11979 78 76 70
-2.97549 -4.19948 0.18576 79 82 70
-2.96499 -4.19399 0.16742 93 88 88
-3.00011 -4.19028 0.19188 88 83 90
-3.02583 -4.17926 0.19830 154 162 180
-3.03776 -4.18788 0.20108 213 225 237
-3.05441 -4.19510 0.18930 234 237 241
-3.48197 -4.46531 0.30506 144 160 171
-3.47141 -4.45980 0.28661 168 188 207
-3.46476 -4.53147 0.29989 104 110 111
-3.48193 -4.53893 0.28774 93 100 96
-2.33961 -4.20101 0.01413 153 155 123
-2.53506 -4.18527 0.06228 142 138 117
-2.52413 -4.17955 0.04318 136 132 124
-2.54634 -4.19545 0.06486 122 112 98
-2.55884 -4.20420 0.06776 86 77 77
-2.58684 -4.19414 0.07480 61 53 69
-2.71386 -4.30500 0.10389 45 38 48
-2.69623 -4.29735 0.11637 43 41 45
-2.69953 -4.29830 0.10051 40 39 49
-2.71055 -4.30405 0.11975 41 42 39
-2.72461 -4.31643 0.10632 42 41 49
-2.73607 -4.32697 0.10893 52 51 62
-2.75194 -4.33166 0.11273 64 58 66
-2.76555 -4.33938 0.11593 73 72 69
-2.78322 -4.34705 0.10343 91 84 78
-2.97904 -4.19981 0.17075 96 95 81
-2.96854 -4.19433 0.15242 107 105 98
-3.00115 -4.19416 0.17627 85 87 90
-3.02792 -4.18163 0.18306 140 151 167
-3.02821 -4.20707 0.18267 210 220 232
-3.47596 -4.48383 0.28728 147 165 172
-3.46534 -4.47828 0.26875 168 188 208
-3.46631 -4.53564 0.28398 111 118 113
-3.48349 -4.54310 0.27182 93 101 100
-3.49232 -4.65692 0.28814 99 108 102
-3.47474 -4.64929 0.30058 100 112 99
-3.48133 -4.65118 0.26894 112 123 119
-3.50991 -4.66455 0.27570 115 128 131
-3.50172 -4.67359 0.29014 106 121 122
-3.51935 -4.68124 0.27766 112 124 125
-5.25897 -5.63077 0.70308 195 205 206
-5.27709 -5.63863 0.69026 200 215 218
-5.33272 -5.65844 0.72063 206 212 216
-5.34758 -5.65555 0.72433 203 208 206
-5.36564 -5.66338 0.71155 175 195 195
-5.36221 -5.66603 0.72772 187 193 193
-1.96998 -4.04109 -0.09043 153 146 140
-1.98456 -4.04791 -0.08698 152 149 140
-2.29788 -4.16050 -0.01218 127 113 95
-2.28006 -4.15277 0.00042 129 129 131
-2.28340 -4.15373 -0.01560 132 124 108
-2.30901 -4.16632 0.00727 124 128 129
-2.31569 -4.16823 -0.02479 146 150 140
-2.33466 -4.18822 -0.00371 150 146 119
-2.33801 -4.18918 -0.01977 156 155 144
-2.35659 -4.20980 0.00122 131 112 128
-2.37448 -4.21756 -0.01144 150 141 127
-2.36702 -4.22127 0.00355 139 133 126
-2.37822 -4.22712 0.02311 142 135 128
-2.38158 -4.22808 0.00699 140 139 125
-2.38494 -4.22904 -0.00913 136 143 130
-2.53353 -4.19194 0.04523 138 127 116
-2.54661 -4.20001 0.04828 134 127 109
-2.56070 -4.20686 0.05161 102 99 103
-2.58427 -4.20218 0.05752 65 63 64
-2.60036 -4.20651 0.06139 53 49 48
-2.61128 -4.21222 0.08046 48 46 38
-2.61455 -4.21316 0.06475 48 48 33
-2.61783 -4.21409 0.04903 49 47 27
-2.71754 -4.30545 0.08814 63 53 68
-2.73735 -4.30488 0.09303 73 76 71
-2.74547 -4.31980 0.09471 79 83 75
-2.75763 -4.32942 0.09750 83 84 72
-2.77197 -4.33613 0.10089 85 83 78
-2.78961 -4.34379 0.08840 117 113 88
-2.97578 -4.20978 0.15387 110 108 96
-2.96526 -4.20428 0.13549 128 119 108
-2.97894 -4.21068 0.13873 128 122 102
-3.00049 -4.20046 0.16017 100 96 103
-3.02020 -4.19809 0.16508 143 148 161
-3.02136 -4.22242 0.16483 205 215 225
-3.03866 -4.22350 0.16908 230 236 240
-3.04915 -4.22898 0.18739 231 233 236
-3.05229 -4.22988 0.17230 231 234 237
-3.05544 -4.23078 0.15720 232 234 240
-3.46970 -4.50288 0.26929 148 166 174
-3.46901 -4.53757 0.26837 113 120 117
-3.48620 -4.54503 0.25620 96 103 105
-3.50323 -4.64245 0.27453 111 122 121
-3.49228 -4.63673 0.25541 114 123 125
-3.50651 -4.64339 0.25877 118 125 129
-3.52074 -4.65005 0.26214 116 128 131
-4.02531 -4.95166 0.39654 141 152 160
-4.01089 -4.94491 0.39313 145 152 158
-4.04357 -4.94674 0.40115 154 169 165
-4.05464 -4.95252 0.42047 162 169 162
-4.06128 -4.95443 0.38862 172 180 171
-5.35139 -5.62937 0.70877 178 197 196
-5.36935 -5.63717 0.69607 172 191 201
-1.47029 -3.77988 -0.22481 147 150 134
-1.48144 -3.78571 -0.20534 153 150 134
-1.48479 -3.78667 -0.22139 153 151 129
-1.89740 -4.01079 -0.12463 148 147 136
-1.90077 -4.01176 -0.14078 160 161 142
-1.91536 -4.01859 -0.13733 157 149 139
-2.28320 -4.15854 -0.03261 144 135 119
-2.26536 -4.15080 -0.01999 132 127 110
-2.27205 -4.15272 -0.05208 152 160 132
-2.28654 -4.15950 -0.04865 149 139 138
-2.30103 -4.16628 -0.04522 145 138 124
-2.30370 -4.15874 -0.02752 145 142 123
-2.34914 -4.19975 -0.01728 155 151 126
-2.36015 -4.21052 -0.01481 148 148 125
-2.37805 -4.21828 -0.02747 133 121 116
-2.45466 -4.19550 0.00901 140 137 121
-2.43699 -4.18783 0.02152 138 138 130
-2.44030 -4.18878 0.00562 124 122 120
-2.45798 -4.19645 -0.00689 120 118 108
-2.46571 -4.20127 0.02831 127 130 124
-2.46903 -4.20222 0.01241 140 136 120
-2.49556 -4.19461 0.01918 138 129 120
-2.49226 -4.19366 0.03502 131 128 111
-2.49886 -4.19556 0.00335 137 138 131
-2.51488 -4.19535 0.02396 153 147 124
-2.52828 -4.20309 0.02709 148 154 131
-2.54795 -4.20329 0.03197 148 130 118
-2.56474 -4.20689 0.03604 115 100 96
-2.58665 -4.20422 0.04155 72 71 54
-2.59896 -4.21319 0.04437 54 49 44
-2.61645 -4.22078 0.03200 50 51 42
-2.66835 -4.27345 0.06008 52 43 54
-2.65075 -4.26582 0.07253 48 45 46
-2.65405 -4.26676 0.05670 49 44 47
-2.66505 -4.27251 0.07591 47 44 48
-2.68390 -4.30376 0.06318 61 59 67
-2.71488 -4.31425 0.07060 80 82 78
-2.73794 -4.30942 0.07644 84 81 85
-2.75023 -4.31881 0.07926 88 88 85
-2.76096 -4.33034 0.08163 94 92 81
-2.77377 -4.33911 0.08459 105 100 85
-2.79143 -4.34677 0.07210 124 126 108
-3.00521 -4.19912 0.14553 121 115 102
-2.99474 -4.19365 0.12725 139 138 116
-3.02158 -4.20151 0.14954 149 153 151
-3.00626 -4.24977 0.14452 200 210 215
-3.03066 -4.24067 0.15081 228 234 240
-3.04752 -4.24799 0.13888 232 237 243
-3.49155 -4.43527 0.26029 168 187 207
-3.47477 -4.42799 0.27216 169 190 212
-3.47792 -4.42889 0.25706 170 189 211
-3.48106 -4.42979 0.24197 169 189 212
-3.47260 -4.50436 0.25385 148 164 176
-3.47251 -4.53795 0.25298 116 120 122
-4.01140 -4.95424 0.37625 153 156 159
-3.99361 -4.94652 0.38884 144 158 155
-3.99695 -4.94748 0.37283 146 154 156
-4.02679 -4.95817 0.37997 161 169 172
-4.04457 -4.96588 0.36740 178 189 188
-4.04422 -4.95583 0.38436 171 185 181
-4.06196 -4.96353 0.37181 177 185 179
-1.45474 -3.75960 -0.24497 147 152 144
-1.44362 -3.75379 -0.26440 162 160 155
-1.48785 -3.76991 -0.23700 145 143 130
-1.50563 -3.77763 -0.24958 155 151 151
-1.87000 -3.93971 -0.14641 155 152 136
-1.85226 -3.93201 -0.13385 157 145 126
-1.85558 -3.93297 -0.14981 154 148 132
-1.86667 -3.93876 -0.13044 163 142 130
-1.87333 -3.94067 -0.16237 156 157 150
-1.88442 -3.94646 -0.14300 160 165 143
-1.89983 -3.99236 -0.14046 153 145 133
-2.04377 -4.01993 -0.10530 157 142 137
-2.02936 -4.01319 -0.10870 140 140 134
-2.03268 -4.01414 -0.12466 133 132 139
-2.04044 -4.01898 -0.08934 158 138 120
-2.05486 -4.02573 -0.08593 163 148 132
-2.05818 -4.02668 -0.10189 164 143 133
-2.34131 -4.19019 -0.03585 140 130 139
-2.34466 -4.19114 -0.05191 129 135 118
-2.35917 -4.19793 -0.04848 127 124 85
-2.35043 -4.20304 -0.03394 136 147 134
-2.36346 -4.21154 -0.03092 142 135 124
-2.43598 -4.19855 -0.01244 130 137 116
-2.42158 -4.19181 -0.01585 134 140 129
-2.43930 -4.19950 -0.02839 141 139 128
-2.47971 -4.19454 -0.00141 137 136 131
-2.51724 -4.19740 0.00789 155 145 127
-2.52054 -4.19835 -0.00793 133 121 110
-2.53482 -4.20503 -0.00455 136 125 129
-2.53003 -4.20588 0.01084 145 139 129
-2.54784 -4.20833 0.01521 140 128 128
-2.56118 -4.21614 0.01832 124 121 106
-2.58183 -4.21504 0.02351 84 84 64
-2.59802 -4.21932 0.02743 57 55 50
-2.61554 -4.22693 0.01504 41 46 56
-2.65097 -4.25102 0.03975 47 47 54
-2.63342 -4.24340 0.05217 49 46 49
-2.63671 -4.24434 0.03638 51 47 56
-2.64768 -4.25007 0.05554 47 46 49
-2.66232 -4.26138 0.04229 56 46 52
-2.66830 -4.27869 0.04329 65 58 66
-2.66661 -4.30605 0.04209 79 74 74
-2.68453 -4.30821 0.04650 84 82 80
-2.73984 -4.31222 0.06020 94 93 92
-2.75128 -4.32277 0.06276 98 98 101
-2.75484 -4.34400 0.06304 107 115 101
-2.76535 -4.35599 0.06532 117 120 104
-2.78309 -4.36368 0.05278 127 131 118
-3.00222 -4.20878 0.12868 130 133 118
-2.99172 -4.20330 0.11035 131 136 128
-3.00537 -4.20969 0.11358 128 134 127
-3.01846 -4.21142 0.13267 147 151 144
-3.00802 -4.25273 0.12888 192 200 203
-3.02504 -4.25441 0.13308 226 233 240
-3.04196 -4.26175 0.12111 232 238 243
-3.49486 -4.43586 0.24524 168 188 205
-3.48438 -4.43038 0.22692 168 190 213
-3.47524 -4.50636 0.23833 147 164 176
-3.47727 -4.53589 0.23799 115 124 125
-3.48998 -4.54486 0.24091 97 104 107
-3.50072 -4.55047 0.25967 97 113 120
-3.50395 -4.55139 0.24421 98 111 118
-3.99993 -4.99933 0.35529 160 167 164
-3.98870 -4.99346 0.33567 141 146 154
-4.00330 -5.00030 0.33912 159 174 169
-4.01791 -5.00713 0.34258 164 177 181
-5.32969 -5.58087 0.67080 182 189 202
-5.31855 -5.57505 0.65134 177 188 207
-5.34751 -5.58861 0.65818 202 210 218
-5.50357 -5.66756 0.71175 180 192 206
-5.48907 -5.66078 0.70832 177 186 200
-5.50022 -5.66660 0.72780 189 204 209
-5.50691 -5.66852 0.69569 172 189 202
-5.51472 -5.67339 0.73123 189 201 210
-5.52141 -5.67530 0.69912 169 185 198
-1.47190 -3.76781 -0.25774 158 147 138
-1.48970 -3.77553 -0.27033 150 148 141
-1.62357 -3.81136 -0.22101 150 140 143
-1.60587 -3.80368 -0.20849 151 149 143
-1.60919 -3.80463 -0.22441 144 141 136
-1.62025 -3.81041 -0.20509 161 156 149
-1.63463 -3.81713 -0.20169 158 154 153
-1.64127 -3.81904 -0.23353 143 120 138
-1.83452 -3.87788 -0.17011 162 164 139
-1.82354 -3.87214 -0.18931 160 159 146
-1.84551 -3.88362 -0.15092 153 142 137
-1.85211 -3.88551 -0.18255 144 131 129
-1.84964 -3.88384 -0.16650 150 147 133
-1.86062 -3.88958 -0.14732 150 143 133
-1.86392 -3.89052 -0.16313 144 139 131
-1.88263 -3.89327 -0.15851 150 149 128
-1.87933 -3.89233 -0.14272 153 151 133
-1.90018 -3.90089 -0.17094 156 160 148
-1.88213 -3.91315 -0.15928 151 151 138
-1.89976 -3.92080 -0.17175 163 163 155
-1.89478 -3.94105 -0.15699 163 150 142
-1.91249 -3.94873 -0.16952 163 144 148
-1.89944 -3.97663 -0.15696 157 136 137
-1.90278 -3.97758 -0.17300 161 152 145
-1.91727 -3.98436 -0.16957 151 149 136
-1.91878 -3.99913 -0.15281 151 165 140
-1.93666 -4.00689 -0.16547 146 132 121
-1.93694 -4.00253 -0.14836 146 146 130
