ply
format ascii 1.0
element face 0
property list uchar int vertex_indices
element vertex 1317
property float x
property float y
property float z
property uchar diffuse_red
property uchar diffuse_green
property uchar diffuse_blue
end_header
-2.23396 -3.64544 1.80401 226 229 241
-2.23778 -3.64385 1.81299 218 223 242
-2.24260 -3.64381 1.80005 226 228 241
-2.44400 -3.27129 1.50796 213 227 245
-2.45003 -3.26078 1.49929 179 188 235
-2.45815 -3.26266 1.49772 199 207 238
-2.46555 -3.26034 1.49375 233 236 245
-2.47638 -3.25706 1.49784 235 233 241
-2.46975 -3.26031 1.48247 249 251 253
-2.83910 -3.12767 1.28342 193 175 173
-2.84321 -3.12764 1.27239 129 104 98
-2.85995 -3.16201 1.29803 133 100 98
-2.86413 -3.16198 1.28681 129 114 119
-2.86818 -3.16234 1.29545 128 110 110
-2.17990 -3.59810 1.79271 137 130 184
-2.18899 -3.61187 1.79825 144 131 191
-2.20739 -3.63715 1.80784 201 198 228
-2.20361 -3.63901 1.79908 230 231 241
-2.21219 -3.63711 1.79498 231 233 242
-2.21686 -3.65206 1.81397 219 222 238
-2.22169 -3.65203 1.80102 230 231 241
-2.22544 -3.64918 1.80925 226 230 242
-2.23026 -3.64914 1.79630 229 229 240
-2.42676 -3.28360 1.51168 208 217 251
-2.44241 -3.28347 1.50628 119 123 198
-2.45421 -3.26063 1.48796 156 187 237
-2.46207 -3.26098 1.48551 231 244 251
-2.82760 -3.10691 1.26471 164 133 153
-2.82439 -3.10848 1.25728 144 103 121
-2.83166 -3.10688 1.25380 126 111 101
-2.87280 -3.16347 1.28480 126 113 112
-2.86201 -3.16674 1.28072 127 118 111
-2.86950 -3.16509 1.27714 114 107 101
-2.41498 -3.28110 1.50426 193 194 238
-2.42502 -3.29546 1.50978 128 125 209
-2.42693 -3.25811 1.48588 79 75 158
-2.43284 -3.24687 1.47687 41 38 125
-2.43853 -3.23475 1.46738 29 28 85
-2.44845 -3.24785 1.47216 93 95 152
-2.45807 -3.25869 1.47563 187 206 245
-2.46583 -3.25848 1.47285 234 235 247
-2.47664 -3.25521 1.47694 250 252 253
-2.47002 -3.25845 1.46160 228 231 245
-2.47392 -3.26009 1.47110 237 233 243
-2.48475 -3.25681 1.47519 249 252 253
-2.47812 -3.26006 1.45982 224 223 240
-2.80959 -3.08937 1.25043 212 190 198
-2.80240 -3.09096 1.25387 249 245 245
-2.79922 -3.09251 1.24652 237 231 215
-2.81361 -3.08934 1.23964 129 103 102
-2.16349 -3.58725 1.76959 213 210 226
-2.16817 -3.58721 1.75704 236 238 243
-2.41214 -3.28593 1.49837 175 171 218
-2.40126 -3.28923 1.49426 196 195 238
-2.42961 -3.24882 1.46946 75 54 99
-2.45205 -3.24452 1.45913 137 148 199
-2.46205 -3.25744 1.46370 214 215 244
-2.16014 -3.59952 1.76734 234 234 241
-2.14802 -3.60319 1.76277 241 241 245
-2.15643 -3.60134 1.75875 241 242 245
-2.16483 -3.59948 1.75473 241 242 245
-2.40921 -3.29022 1.49214 180 168 219
-2.39831 -3.29352 1.48803 225 222 245
-2.45786 -3.25397 1.45322 227 220 236
-2.46645 -3.25857 1.45309 246 247 251
-2.47064 -3.25853 1.44185 251 247 247
-2.72372 -3.10869 1.27293 254 253 253
-2.71970 -3.10873 1.28372 254 254 254
-2.71653 -3.11028 1.27637 254 254 254
-2.72689 -3.10714 1.28028 254 254 254
-2.73408 -3.10555 1.27684 254 254 254
-2.72919 -3.10177 1.26681 253 253 253
-2.73952 -3.09864 1.27071 254 254 254
-2.73904 -3.08498 1.25313 248 251 252
-2.74931 -3.08187 1.25700 254 254 254
-2.75962 -3.07795 1.24176 242 243 244
-2.76987 -3.07485 1.24563 253 253 253
-2.76673 -3.07638 1.23836 242 237 242
-2.77992 -3.07029 1.23010 240 219 216
-2.77595 -3.07033 1.24076 253 253 253
-2.77282 -3.07186 1.23350 241 229 231
-2.78305 -3.06876 1.23736 253 252 247
-2.79240 -3.08381 1.23412 222 195 179
-2.79955 -3.08223 1.23070 170 141 108
-2.40328 -3.27426 1.47458 229 223 240
-2.39247 -3.27753 1.47050 250 250 252
-2.39997 -3.27588 1.46691 250 252 252
-2.41881 -3.27439 1.46932 238 239 237
-2.42568 -3.26865 1.46346 232 232 239
-2.43800 -3.24915 1.44734 191 163 191
-2.44572 -3.24916 1.44470 200 178 186
-2.44989 -3.24913 1.43352 232 215 219
-2.45284 -3.24561 1.44009 232 217 228
-2.45700 -3.24558 1.42892 238 232 235
-2.46239 -3.25593 1.44310 249 245 250
-2.46657 -3.25590 1.43187 239 232 235
-2.67864 -3.15040 1.30446 251 253 254
-2.67456 -3.15043 1.31540 254 254 254
-2.67135 -3.15201 1.30794 253 253 254
-2.68186 -3.14882 1.31191 254 254 254
-2.68915 -3.14722 1.30842 254 254 254
-2.68272 -3.15037 1.29352 224 201 203
-2.69897 -3.14043 1.29139 244 249 253
-2.70945 -3.13725 1.29535 254 254 254
-2.70303 -3.14040 1.28048 212 191 190
-2.70339 -3.12946 1.28319 243 244 249
-2.71382 -3.12630 1.28713 254 254 254
-2.70743 -3.12943 1.27233 210 191 189
-2.70896 -3.12247 1.27701 242 237 245
-2.71952 -3.10700 1.26396 241 227 231
-2.72833 -3.08669 1.24855 234 214 216
-2.73231 -3.08666 1.23788 214 194 184
-2.74781 -3.07640 1.23559 216 195 194
-2.75177 -3.07637 1.22494 219 194 179
-2.75568 -3.07713 1.23332 214 194 192
-2.75965 -3.07710 1.22266 219 194 180
-2.76467 -3.08106 1.23263 213 191 193
-2.76866 -3.08103 1.22194 220 198 182
-2.77324 -3.08366 1.23127 213 189 189
-2.77723 -3.08363 1.22056 222 199 178
-2.78077 -3.08318 1.22839 215 189 179
-2.78737 -3.08009 1.22423 213 181 165
-2.79786 -3.08785 1.22536 177 148 116
-2.80819 -3.08472 1.22927 133 106 77
-2.80503 -3.08627 1.22194 133 113 79
-2.80187 -3.08782 1.21460 134 114 83
-3.28149 -3.99373 1.61121 37 33 32
-3.33939 -4.02123 1.60807 5 11 22
-3.33343 -4.02127 1.62407 10 17 16
-3.32872 -4.02358 1.61317 9 17 15
-3.32402 -4.02589 1.60227 9 15 8
-3.34409 -4.01892 1.61897 8 14 10
-3.34535 -4.02118 1.59207 75 79 62
-3.36646 -4.05679 1.62043 46 43 40
-3.38203 -4.05207 1.62631 82 84 76
-3.37726 -4.05440 1.61527 98 93 86
-3.37250 -4.05674 1.60423 102 97 81
-2.36233 -3.22459 1.44885 244 244 248
-2.36641 -3.22456 1.43789 234 243 253
-2.40768 -3.27566 1.46412 244 250 250
-2.42018 -3.25630 1.44810 192 172 212
-2.43456 -3.24983 1.43923 204 174 191
-2.44112 -3.24290 1.43277 220 200 198
-2.44527 -3.24287 1.42164 231 213 214
-2.65950 -3.12320 1.28508 239 213 218
-2.65231 -3.12479 1.28852 243 221 225
-2.66351 -3.12317 1.27430 214 193 180
-2.68470 -3.10505 1.26541 215 192 194
-2.67441 -3.10817 1.26152 218 191 179
-2.68155 -3.10659 1.25811 221 194 176
-2.68869 -3.10501 1.25469 220 196 180
-2.70451 -3.09510 1.25256 210 193 191
-2.69424 -3.09821 1.24869 219 196 180
-2.70137 -3.09664 1.24528 220 196 177
-2.70849 -3.09507 1.24187 220 196 182
-2.72141 -3.10030 1.24988 212 192 197
-2.71826 -3.10185 1.24257 219 196 185
-2.72541 -3.10027 1.23915 219 197 183
-2.78391 -3.08073 1.21650 220 190 166
-2.77363 -3.08385 1.21262 218 194 187
-2.79139 -3.08013 1.21356 183 159 127
-2.79538 -3.08010 1.20285 137 114 88
-3.32681 -4.00508 1.58872 10 16 23
-3.33273 -4.00504 1.57282 87 95 71
-2.05776 -3.49576 1.70750 180 184 225
-2.05330 -3.49580 1.71946 163 172 218
-2.04978 -3.49752 1.71131 134 128 225
-2.04627 -3.49924 1.70316 170 151 235
-2.06128 -3.49404 1.71565 177 184 221
-2.06926 -3.49228 1.71184 185 186 216
-2.34954 -3.20992 1.43493 242 251 253
-2.35790 -3.21688 1.43622 238 250 253
-2.39811 -3.23491 1.43316 202 189 226
-2.40518 -3.23136 1.42858 176 146 182
-2.40929 -3.23133 1.41755 215 183 185
-2.41417 -3.24029 1.43084 179 142 170
-2.41830 -3.24026 1.41975 228 212 202
-2.42239 -3.24393 1.43018 203 179 187
-2.42653 -3.24389 1.41907 229 216 213
-2.42879 -3.23602 1.42322 223 205 204
-2.43291 -3.23599 1.41214 231 215 214
-2.43677 -3.23799 1.42165 226 209 206
-2.44090 -3.23795 1.41055 233 219 219
-2.65315 -3.14070 1.28842 214 190 177
-2.64910 -3.14073 1.29927 243 230 230
-2.64272 -3.14386 1.28448 221 194 176
-2.64995 -3.14226 1.28102 221 194 180
-2.65719 -3.14067 1.27756 222 197 181
-2.65856 -3.13265 1.28171 215 192 173
-2.66259 -3.13262 1.27089 221 194 186
-2.78238 -3.08689 1.21143 216 192 174
-2.77208 -3.09002 1.20754 222 199 181
-3.26038 -3.96940 1.57641 40 35 33
-3.27501 -3.97727 1.57609 32 26 23
-3.29171 -3.98992 1.57791 22 17 21
-3.29759 -3.98987 1.56213 33 25 32
-3.30440 -3.99275 1.57523 16 15 18
-2.05432 -3.49050 1.69515 211 209 241
-2.04286 -3.49397 1.69082 228 224 249
-2.05081 -3.49222 1.68702 247 244 252
-2.05876 -3.49046 1.68322 253 253 253
-2.07022 -3.48954 1.68907 251 252 251
-2.07467 -3.48951 1.67712 254 254 254
-2.33246 -3.21971 1.43724 220 217 248
-2.32840 -3.21974 1.44814 252 253 252
-2.32199 -3.22288 1.43330 169 150 187
-2.32925 -3.22128 1.42982 168 142 189
-2.33651 -3.21967 1.42635 175 140 184
-2.34822 -3.22647 1.43582 199 183 228
-2.35230 -3.22644 1.42487 179 139 166
-2.36011 -3.20278 1.41757 176 148 201
-2.36909 -3.21418 1.42125 166 134 189
-2.37642 -3.21299 1.41800 161 131 178
-2.38409 -3.21419 1.41606 166 139 186
-2.40182 -3.23220 1.42066 184 144 168
-2.40593 -3.23217 1.40963 230 211 209
-3.24174 -3.96499 1.56665 47 41 52
-3.23593 -3.96504 1.58225 40 47 51
-3.23135 -3.96729 1.57162 40 45 50
-3.22676 -3.96953 1.56100 53 43 42
-3.25361 -3.96632 1.56333 52 35 46
-3.26734 -3.97211 1.56202 44 35 38
-3.28629 -3.99031 1.56631 37 22 27
-3.32382 -4.02470 1.57382 59 54 47
-3.32977 -4.02465 1.55783 96 92 81
-2.29986 -3.22424 1.44180 198 177 222
-2.29261 -3.22584 1.44526 208 198 234
-2.30306 -3.22268 1.44920 241 251 254
-2.29667 -3.22581 1.43439 194 155 181
-2.30711 -3.22264 1.43833 184 167 214
-2.30391 -3.22421 1.43092 190 157 181
-2.35662 -3.20205 1.40893 187 143 163
-2.36591 -3.21594 1.41392 188 149 162
-2.37344 -3.21625 1.41149 190 159 161
-2.37751 -3.21622 1.40058 222 198 183
-2.38109 -3.21727 1.40944 200 171 175
-2.38516 -3.21724 1.39851 223 196 183
-2.38888 -3.21916 1.40785 209 182 185
-2.39296 -3.21913 1.39690 222 197 189
-2.77649 -3.09119 1.19737 222 200 184
-2.76618 -3.09431 1.19348 221 197 184
-2.78055 -3.08078 1.18980 202 175 149
-2.79820 -3.10888 1.20031 140 113 104
-2.80862 -3.10572 1.20424 107 99 99
-2.80543 -3.10729 1.19685 96 89 97
-3.23217 -3.95482 1.55040 68 58 52
-3.24220 -3.95176 1.54510 77 71 49
-3.24799 -3.95171 1.52958 89 80 69
-3.27968 -3.98780 1.55342 84 75 67
-3.28554 -3.98776 1.53768 90 83 74
-3.29554 -3.99836 1.55416 86 78 69
-3.30143 -3.99832 1.53835 91 85 77
-2.16638 -3.25924 1.49943 242 249 252
-2.16232 -3.25927 1.51033 243 240 244
-2.15592 -3.26241 1.49548 212 207 235
-2.16959 -3.25767 1.50686 243 239 244
-2.16318 -3.26081 1.49201 205 198 228
-2.17685 -3.25606 1.50339 240 236 243
-2.17362 -3.25707 1.49564 242 249 252
-2.18409 -3.25390 1.49959 236 236 244
-2.18085 -3.25462 1.49168 241 246 251
-2.19131 -3.25145 1.49563 238 241 248
-2.18490 -3.25459 1.48079 196 184 210
-2.18808 -3.25262 1.48798 240 242 250
-2.19854 -3.24945 1.49193 240 243 251
-2.19214 -3.25258 1.47709 200 181 210
-2.20269 -3.25102 1.48195 239 230 248
-2.21316 -3.24785 1.48590 246 248 251
-2.20675 -3.25099 1.47106 202 177 209
-2.20997 -3.24978 1.47869 233 225 248
-2.22044 -3.24660 1.48264 248 251 251
-2.21404 -3.24975 1.46779 202 174 210
-2.22437 -3.24462 1.47064 218 208 245
-2.22757 -3.24305 1.47806 247 252 252
-2.22117 -3.24619 1.46322 202 171 211
-2.22843 -3.24459 1.45975 201 168 205
-2.28847 -3.21766 1.43245 191 163 187
-2.28125 -3.21925 1.43590 191 165 191
-2.27807 -3.22081 1.42853 209 180 170
-2.35533 -3.21829 1.40952 221 188 174
-2.34486 -3.22146 1.40557 222 189 173
-2.35213 -3.21986 1.40210 223 190 178
-2.35939 -3.21826 1.39862 222 190 172
-2.37042 -3.21916 1.40478 221 196 181
-2.37449 -3.21913 1.39386 218 189 173
-2.77391 -3.09439 1.19083 223 197 180
-2.79293 -3.10455 1.19018 149 117 106
-2.81029 -3.13142 1.19992 91 72 86
-2.82083 -3.12823 1.20390 83 77 91
-2.81760 -3.12981 1.19643 79 76 88
-2.81438 -3.13139 1.18896 75 79 87
-3.21686 -3.95835 1.54433 63 53 50
-3.21108 -3.95840 1.55985 49 47 53
-3.20652 -3.96063 1.54928 52 52 56
-3.20196 -3.96287 1.53870 51 53 55
-3.22824 -3.95865 1.54054 81 79 53
-3.23403 -3.95861 1.52501 88 80 73
-3.23894 -3.95721 1.53596 89 82 61
-3.24473 -3.95716 1.52042 90 79 79
-2.17034 -3.25680 1.48717 201 192 219
-2.15989 -3.25997 1.48322 198 167 193
-2.16714 -3.25837 1.47975 197 166 185
-2.17440 -3.25677 1.47628 194 166 178
-2.17778 -3.25930 1.48603 196 188 214
-2.18185 -3.25927 1.47512 195 170 174
-2.75160 -3.10772 1.19708 218 200 183
-2.74758 -3.10775 1.20786 220 195 187
-2.74441 -3.10930 1.20051 220 198 181
-2.75477 -3.10616 1.20442 221 197 185
-2.76196 -3.10458 1.20099 221 197 182
-2.75832 -3.10475 1.19300 215 199 185
-2.76472 -3.10085 1.18849 212 200 188
-2.77162 -3.09847 1.18469 212 199 184
-2.77859 -3.09633 1.18100 198 182 157
-2.78559 -3.09426 1.17735 143 120 105
-2.78960 -3.09423 1.16660 80 76 83
-2.80415 -3.12477 1.18867 85 70 78
-2.80822 -3.12474 1.17774 79 82 87
-3.22439 -3.96268 1.53075 84 80 59
-3.23018 -3.96264 1.51521 90 81 75
-2.69934 -3.12438 1.21568 216 198 188
-2.70972 -3.12123 1.21960 222 193 174
-2.70337 -3.12435 1.20488 128 131 163
-2.70739 -3.12556 1.21354 210 197 184
-2.71778 -3.12241 1.21747 222 193 176
-2.71142 -3.12553 1.20273 119 112 160
-2.73663 -3.12042 1.20032 188 185 189
-2.73260 -3.12045 1.21115 219 194 187
-2.72941 -3.12201 1.20377 196 187 193
-2.73981 -3.11886 1.20770 219 196 184
-2.74066 -3.12039 1.18950 61 59 113
-2.74225 -3.11393 1.19460 177 179 178
-2.74627 -3.11390 1.18380 46 50 96
-2.74658 -3.10366 1.18713 164 171 170
-2.75058 -3.10363 1.17638 31 45 91
-2.75146 -3.09525 1.18055 150 162 169
-2.75546 -3.09521 1.16983 23 41 84
-2.75774 -3.09110 1.17595 139 150 168
-2.76173 -3.09107 1.16525 20 39 79
-2.77201 -3.08795 1.16913 123 122 144
-2.77599 -3.08792 1.15843 51 55 83
-2.78984 -3.11703 1.17972 97 90 97
-3.22077 -3.96733 1.52122 85 80 57
-3.22657 -3.96728 1.50566 88 80 77
-2.62899 -3.16011 1.25157 218 199 185
-2.62493 -3.16014 1.26247 219 195 181
-2.62173 -3.16171 1.25504 217 201 190
-2.61853 -3.16329 1.24762 158 158 172
-2.63220 -3.15854 1.25899 222 192 179
-2.63946 -3.15694 1.25552 223 191 179
-2.63560 -3.15606 1.24692 218 199 180
-2.64606 -3.15289 1.25087 222 195 184
-2.64225 -3.15223 1.24238 213 198 180
-2.65270 -3.14907 1.24632 221 194 187
-2.64877 -3.14797 1.23764 206 195 180
-2.65920 -3.14481 1.24158 221 194 185
-2.65601 -3.14637 1.23418 203 193 181
-2.65281 -3.14794 1.22678 101 86 140
-2.73888 -3.13893 1.20079 75 68 133
-2.74295 -3.13890 1.18987 26 33 67
-3.20880 -3.97949 1.51892 48 38 28
-3.21813 -3.97449 1.51277 78 81 55
-3.22394 -3.97444 1.49718 91 79 69
-2.56205 -3.18328 1.27892 215 199 181
-2.55798 -3.18331 1.28985 219 195 175
-2.55476 -3.18489 1.28240 218 199 178
-2.56527 -3.18170 1.28637 220 194 180
-2.57256 -3.18009 1.28288 222 193 181
-2.56922 -3.18113 1.27517 213 197 184
-2.57972 -3.17795 1.27913 222 192 173
-2.57664 -3.18011 1.27197 206 194 183
-2.58715 -3.17693 1.27594 221 195 173
-2.58395 -3.17856 1.26851 202 193 186
-2.59445 -3.17537 1.27248 225 196 182
-2.59124 -3.17695 1.26503 195 190 191
-2.62303 -3.12244 1.22272 138 133 162
-2.63989 -3.12876 1.22039 110 104 142
-2.65456 -3.12682 1.21412 90 69 129
-2.65773 -3.12527 1.22144 198 190 181
-2.65140 -3.12837 1.20679 46 32 64
-2.66490 -3.12369 1.21802 187 181 174
-3.19505 -3.98725 1.51467 53 56 39
-3.18005 -3.99179 1.50900 64 63 35
-3.20433 -3.98204 1.50843 34 35 43
-3.21599 -3.98295 1.50484 75 76 57
-3.22181 -3.98290 1.48922 92 78 63
-2.55641 -3.17419 1.26629 142 132 151
-2.56321 -3.17065 1.26188 134 120 144
-2.57241 -3.17734 1.26242 118 106 143
-2.58470 -3.16484 1.25100 93 74 124
-2.59195 -3.16324 1.24753 85 66 114
-2.60107 -3.16915 1.24766 70 64 102
-2.60427 -3.16758 1.25509 178 177 176
-2.61154 -3.16598 1.25162 169 168 175
-2.60833 -3.16755 1.24419 58 52 89
-2.60513 -3.16912 1.23676 57 47 67
-2.63422 -3.14927 1.22469 31 26 73
-2.62381 -3.15242 1.22076 58 47 55
-2.63104 -3.15083 1.21730 58 48 54
-2.63826 -3.14923 1.21385 60 50 56
-2.66393 -3.14571 1.21218 53 34 64
-2.65350 -3.14887 1.20825 58 51 62
-2.66074 -3.14728 1.20479 57 50 62
-2.66798 -3.14568 1.20132 59 50 59
-3.19610 -3.97484 1.49373 25 26 35
-3.21121 -3.98472 1.49399 71 72 64
-3.21703 -3.98467 1.47838 88 78 63
-3.45825 -3.94775 1.38580 134 120 95
-3.45239 -3.94780 1.40150 140 122 92
-3.44778 -3.95006 1.39080 131 120 94
-3.46286 -3.94549 1.39650 143 123 99
-3.47333 -3.94318 1.39149 142 125 104
-3.46893 -3.94589 1.38097 136 121 97
-3.48401 -3.94131 1.38667 141 126 101
-3.47940 -3.94358 1.37597 137 123 100
-2.41192 -3.23212 1.34059 214 192 179
-2.40782 -3.23215 1.35159 221 192 166
-2.40135 -3.23532 1.33660 161 147 167
-2.41516 -3.23053 1.34809 224 191 171
-2.40868 -3.23371 1.33309 154 142 160
-2.42249 -3.22892 1.34458 221 192 171
-2.41906 -3.22926 1.33645 209 191 181
-2.42962 -3.22606 1.34044 220 190 174
-2.42639 -3.22767 1.33296 204 188 181
-2.43696 -3.22446 1.33695 223 189 172
-2.43049 -3.22763 1.32196 124 105 139
-2.43394 -3.22736 1.33011 199 185 174
-2.44451 -3.22416 1.33410 221 192 177
-2.44128 -3.22574 1.32661 192 184 172
-2.50605 -3.20495 1.29198 114 96 135
-2.49874 -3.20656 1.29548 124 113 143
-2.50928 -3.20337 1.29946 199 190 179
-2.51660 -3.20175 1.29596 193 183 183
-2.51337 -3.20333 1.28848 104 87 121
-2.51014 -3.20492 1.28101 63 51 77
-2.54684 -3.18132 1.26426 55 54 82
-2.53637 -3.18450 1.26031 64 48 58
-2.54364 -3.18290 1.25683 64 51 58
-2.55090 -3.18129 1.25336 62 51 58
-2.55415 -3.17989 1.26087 51 40 79
-2.55821 -3.17986 1.24996 61 51 57
-2.56008 -3.17249 1.25461 48 35 77
-2.56413 -3.17246 1.24373 57 51 55
-2.56725 -3.17057 1.25099 51 40 78
-2.57130 -3.17054 1.24011 61 48 58
-2.58095 -3.16406 1.24248 52 38 84
-2.58499 -3.16403 1.23162 61 49 64
-2.58789 -3.16130 1.23846 55 41 81
-2.59194 -3.16127 1.22762 63 50 50
-3.20539 -3.98381 1.48201 69 68 59
-3.21121 -3.98377 1.46641 88 77 70
-3.43336 -3.95604 1.38567 116 107 86
-3.42750 -3.95608 1.40138 134 119 98
-3.41827 -3.96061 1.37997 92 85 79
-3.43798 -3.95377 1.39637 132 120 94
-3.42874 -3.95830 1.37496 94 83 85
-3.44397 -3.95402 1.38077 109 102 81
-3.45434 -3.95151 1.37569 109 100 85
-3.46473 -3.94901 1.37061 117 107 92
-3.47563 -3.94759 1.36594 128 119 100
-3.49073 -3.94301 1.37164 140 126 100
-3.48611 -3.94528 1.36094 138 127 105
-3.48149 -3.94754 1.35023 137 127 101
-2.32333 -3.27723 1.38768 216 193 169
-2.31918 -3.27726 1.39880 221 188 170
-2.31264 -3.28047 1.38364 178 167 171
-2.32660 -3.27563 1.39526 222 189 167
-2.33401 -3.27399 1.39171 220 191 173
-2.33012 -3.27016 1.38132 212 195 172
-2.34078 -3.26693 1.38534 220 191 176
-2.33743 -3.26772 1.37736 210 192 176
-2.34808 -3.26449 1.38139 222 188 173
-2.34471 -3.26518 1.37336 208 187 177
-2.35537 -3.26195 1.37738 221 189 176
-2.35211 -3.26355 1.36983 205 186 177
-2.35866 -3.25537 1.36294 200 185 177
-2.36191 -3.25378 1.37047 219 191 174
-2.36928 -3.25215 1.36695 220 191 177
-2.36603 -3.25374 1.35941 193 181 180
-2.49632 -3.21226 1.29001 60 57 85
-2.49222 -3.21229 1.30101 136 116 149
-2.48576 -3.21546 1.28602 69 58 74
-2.49309 -3.21385 1.28252 66 55 64
-2.50042 -3.21223 1.27902 68 54 75
-3.20193 -3.98897 1.47261 66 61 55
-3.18693 -3.99351 1.46695 28 20 57
-3.44094 -3.95964 1.37138 87 79 81
-3.42583 -3.96422 1.36567 96 84 73
-3.43631 -3.96191 1.36066 90 78 72
-3.44680 -3.95959 1.35565 93 80 72
-3.45136 -3.95719 1.36631 88 81 78
-3.45722 -3.95715 1.35058 104 91 77
-3.46211 -3.95544 1.36151 101 92 78
-3.47219 -3.95228 1.35617 120 112 89
-3.47805 -3.95224 1.34045 138 124 98
-2.23867 -3.29972 1.42063 218 192 176
-2.23452 -3.29976 1.43178 220 188 170
-2.23124 -3.30136 1.42418 219 190 173
-2.22797 -3.30297 1.41659 191 174 174
-2.24195 -3.29812 1.42822 218 191 173
-2.24937 -3.29648 1.42467 217 191 177
-2.24615 -3.29875 1.41743 215 194 184
-2.25685 -3.29550 1.42147 219 190 176
-2.25340 -3.29491 1.41272 213 192 182
-2.26410 -3.29167 1.41676 219 191 177
-2.26069 -3.29158 1.40829 211 192 178
-2.27137 -3.28834 1.41232 218 192 176
-2.26483 -3.29155 1.39716 155 141 150
-2.26789 -3.28746 1.40344 207 191 178
-2.27857 -3.28423 1.40747 219 191 171
-2.27203 -3.28743 1.39233 144 134 145
-2.32048 -3.28276 1.38212 171 161 167
-2.32464 -3.28273 1.37097 99 83 114
-2.32655 -3.26904 1.37236 165 156 163
-2.33068 -3.26900 1.36127 97 81 111
-2.33379 -3.26612 1.36817 156 144 159
-2.34813 -3.25938 1.35933 140 124 152
-2.35226 -3.25935 1.34827 84 69 103
-2.35520 -3.25530 1.35456 130 116 145
-2.36265 -3.25432 1.35136 118 111 135
-2.37326 -3.25110 1.35537 187 179 173
-2.36988 -3.25166 1.34732 107 108 123
-2.38049 -3.24844 1.35132 183 172 165
-2.37690 -3.24752 1.34253 101 100 111
-2.38750 -3.24431 1.34653 175 163 170
-2.39092 -3.23955 1.33312 90 82 111
-2.39503 -3.23951 1.32211 76 62 76
-3.19656 -3.98918 1.46112 58 56 53
-3.18157 -3.99373 1.45546 41 37 58
-3.21465 -4.00669 1.46437 87 76 61
-3.22974 -4.00212 1.47007 88 80 64
-3.22512 -4.00438 1.45936 87 80 66
-3.22050 -4.00665 1.44866 88 83 67
-2.19810 -3.30651 1.42920 207 185 177
-2.19395 -3.30654 1.44033 218 188 171
-2.19068 -3.30815 1.43275 210 188 175
-2.18741 -3.30975 1.42517 162 144 159
-2.20137 -3.30491 1.43678 218 188 177
-2.20879 -3.30327 1.43324 218 188 182
-2.20574 -3.30881 1.42773 202 184 180
-2.21644 -3.30556 1.43178 217 189 177
-2.21292 -3.30301 1.42199 196 183 180
-2.22361 -3.29977 1.42602 217 190 175
-2.22040 -3.30240 1.41898 194 179 179
-2.23534 -3.30062 1.41267 186 168 171
-2.24301 -3.30227 1.41084 179 164 172
-2.25135 -3.31236 1.41340 168 157 166
-2.25553 -3.31232 1.40219 106 89 101
-2.29924 -3.25684 1.36582 118 107 130
-2.29514 -3.25687 1.37681 193 179 172
-2.29191 -3.25845 1.36932 123 113 127
-2.30247 -3.25525 1.37331 186 174 175
-2.31455 -3.25966 1.36190 103 91 121
-2.35782 -3.24361 1.33764 82 71 95
-2.35459 -3.24520 1.33016 83 68 81
-2.36191 -3.24358 1.32665 82 70 74
-2.36653 -3.25251 1.33942 80 70 87
-2.37064 -3.25248 1.32837 80 68 70
-2.37330 -3.24653 1.33372 76 66 79
-2.37741 -3.24650 1.32270 81 66 72
-2.38044 -3.24339 1.32944 75 64 74
-2.38454 -3.24336 1.31843 82 64 73
-2.38756 -3.24021 1.32516 75 63 71
-2.39166 -3.24017 1.31415 83 63 79
-3.18985 -3.98588 1.44820 49 48 59
-3.17489 -3.99041 1.44255 40 40 43
-3.21020 -4.00940 1.45385 84 80 58
-3.21606 -4.00936 1.43814 91 81 57
-3.29463 -3.99246 1.41440 74 61 62
-3.28877 -3.99250 1.43013 92 82 66
-3.28415 -3.99477 1.41941 89 81 67
-3.27953 -3.99704 1.40870 89 83 74
-3.30511 -3.99015 1.40939 61 55 54
-3.30049 -3.99241 1.39868 65 51 43
-2.12081 -3.33267 1.46150 206 185 182
-2.11664 -3.33270 1.47266 217 189 171
-2.11008 -3.33592 1.45745 163 146 156
-2.12409 -3.33106 1.46910 216 190 179
-2.11752 -3.33428 1.45389 155 138 150
-2.13153 -3.32942 1.46555 217 192 178
-2.12823 -3.33026 1.45752 203 186 176
-2.13896 -3.32701 1.46157 218 192 175
-2.13567 -3.32826 1.45377 200 184 174
-2.14639 -3.32501 1.45782 218 190 171
-2.13982 -3.32823 1.44261 134 127 145
-2.14307 -3.32548 1.44961 196 179 175
-2.15379 -3.32223 1.45365 219 190 171
-2.14723 -3.32545 1.43845 128 113 140
-2.19447 -3.30116 1.41796 153 137 151
-2.20206 -3.30309 1.41630 142 133 145
-2.20925 -3.29776 1.41081 135 130 141
-2.21659 -3.29526 1.40683 129 122 129
-2.22400 -3.29390 1.40343 124 115 126
-2.23161 -3.29555 1.40161 120 107 128
-2.23864 -3.28865 1.39534 115 100 122
-2.29708 -3.26924 1.36384 88 71 89
-2.28647 -3.27246 1.35984 92 75 73
-2.29384 -3.27084 1.35631 92 76 83
-2.30120 -3.26921 1.35279 91 76 76
-2.30515 -3.27444 1.36379 87 72 86
-2.30928 -3.27441 1.35270 89 75 69
-3.18457 -3.98628 1.43684 44 38 37
-3.20691 -4.01512 1.44455 84 79 64
-3.21277 -4.01508 1.42882 91 81 55
-3.29028 -3.99536 1.40395 80 63 59
-3.27517 -3.99994 1.39825 89 82 67
-2.12466 -3.31745 1.44222 146 136 141
-2.12880 -3.31741 1.43113 92 80 95
-2.13205 -3.31531 1.43842 138 133 142
-2.13618 -3.31528 1.42733 90 79 97
-2.19062 -3.29096 1.40424 100 80 108
-2.19473 -3.29093 1.39320 95 78 80
-2.21279 -3.28782 1.39458 90 79 81
-2.21690 -3.28779 1.38354 96 80 83
-2.22026 -3.28798 1.39199 90 78 82
-2.22438 -3.28795 1.38094 95 82 84
-2.22786 -3.28992 1.39031 90 76 89
-2.23199 -3.28989 1.37924 95 83 81
-2.23524 -3.28824 1.38675 90 75 86
-2.23936 -3.28821 1.37569 95 83 76
-2.24235 -3.28295 1.38134 91 75 77
-2.24646 -3.28291 1.37029 96 82 74
-3.17309 -4.00007 1.43495 50 42 34
-3.18350 -3.99777 1.42998 39 30 24
-3.20426 -4.02254 1.43591 81 80 67
-3.21013 -4.02250 1.42015 89 81 73
-3.29539 -3.99352 1.38752 77 54 56
-3.31048 -3.98895 1.39322 67 58 50
-3.30586 -3.99121 1.38251 79 61 58
-3.30124 -3.99348 1.37181 92 84 73
-2.11453 -3.35519 1.45652 99 76 104
-2.10371 -3.35846 1.45244 94 76 90
-2.11122 -3.35681 1.44885 95 73 88
-2.11873 -3.35515 1.44526 96 76 84
-3.17029 -4.00713 1.42625 53 42 38
-3.15527 -4.01168 1.42058 65 55 49
-3.18885 -4.02640 1.42991 31 24 32
-3.20132 -4.02927 1.42696 78 79 72
-3.20720 -4.02922 1.41117 89 81 70
-3.17304 -4.02917 1.42347 54 44 36
-3.15792 -4.03376 1.41776 65 53 51
-3.19917 -4.03811 1.41880 76 77 71
-3.20506 -4.03806 1.40298 90 80 65
-3.17022 -4.03633 1.41467 53 47 33
-3.15507 -4.04092 1.40895 62 55 50
-3.18283 -4.03965 1.41186 21 14 30
-3.19217 -4.03415 1.40558 74 74 72
-3.19805 -4.03410 1.38980 88 79 59
-3.16575 -4.03907 1.40411 52 51 41
-3.15060 -4.04366 1.39839 63 58 48
-3.17109 -4.02282 1.39367 23 20 45
-3.18858 -4.03923 1.39591 73 68 59
-3.19447 -4.03918 1.38011 91 80 63
-3.17296 -4.04262 1.38972 40 34 42
-3.18960 -4.05669 1.39097 78 73 51
-3.19552 -4.05664 1.37509 95 83 62
-3.33473 -4.07176 1.34603 101 93 91
-3.32872 -4.07180 1.36214 93 85 74
-3.32399 -4.07413 1.35116 95 84 74
-3.33946 -4.06943 1.35701 97 88 80
-3.35020 -4.06706 1.35187 104 92 84
-3.34359 -4.06495 1.33927 112 102 97
-3.35904 -4.06027 1.34511 110 96 86
-3.35431 -4.06258 1.33415 117 102 101
-3.34958 -4.06490 1.32318 132 128 137
-3.18584 -4.06142 1.38108 83 77 50
-3.19176 -4.06137 1.36519 97 83 61
-3.32139 -4.08162 1.34207 94 81 76
-3.31538 -4.08167 1.35821 93 81 62
-3.31063 -4.08400 1.34721 94 83 67
-3.30589 -4.08632 1.33622 88 82 57
-3.33280 -4.08079 1.33749 107 108 106
-3.34456 -4.08079 1.33320 129 132 133
-3.35058 -4.08075 1.31703 127 127 137
-3.18558 -4.07565 1.37474 83 78 51
-3.17025 -4.08030 1.36895 49 46 50
-3.19153 -4.07560 1.35878 92 83 61
-3.31931 -4.09041 1.33340 86 77 67
-3.30378 -4.09512 1.32754 88 79 43
-3.33072 -4.08953 1.32878 109 107 112
-3.33958 -4.08257 1.32199 127 132 143
-3.34560 -4.08253 1.30583 124 123 132
-3.31689 -4.09842 1.32440 86 78 59
-3.30132 -4.10314 1.31853 89 78 56
-3.32975 -4.10102 1.32100 107 106 112
-3.33580 -4.10097 1.30477 125 121 125
-3.33808 -4.09266 1.31372 125 124 134
-3.34411 -4.09261 1.29752 121 119 120
-3.31167 -4.09964 1.31297 85 77 64
-3.29611 -4.10436 1.30709 89 78 63
-3.32707 -4.10842 1.31172 106 102 110
-3.30788 -4.10438 1.30277 86 75 69
-3.29231 -4.10910 1.29689 89 76 62
-3.32422 -4.11546 1.30227 105 101 110
-3.33327 -4.10872 1.29558 120 121 128
-3.34411 -4.10633 1.29039 123 124 129
-3.33933 -4.10867 1.27932 121 127 137
-3.42091 -4.06514 1.24160 146 131 106
-3.41015 -4.06751 1.24675 160 154 146
-3.43641 -4.06044 1.24745 138 118 72
-3.43167 -4.06276 1.23646 138 118 76
-3.42692 -4.06509 1.22546 136 114 82
-3.30505 -4.11148 1.29336 84 76 70
-3.32188 -4.12382 1.29323 103 102 111
-3.33116 -4.11753 1.28671 117 120 135
-3.33723 -4.11748 1.27041 116 124 136
-3.41751 -4.07047 1.23159 145 129 107
-3.44111 -4.07023 1.22276 134 121 89
-3.44586 -4.06790 1.23379 139 124 89
-3.45665 -4.06552 1.22863 144 127 97
-3.46682 -4.07439 1.21532 132 122 96
-3.48241 -4.06966 1.22120 146 127 103
-3.48044 -4.07800 1.21207 133 122 95
-3.49606 -4.07326 1.21797 149 128 102
-3.49463 -4.08270 1.20915 133 123 98
-3.51029 -4.07796 1.21506 147 128 96
-3.50950 -4.08871 1.20663 131 121 91
-3.52520 -4.08395 1.21256 147 130 101
-3.52184 -4.08933 1.20238 140 125 94
-3.53756 -4.08456 1.20831 146 130 103
-3.53275 -4.08692 1.19716 135 121 95
-2.72230 -3.30838 1.10201 57 57 73
-2.71796 -3.30842 1.11365 57 54 64
-2.71454 -3.31010 1.10572 52 52 65
-2.72572 -3.30670 1.10994 60 60 70
-2.73348 -3.30499 1.10623 66 68 79
-2.72664 -3.30835 1.09036 59 63 78
-3.25877 -4.15869 1.31962 78 78 70
-3.25266 -4.15874 1.33604 88 80 75
-3.24783 -4.16111 1.32485 82 78 69
-3.26360 -4.15633 1.33080 90 81 75
-3.27454 -4.15391 1.32557 90 82 76
-3.26972 -4.15628 1.31439 82 79 70
-3.27316 -4.13470 1.30255 84 78 67
-3.27796 -4.13235 1.31367 90 82 69
-3.28883 -4.12995 1.30847 92 78 65
-3.28040 -4.12310 1.29420 86 72 59
-3.29260 -4.12411 1.29017 81 71 57
-3.30176 -4.11752 1.28356 74 73 66
-3.31879 -4.13035 1.28353 94 100 104
-3.32815 -4.12422 1.27707 112 121 129
-3.40112 -4.07322 1.22510 153 155 151
-3.38561 -4.07792 1.21924 140 142 157
-3.41642 -4.08102 1.22325 134 123 107
-3.42769 -4.07968 1.21842 123 108 75
-3.43373 -4.07963 1.20221 111 102 72
-3.43765 -4.07542 1.21265 119 108 84
-3.44368 -4.07537 1.19645 102 88 80
-3.44873 -4.07366 1.20769 103 92 82
-3.45476 -4.07361 1.19149 114 99 79
-3.46201 -4.07665 1.20423 111 98 75
-3.46806 -4.07660 1.18800 115 99 82
-3.49041 -4.08627 1.19843 108 103 84
-3.49649 -4.08622 1.18212 115 97 77
-3.50519 -4.09212 1.19582 104 97 69
-3.51128 -4.09207 1.17947 132 110 68
-3.51723 -4.09210 1.19136 127 114 72
-2.71249 -3.31665 1.09964 45 45 61
-2.70815 -3.31668 1.11131 51 51 68
-2.70128 -3.32005 1.09540 33 34 45
-2.70906 -3.31833 1.09168 31 35 44
-2.71891 -3.31018 1.09412 48 49 67
-3.23256 -4.16721 1.31936 77 71 46
-3.22644 -4.16726 1.33578 87 80 66
-3.21679 -4.17199 1.31341 82 76 42
-3.23739 -4.16484 1.33055 84 78 65
-3.23868 -4.16716 1.30294 62 45 43
-3.24135 -4.15908 1.31216 68 66 52
-3.24746 -4.15903 1.29576 43 38 55
-3.25279 -4.15802 1.30739 54 58 66
-3.25890 -4.15797 1.29100 67 61 50
-3.26713 -4.13387 1.29036 71 67 58
-3.27320 -4.13382 1.27406 65 59 48
-3.27531 -4.12466 1.28285 67 61 52
-3.28137 -4.12461 1.26659 54 48 47
-3.28782 -4.12649 1.27909 59 52 50
-3.31279 -4.12975 1.27141 79 86 99
-3.32548 -4.13178 1.26769 101 112 121
-3.33972 -4.13747 1.26517 108 118 127
-3.35546 -4.13270 1.27111 119 125 142
-3.34983 -4.13310 1.25929 109 119 135
-3.36556 -4.12833 1.26523 125 129 147
-3.36075 -4.13069 1.25407 113 120 141
-3.39763 -4.07840 1.21501 135 137 134
-3.38210 -4.08311 1.20915 132 132 145
-3.41291 -4.08617 1.21311 105 102 92
-3.42391 -4.08421 1.20808 95 86 66
-3.52388 -4.09319 1.17534 124 103 80
-3.52998 -4.09314 1.15897 147 130 100
-2.71461 -3.30877 1.08503 33 36 45
-2.70344 -3.31216 1.08081 13 17 19
-2.72286 -3.30880 1.08197 50 53 67
-2.73404 -3.30541 1.08619 68 73 86
-2.73222 -3.31256 1.08030 65 72 86
-2.74343 -3.30917 1.08453 69 73 87
-2.74000 -3.31085 1.07658 66 76 84
-2.73657 -3.31253 1.06863 67 76 75
-3.23192 -4.18084 1.31203 71 48 25
-3.21609 -4.18564 1.30606 88 76 44
-3.29773 -4.13605 1.26601 52 39 54
-3.31029 -4.13781 1.26218 75 72 88
-3.32304 -4.13995 1.25847 90 99 109
-3.33659 -4.14396 1.25535 96 110 114
-3.34768 -4.14189 1.25023 96 109 120
-3.36737 -4.13188 1.23809 101 109 133
-3.38311 -4.12711 1.24403 126 133 152
-3.37830 -4.12947 1.23287 106 115 142
-3.40950 -4.09158 1.20304 107 90 78
-3.42350 -4.09631 1.20010 87 75 49
-3.42771 -4.07918 1.19029 115 109 77
-3.43374 -4.07913 1.17410 126 113 81
-3.49795 -4.10188 1.17509 124 109 92
-3.48703 -4.10429 1.18031 119 113 87
-3.50405 -4.10184 1.15870 140 132 108
-3.50992 -4.10170 1.17054 139 124 88
-3.51603 -4.10165 1.15415 146 130 104
-2.71010 -3.30661 1.07568 16 16 24
-2.69895 -3.30999 1.07147 12 12 21
-2.71905 -3.30911 1.07353 37 44 54
-2.72827 -3.31245 1.07169 58 73 78
-2.73261 -3.31241 1.06003 70 75 72
-3.28302 -4.14330 1.26091 78 61 48
-3.26732 -4.14806 1.25498 83 72 61
-3.27821 -4.14565 1.24977 84 70 57
-3.29565 -4.14527 1.25714 80 58 56
-3.30820 -4.14696 1.25326 89 81 77
-3.32029 -4.14742 1.24897 88 95 97
-3.32641 -4.14737 1.23256 86 90 101
-3.33229 -4.14761 1.24459 87 97 99
-3.33841 -4.14756 1.22817 90 96 92
-3.34390 -4.14680 1.23987 85 93 88
-3.35002 -4.14676 1.22344 89 99 94
-3.35122 -4.13566 1.23183 82 84 83
-3.35732 -4.13561 1.21545 86 94 96
-3.36040 -4.12912 1.22529 79 79 93
-3.36650 -4.12907 1.20893 87 94 100
-3.36831 -4.11966 1.21783 78 77 107
-3.38399 -4.11491 1.22375 117 124 147
-3.37309 -4.10301 1.20811 96 97 118
-3.37942 -4.09022 1.19965 126 125 131
-3.38622 -4.07870 1.19162 137 129 128
-3.41449 -4.08916 1.18606 110 100 61
-3.42054 -4.08911 1.16984 113 104 75
-3.42509 -4.08629 1.18074 124 114 80
-3.43114 -4.08625 1.16452 111 97 75
-3.48232 -4.10689 1.16922 123 113 88
-3.47622 -4.10694 1.18560 114 105 86
-3.47140 -4.10930 1.17444 127 114 80
-3.46659 -4.11166 1.16328 115 98 82
-3.49384 -4.10575 1.16438 125 119 105
-2.71521 -3.30932 1.06507 32 38 51
-3.29284 -4.15270 1.24763 87 74 65
-3.27709 -4.15747 1.24169 73 67 57
-3.28802 -4.15506 1.23646 80 72 64
-3.30512 -4.15366 1.24350 93 87 80
-3.38627 -4.09205 1.18404 123 124 114
-3.39230 -4.09200 1.16784 104 92 70
-3.39874 -4.09348 1.18005 115 112 88
-3.40478 -4.09343 1.16383 100 90 61
-3.47781 -4.10992 1.15825 110 98 86
-3.46207 -4.11469 1.15231 114 98 79
-3.47300 -4.11228 1.14709 108 98 75
-3.49050 -4.11130 1.15416 115 104 99
-3.32249 -4.15198 1.22210 76 76 87
-3.32861 -4.15194 1.20568 81 70 64
-3.36001 -4.12745 1.19655 81 80 68
-3.34432 -4.13221 1.19062 91 80 61
-3.35521 -4.12980 1.18541 88 81 63
-3.36610 -4.12740 1.18021 92 82 68
-3.36872 -4.11991 1.18975 91 87 75
-3.37480 -4.11986 1.17344 99 86 78
-3.49979 -4.11803 1.13974 137 125 96
-3.50592 -4.11798 1.12330 141 128 102
-2.74638 -4.70077 1.67918 40 39 52
-2.76413 -4.69539 1.68588 46 48 59
-2.75870 -4.69805 1.67328 38 39 47
-2.75327 -4.70072 1.66069 31 29 35
-2.70446 -3.32817 1.05790 8 9 22
-2.69323 -3.33158 1.05366 6 5 5
-2.71224 -3.32638 1.05414 26 32 41
-2.71937 -3.32233 1.04958 52 61 63
-3.49750 -4.12587 1.13012 131 122 93
-3.58338 -4.17747 1.12180 139 127 109
-3.57711 -4.17752 1.13862 151 140 104
-3.57217 -4.17995 1.12716 151 135 102
-3.56722 -4.18237 1.11570 153 132 101
-3.59953 -4.17258 1.12790 157 160 171
-3.59459 -4.17500 1.11644 157 156 162
-2.47987 -4.62778 1.73013 77 68 80
-2.47323 -4.62783 1.74796 81 72 87
-2.46798 -4.63040 1.73582 80 71 85
-2.48511 -4.62521 1.74228 79 71 84
-2.49699 -4.62259 1.73660 76 69 81
-2.49223 -4.62922 1.72614 72 65 76
-2.50937 -4.62402 1.73261 73 67 83
-2.51662 -4.62881 1.71677 61 61 68
-2.53379 -4.62361 1.72325 67 62 78
-2.52853 -4.62619 1.71107 56 55 67
-2.52328 -4.62876 1.69889 40 39 53
-2.70271 -3.33594 1.05209 4 6 11
-2.69144 -3.33935 1.04784 8 4 6
-2.69926 -3.33763 1.04410 6 6 6
-2.70985 -3.33180 1.04750 19 18 27
-2.71698 -3.32769 1.04292 49 54 61
-2.72591 -3.32988 1.04057 68 77 82
-2.73717 -3.32647 1.04482 70 75 82
-2.73372 -3.32816 1.03683 72 77 80
-2.73027 -3.32985 1.02885 68 76 80
-3.17224 -4.19287 1.26932 65 53 54
-3.16612 -4.19292 1.28576 53 45 35
-3.16128 -4.19529 1.27456 54 45 36
-3.15645 -4.19766 1.26335 56 43 43
-3.17708 -4.19050 1.28052 67 57 49
-3.18804 -4.18808 1.27528 79 75 57
-3.18390 -4.19242 1.26472 79 78 65
-3.19971 -4.18763 1.27068 85 76 56
-3.19487 -4.19000 1.25947 87 79 62
-3.19003 -4.19237 1.24826 88 77 59
-3.48005 -4.12712 1.12313 111 95 78
-3.49272 -4.12837 1.11893 122 106 88
-3.50379 -4.12614 1.11374 139 130 105
-3.51962 -4.12134 1.11971 145 131 105
-3.51477 -4.12372 1.10848 145 132 104
-3.50993 -4.12609 1.09726 144 129 99
-3.59428 -4.21263 1.11943 141 129 110
-3.57795 -4.21758 1.11326 150 132 104
-3.60601 -4.21095 1.11424 155 150 157
-3.62234 -4.20600 1.12040 202 213 226
-3.61565 -4.20502 1.10787 202 217 228
-3.63196 -4.20007 1.11403 213 224 235
-3.62697 -4.20252 1.10246 215 224 235
-2.44942 -4.62182 1.72362 73 68 80
-2.44280 -4.62187 1.74138 84 76 86
-2.43758 -4.62443 1.72928 76 73 82
-2.45464 -4.61926 1.73572 82 73 87
-2.45604 -4.62176 1.70586 44 37 55
-2.46212 -4.62722 1.72128 70 64 72
-2.46876 -4.62717 1.70348 39 31 51
-2.47552 -4.63839 1.72131 67 59 67
-2.48218 -4.63833 1.70344 38 29 50
-2.48808 -4.64141 1.71795 60 54 63
-2.70813 -3.33969 1.04169 17 17 19
-2.69685 -3.34311 1.03743 3 7 3
-2.71556 -3.33654 1.03745 41 50 59
-2.72526 -3.34139 1.03600 62 75 83
-2.72965 -3.34136 1.02422 70 77 83
-3.17810 -4.19205 1.25262 78 78 55
-3.18422 -4.19200 1.23618 85 78 61
-3.47562 -4.13039 1.11217 112 89 64
-3.45981 -4.13518 1.10621 130 111 81
-3.47078 -4.13276 1.10096 132 113 83
-3.48176 -4.13034 1.09571 134 120 86
-3.48830 -4.13167 1.10797 124 108 88
-3.49444 -4.13162 1.09149 137 127 91
-3.60590 -4.24955 1.11728 143 130 110
-3.58939 -4.25456 1.11105 148 135 111
-2.44537 -4.63575 1.71621 47 44 64
-2.42826 -4.64094 1.70975 29 22 42
-2.44013 -4.63832 1.70407 26 19 41
-2.45201 -4.63570 1.69839 25 15 39
-2.49344 -4.63010 1.69546 34 28 45
-2.47630 -4.63529 1.68899 24 15 40
-2.48819 -4.63267 1.68331 24 17 33
-2.50009 -4.63004 1.67762 23 17 25
-2.50547 -4.62864 1.69025 28 27 40
-2.51212 -4.62858 1.67240 23 16 23
-2.70491 -3.34221 1.03397 10 12 14
-2.69362 -3.34563 1.02971 5 4 2
-2.71396 -3.34482 1.03173 34 47 55
-2.72270 -3.34623 1.02906 60 76 84
-2.72709 -3.34619 1.01727 68 77 78
-3.17532 -4.20028 1.24329 77 77 49
-3.15950 -4.20508 1.23732 42 38 26
-3.18146 -4.20023 1.22682 87 77 55
-3.60570 -4.26214 1.10830 143 133 108
-3.58914 -4.26716 1.10205 149 132 104
-3.60063 -4.26463 1.09655 146 135 112
-3.61212 -4.26209 1.09106 154 149 142
-3.62149 -4.26847 1.10518 156 152 146
-3.61129 -4.22143 1.08780 191 201 209
-3.61764 -4.22138 1.07076 205 216 229
-2.70139 -3.34367 1.02589 3 6 11
-2.69010 -3.34709 1.02163 7 5 5
-2.71035 -3.34598 1.02352 29 39 48
-2.71873 -3.34617 1.02043 60 71 75
-2.72312 -3.34614 1.00864 70 75 79
-2.28001 -4.46305 1.67206 77 77 78
-2.27375 -4.46310 1.68884 103 89 92
-2.26882 -4.46552 1.67741 101 90 92
-2.29612 -4.45817 1.67815 85 83 73
-2.29119 -4.46059 1.66672 51 53 60
-2.69876 -3.34839 1.01891 5 5 15
-2.68746 -3.35182 1.01465 5 5 11
-2.70582 -3.34384 1.01421 30 35 39
-2.71756 -3.35604 1.01515 61 68 66
-2.72197 -3.35601 1.00332 66 76 82
-2.26274 -4.44672 1.65711 95 86 92
-2.25653 -4.44677 1.67378 102 88 97
-2.25162 -4.44918 1.66242 101 88 100
-2.27553 -4.47337 1.66393 54 53 68
-2.28571 -4.45410 1.65158 24 24 51
-2.29195 -4.45405 1.63485 23 20 35
-2.29659 -4.44732 1.64446 23 19 39
-2.31264 -4.44246 1.65052 38 32 42
-2.30773 -4.44486 1.63914 26 19 28
-2.30282 -4.44727 1.62775 23 18 27
-2.69616 -3.35326 1.01196 8 5 23
-2.68485 -3.35669 1.00769 6 6 8
-2.70620 -3.35944 1.01085 28 35 40
-2.71553 -3.36292 1.00881 53 68 64
-2.71995 -3.36288 0.99696 66 75 81
-2.24595 -4.43592 1.64455 99 89 91
-2.23977 -4.43597 1.66115 102 89 101
-2.23489 -4.43836 1.64984 101 88 94
-2.23001 -4.44075 1.63854 101 89 86
-2.26863 -4.44089 1.63805 42 35 55
-2.27483 -4.44084 1.62140 25 20 35
-2.27962 -4.43677 1.63205 23 19 40
-2.28582 -4.43673 1.61542 22 20 32
-2.69378 -3.35898 1.00526 8 5 18
-2.68245 -3.36242 1.00098 7 6 7
-2.69031 -3.36068 0.99722 6 5 12
-2.70279 -3.36139 1.00287 24 30 34
-2.71311 -3.36846 1.00200 49 63 63
-2.23993 -4.41461 1.62348 95 88 81
-2.22411 -4.41941 1.61751 100 90 86
-2.25141 -4.42174 1.62215 62 55 68
-2.26296 -4.42913 1.62091 33 25 48
-2.26913 -4.42908 1.60433 30 21 30
-2.70002 -3.36571 0.99567 20 16 22
-2.68865 -3.36916 0.99138 4 4 4
-2.70929 -3.36898 0.99352 46 53 53
-2.71806 -3.37032 0.99074 64 76 73
-2.72947 -3.36686 0.99505 70 74 80
-2.72598 -3.36858 0.98696 68 74 69
-2.72249 -3.37029 0.97886 70 73 69
-3.16417 -4.21574 1.18372 81 72 58
-3.18003 -4.21093 1.18971 85 76 56
-3.17517 -4.21331 1.17846 85 75 52
-3.17032 -4.21569 1.16722 82 76 58
-2.23451 -4.40443 1.60713 82 81 78
-2.24586 -4.41023 1.60524 44 42 50
-2.25199 -4.41018 1.58878 32 23 33
-2.69840 -3.37429 0.98982 13 10 14
-2.68699 -3.37775 0.98551 6 4 8
-2.70551 -3.36962 0.98510 40 48 51
-2.71511 -3.37400 0.98328 64 76 73
-2.71955 -3.37397 0.97138 71 72 78
-2.21756 -4.38086 1.58966 96 90 89
-2.21149 -4.38091 1.60594 101 89 88
-2.20671 -4.38326 1.59485 97 89 93
-2.20193 -4.38560 1.58376 96 88 97
-2.22874 -4.38578 1.58744 65 66 76
-2.23967 -4.38466 1.58275 33 31 39
-2.24575 -4.38461 1.56643 32 26 33
-2.27352 -4.39834 1.57550 18 13 14
-2.28447 -4.39593 1.57026 11 7 14
-2.27964 -4.39830 1.55907 7 6 9
-2.69604 -3.38023 0.98308 7 7 19
-2.68461 -3.38369 0.97877 8 6 7
-2.70402 -3.37866 0.97934 33 44 55
-2.71252 -3.37898 0.97621 63 74 79
-2.71696 -3.37895 0.96430 71 75 80
-2.21194 -4.36252 1.57025 91 84 87
-2.22294 -4.36520 1.56712 52 44 58
-2.22898 -4.36515 1.55092 27 22 26
-2.23418 -4.37210 1.56568 29 24 29
-2.24023 -4.37206 1.54943 29 25 22
-2.25674 -4.38428 1.56205 24 19 26
-2.26282 -4.38423 1.54573 8 8 6
-2.69458 -3.38959 0.97738 5 7 16
-2.68312 -3.39307 0.97306 7 9 4
-2.70469 -3.39580 0.97608 34 43 54
-2.71102 -3.38800 0.97037 64 74 79
-2.71547 -3.38796 0.95843 70 74 81
-2.19598 -4.35501 1.55950 96 88 89
-2.18997 -4.35506 1.57561 97 87 92
-2.18523 -4.35738 1.56463 97 87 91
-2.18050 -4.35970 1.55366 99 88 91
-2.20661 -4.34998 1.55330 75 70 76
-2.21729 -4.34641 1.54769 40 30 42
-2.22329 -4.34636 1.53160 25 23 26
-2.25099 -4.36834 1.54373 19 15 15
-2.24621 -4.37068 1.53267 11 12 10
-2.25704 -4.36829 1.52749 7 7 6
-3.15754 -4.29860 1.16415 54 37 40
-3.15125 -4.29865 1.18103 53 41 37
-3.14629 -4.30108 1.16953 52 44 38
-3.14133 -4.30351 1.15804 52 46 31
-3.16250 -4.29616 1.17565 58 46 45
-3.17375 -4.29368 1.17027 73 70 46
-3.16973 -4.29890 1.15956 71 72 43
-3.18596 -4.29399 1.16569 80 76 57
-3.18099 -4.29642 1.15418 80 74 58
-3.17603 -4.29885 1.14267 80 74 62
-2.19055 -4.33700 1.54046 94 87 85
-2.17517 -4.34166 1.53465 98 91 89
-2.21203 -4.33557 1.53154 27 24 33
-2.21800 -4.33552 1.51551 25 23 23
-3.15709 -4.31456 1.15645 45 38 41
-3.14081 -4.31949 1.15030 53 46 30
-3.16926 -4.31465 1.15177 69 68 48
-3.17558 -4.31460 1.13481 81 72 61
-3.39884 -4.27320 1.04576 102 95 69
-3.39250 -4.27325 1.06277 103 95 64
-3.38750 -4.27570 1.05118 98 93 65
-3.40384 -4.27075 1.05735 107 97 77
-3.41517 -4.26825 1.05193 110 99 87
-3.40729 -4.26379 1.03863 106 97 75
-3.42359 -4.25885 1.04478 113 102 84
-3.41860 -4.26130 1.03322 112 99 75
-2.18478 -4.30669 1.51674 80 76 78
-2.19460 -4.28340 1.50348 41 33 46
-2.20047 -4.28336 1.48773 34 20 27
-3.15394 -4.32251 1.14643 34 33 43
-3.13763 -4.32745 1.14027 51 46 28
-3.14895 -4.32496 1.13486 41 31 23
-3.16483 -4.31875 1.14067 66 66 46
-3.17115 -4.31870 1.12370 80 71 61
-3.26284 -4.28606 1.08932 80 78 57
-3.25654 -4.28611 1.10623 87 76 57
-3.25157 -4.28855 1.09471 84 74 60
-3.26781 -4.28362 1.10084 85 76 49
-3.27909 -4.28114 1.09545 85 77 42
-3.28037 -4.30032 1.08829 75 79 42
-3.29670 -4.29537 1.09445 83 75 45
-3.29302 -4.30133 1.08378 73 76 39
-3.30937 -4.29637 1.08995 82 76 47
-3.30477 -4.29989 1.07863 72 75 42
-3.32113 -4.29493 1.08480 83 79 48
-3.31112 -4.29984 1.06160 42 36 36
-3.31674 -4.29899 1.07361 71 76 43
-3.33310 -4.29403 1.07978 84 81 53
-3.32309 -4.29894 1.05657 40 36 42
-3.34939 -4.28790 1.05642 77 77 56
-3.34305 -4.28795 1.07344 86 82 57
-3.33304 -4.29285 1.05025 48 39 49
-3.35439 -4.28544 1.06801 90 83 62
-3.34439 -4.29035 1.04483 48 41 43
-3.36573 -4.28294 1.06259 93 86 67
-3.36088 -4.28577 1.05109 78 76 58
-3.37723 -4.28082 1.05726 96 89 67
-3.38593 -4.28657 1.04167 80 83 60
-3.39416 -4.27643 1.03437 83 85 60
-2.16894 -4.28895 1.50226 95 91 82
-2.16307 -4.28899 1.51801 100 89 94
-2.15844 -4.29126 1.50728 100 90 89
-2.15382 -4.29353 1.49655 97 91 90
-2.17822 -4.24744 1.48199 59 53 67
-2.18998 -4.28603 1.49289 33 22 42
-2.19585 -4.28599 1.47714 32 19 23
-3.24597 -4.28925 1.08274 71 67 46
-3.23967 -4.28930 1.09964 82 73 64
-3.23470 -4.29174 1.08812 82 71 54
-3.25859 -4.29045 1.07830 58 52 45
-3.27440 -4.30016 1.07603 50 41 41
-3.28550 -4.29705 1.07046 48 37 41
-3.29771 -4.29692 1.06565 48 36 42
-3.34989 -4.27318 1.03579 40 38 45
-3.36495 -4.28006 1.03269 37 40 49
-3.37387 -4.27165 1.02584 39 49 50
-3.39539 -4.26404 1.01440 43 51 49
-3.40636 -4.26078 1.00882 53 55 47
-3.41512 -4.25229 1.00199 72 76 59
-3.43136 -4.24736 1.00812 124 111 81
-3.43025 -4.25886 0.99874 112 108 85
-3.44653 -4.25392 1.00489 126 112 82
-3.44155 -4.25637 0.99334 124 113 82
-2.16356 -4.26260 1.48047 81 80 79
-2.17416 -4.26695 1.47806 43 30 45
-2.17998 -4.26691 1.46242 26 15 17
-2.18487 -4.27357 1.47650 28 17 27
-2.19071 -4.27353 1.46082 23 14 20
-2.73192 -3.84310 1.09193 86 73 30
-2.74549 -3.81709 1.07631 93 86 49
-3.14474 -4.32977 1.12394 29 33 31
-3.13341 -4.33227 1.12935 49 46 25
-3.12842 -4.33472 1.11778 48 48 32
-3.15623 -4.32781 1.11866 64 58 44
-3.16257 -4.32776 1.10167 80 69 51
-3.16431 -4.31561 1.11067 80 72 60
-3.18058 -4.31068 1.11681 83 74 69
-3.17560 -4.31312 1.10527 84 73 65
-3.17062 -4.31556 1.09373 86 72 56
-3.22859 -4.29099 1.07579 81 69 40
-3.22229 -4.29104 1.09268 84 70 59
-3.21733 -4.29347 1.08117 84 69 46
-3.21237 -4.29591 1.06966 83 72 42
-3.24052 -4.29037 1.07088 45 39 40
-3.25331 -4.29206 1.06656 21 18 30
-3.26621 -4.29395 1.06227 20 16 25
-3.27820 -4.29333 1.05734 32 25 33
-3.29267 -4.29925 1.05404 45 38 51
-3.30557 -4.30086 1.04964 48 43 60
-3.31925 -4.30444 1.04572 52 50 69
-3.32887 -4.29743 1.03918 61 65 80
-3.34231 -4.30026 1.03505 62 66 75
-3.34835 -4.28431 1.02636 48 52 51
-3.36045 -4.28374 1.02141 35 42 30
-3.37972 -4.27044 1.00860 34 47 38
-3.40244 -4.26576 0.99787 36 43 40
-3.39746 -4.26820 0.98632 30 39 46
-3.40854 -4.25086 0.98958 34 50 60
-3.42188 -4.25331 0.98534 86 88 88
-3.43380 -4.25233 0.98029 118 112 100
-3.45005 -4.24740 0.98643 126 114 78
-3.44508 -4.24984 0.97490 126 112 90
-3.44010 -4.25228 0.96337 126 110 90
-2.14792 -4.23682 1.46315 100 89 90
-2.14216 -4.23687 1.47861 98 89 92
-2.13762 -4.23909 1.46808 101 87 91
-2.13308 -4.24132 1.45755 101 86 97
-2.15780 -4.21757 1.45172 62 60 74
-2.16898 -4.24849 1.45949 35 22 33
-2.17477 -4.24845 1.44396 22 14 21
-2.57299 -3.97170 1.19259 23 14 13
-2.56754 -3.97175 1.20721 13 11 18
-2.56324 -3.97385 1.19725 18 15 14
-2.55894 -3.97596 1.18729 24 21 10
-2.57728 -3.96960 1.20255 15 11 15
-2.58703 -3.96745 1.19789 12 10 18
-2.58456 -3.98004 1.19134 28 21 13
-2.59865 -3.97577 1.19666 14 10 18
-2.59510 -3.98221 1.18806 31 26 12
-2.60922 -3.97793 1.19339 15 9 23
-2.60796 -3.99696 1.18882 35 34 14
-2.62216 -3.99266 1.19418 16 10 22
-2.61859 -3.99897 1.18546 41 42 14
-2.62854 -3.99727 1.18089 50 49 13
-2.64276 -3.99296 1.18626 18 9 7
-2.63841 -3.99509 1.17617 60 50 15
-2.72255 -3.82293 1.07559 125 116 76
-2.70905 -3.82702 1.07050 138 133 96
-2.73156 -3.81936 1.07066 127 120 83
-2.73677 -3.80011 1.06106 128 117 74
-2.74369 -3.78834 1.05373 63 48 23
-3.14241 -4.34039 1.11453 29 35 41
-3.12605 -4.34535 1.10835 49 47 31
-3.13740 -4.34285 1.10293 44 41 36
-3.15387 -4.33823 1.10919 62 60 43
-3.16022 -4.33818 1.09216 77 70 47
-3.22191 -4.28862 1.06306 77 60 34
-3.20571 -4.29353 1.05695 81 74 55
-3.23690 -4.29656 1.06032 37 21 20
-3.24709 -4.29108 1.05417 12 6 13
-3.25836 -4.28860 1.04879 6 7 17
-3.27142 -4.29094 1.04460 29 28 33
-3.28923 -4.30583 1.04348 55 59 68
-3.29557 -4.30578 1.02646 69 73 83
-3.30291 -4.30949 1.03956 62 65 87
-3.30926 -4.30944 1.02250 74 70 83
-3.31400 -4.30627 1.03395 64 64 88
-3.32035 -4.30622 1.01690 80 74 89
-3.32342 -4.29874 1.02730 71 76 103
-3.33616 -4.29981 1.02273 71 77 96
-3.33818 -4.27362 1.01166 54 56 50
-3.35326 -4.28069 1.00853 30 32 16
-3.36202 -4.27185 1.00163 19 29 22
-3.37315 -4.26899 0.99615 20 34 30
-3.38675 -4.27213 0.99206 26 37 39
-3.40396 -4.25423 0.97828 35 42 64
-3.41505 -4.25133 0.97281 81 73 86
-3.42886 -4.25486 0.96878 115 109 100
-3.43516 -4.25481 0.95186 125 112 84
-2.14289 -4.21445 1.44326 93 82 96
-2.15325 -4.21810 1.44061 46 39 60
-2.15897 -4.21806 1.42525 25 13 25
-2.16416 -4.24111 1.44527 26 18 34
-2.16993 -4.24106 1.42979 24 15 21
-2.56612 -3.95863 1.17774 45 36 17
-2.57550 -3.95466 1.17252 82 76 35
-2.58091 -3.95462 1.15799 137 125 85
-2.58614 -3.95793 1.16962 96 86 49
-2.59156 -3.95789 1.15506 137 128 92
-2.59942 -3.97573 1.17132 100 93 55
-2.60488 -3.97568 1.15666 139 128 91
-2.61089 -3.98284 1.16958 103 99 55
-2.61637 -3.98280 1.15488 140 131 92
-2.61499 -3.95011 1.15526 109 103 55
-2.62041 -3.95007 1.14070 140 134 89
-2.71626 -3.81568 1.06326 138 136 98
-2.70281 -3.81976 1.05819 150 144 101
-2.72569 -3.81401 1.05891 138 139 95
-2.73188 -3.79886 1.05059 138 129 77
-2.74023 -3.79296 1.04502 64 44 23
-3.21820 -4.29458 1.05246 79 65 39
-3.20199 -4.29949 1.04634 83 69 56
-3.23210 -4.29948 1.04891 46 25 26
-3.24212 -4.29352 1.04266 15 5 13
-3.25339 -4.29103 1.03727 4 4 18
-3.26550 -4.29082 1.03244 30 30 37
-3.28482 -4.30988 1.03227 60 65 66
-3.29116 -4.30983 1.01524 79 78 77
-3.33159 -4.30339 1.01139 84 79 87
-3.31522 -4.30836 1.00521 89 77 62
-3.32658 -4.30585 0.99978 91 81 60
-3.33537 -4.28157 1.00143 69 59 53
-3.34682 -4.27947 0.99612 37 21 15
-3.35929 -4.27990 0.99139 20 10 8
-3.36810 -4.27124 0.98457 20 15 11
-3.37987 -4.26994 0.97944 29 27 18
-3.39113 -4.26738 0.97403 37 35 36
-3.40370 -4.26798 0.96933 56 61 67
-3.41002 -4.26793 0.95238 121 106 77
-3.41411 -4.26336 0.96345 99 89 79
-3.42042 -4.26331 0.94651 121 105 86
-3.42475 -4.25934 0.95771 117 106 89
-3.43106 -4.25929 0.94078 124 109 87
-2.12762 -4.18342 1.42426 98 89 94
-2.12197 -4.18346 1.43942 101 87 92
-2.11751 -4.18565 1.42909 100 87 91
-2.11306 -4.18783 1.41876 101 88 93
-2.13772 -4.18104 1.41937 74 66 83
-2.14894 -4.22983 1.43372 32 22 35
-2.15468 -4.22978 1.41831 27 15 20
-2.54999 -3.94969 1.16825 24 23 10
-2.54460 -3.94973 1.18273 22 20 9
