ply
format ascii 1.0
element face 0
property list uchar int vertex_indices
element vertex 1291
property float x
property float y
property float z
property uchar diffuse_red
property uchar diffuse_green
property uchar diffuse_blue
end_header
-2.68759 -3.91324 0.41726 76 79 80
-2.71415 -3.92643 0.41870 59 59 57
-2.94032 -4.30241 0.37317 26 28 20
-2.92501 -4.30682 0.36753 27 32 23
-2.94891 -4.29293 0.36784 44 50 62
-2.95661 -4.28037 0.36244 93 105 123
-2.97973 -4.32387 0.35856 136 146 159
-3.00274 -4.32548 0.34836 182 189 198
-3.00858 -4.32544 0.33231 191 199 213
-3.49565 -4.30692 0.12199 199 198 200
-3.47977 -4.31149 0.11614 227 230 234
-3.50164 -4.30688 0.10553 153 156 161
-1.91488 -4.02427 0.78478 99 92 86
-1.90186 -4.02802 0.77998 109 100 87
-1.92339 -4.02959 0.78170 58 64 58
-1.93037 -4.06062 0.78311 26 18 26
-1.93535 -4.06058 0.76942 14 16 18
-1.93879 -4.07028 0.78071 14 14 17
-1.94380 -4.07025 0.76696 8 11 7
-2.61310 -3.87030 0.44477 18 22 22
-2.60011 -3.87404 0.43998 17 14 10
-2.62268 -3.87175 0.44063 47 50 49
-2.63343 -3.87907 0.43683 69 80 79
-2.63835 -3.87904 0.42329 76 80 82
-2.69873 -3.92066 0.41330 71 73 80
-2.68542 -3.92449 0.40839 78 78 78
-2.94790 -4.30909 0.35747 40 50 66
-2.95436 -4.29170 0.35196 86 98 125
-2.98068 -4.34703 0.34818 131 144 160
-2.99404 -4.35426 0.34318 160 175 185
-3.00756 -4.36186 0.33816 179 190 203
-3.63200 -4.45876 0.06873 153 165 178
-3.62570 -4.45880 0.08606 153 159 171
-3.62050 -4.46119 0.07432 149 160 172
-3.64870 -4.45395 0.07489 173 178 179
-3.64350 -4.45634 0.06315 169 179 185
-3.63831 -4.45872 0.05141 166 170 180
-1.91004 -4.03766 0.77765 100 93 88
-1.89697 -4.04142 0.77283 101 101 104
-1.91861 -4.04233 0.77441 76 81 70
-1.92504 -4.08207 0.77720 26 17 26
-1.93006 -4.08203 0.76341 18 16 21
-2.61102 -3.88276 0.43626 23 19 21
-2.59799 -3.88651 0.43146 21 17 11
-2.62004 -3.88107 0.43192 45 42 46
-2.63085 -3.88864 0.42809 68 80 81
-2.63579 -3.88861 0.41451 73 81 78
-2.71364 -3.96623 0.40155 62 65 51
-2.93541 -4.32437 0.35208 23 37 18
-2.92001 -4.32880 0.34640 30 38 20
-2.93062 -4.32656 0.34125 26 37 24
-2.94302 -4.31090 0.34667 37 56 57
-2.95705 -4.32150 0.34181 83 102 116
-2.97804 -4.35729 0.33740 127 141 156
-2.98977 -4.35861 0.33225 158 166 183
-3.00737 -4.38080 0.32743 174 184 201
-3.01330 -4.38075 0.31112 188 193 202
-4.56759 -4.24244 -0.40273 198 207 216
-4.56132 -4.24249 -0.38550 195 190 212
-4.55615 -4.24486 -0.39717 203 200 214
-4.55098 -4.24722 -0.40885 216 216 222
-4.57276 -4.24008 -0.39105 199 200 213
-4.56242 -4.24481 -0.41440 187 190 219
-4.57901 -4.24001 -0.40828 213 220 232
-4.59561 -4.23523 -0.40215 230 231 236
-4.59045 -4.23760 -0.41383 213 213 227
-4.58528 -4.23997 -0.42550 209 207 224
-1.90538 -4.04803 0.76992 96 93 91
-1.89226 -4.05180 0.76508 97 89 88
-1.90129 -4.04990 0.76070 110 100 92
-1.91412 -4.05032 0.76625 89 83 78
-1.92014 -4.09594 0.76988 36 23 32
-2.60864 -3.89370 0.42761 25 19 15
-2.59555 -3.89746 0.42278 24 18 22
-2.60456 -3.89556 0.41841 23 17 20
-2.61757 -3.89141 0.42321 42 37 39
-2.62918 -3.90310 0.41955 63 78 76
-2.63414 -3.90306 0.40591 74 80 77
-2.94468 -4.33741 0.33636 38 50 51
-2.92922 -4.34186 0.33066 28 30 34
-2.95542 -4.33554 0.33119 82 93 102
-2.98007 -4.38486 0.32685 126 138 158
-2.99051 -4.38122 0.32157 157 170 187
-3.00118 -4.37838 0.31631 178 188 200
-3.00710 -4.37834 0.30002 188 196 205
-4.09464 -4.24489 -0.20105 221 222 224
-4.08855 -4.24493 -0.18429 216 216 219
-4.08352 -4.24724 -0.19565 229 231 234
-4.09967 -4.24259 -0.18969 215 214 220
-4.11080 -4.24024 -0.19510 212 210 215
-4.10074 -4.24485 -0.21780 198 202 206
-4.55765 -4.22220 -0.41539 197 201 222
-4.55252 -4.22455 -0.42698 201 202 213
-4.56388 -4.22215 -0.43250 201 196 207
-1.90929 -4.06312 0.75884 112 97 73
-1.89611 -4.06691 0.75398 94 88 92
-1.90519 -4.06500 0.74958 106 106 82
-1.91614 -4.09546 0.76010 58 51 22
-1.92505 -4.09796 0.75637 24 13 29
-1.93840 -4.09412 0.76129 13 12 11
-1.93425 -4.09602 0.75191 14 13 12
-1.93009 -4.09793 0.74252 16 17 9
-2.61522 -3.90250 0.41448 35 34 41
-2.60209 -3.90627 0.40964 16 15 25
-2.62564 -3.90791 0.41045 60 77 65
-2.63061 -3.90787 0.39680 72 80 76
-2.94718 -4.36747 0.32593 39 44 52
-2.95767 -4.36425 0.32070 78 88 95
-2.98262 -4.41470 0.31615 121 135 155
-2.98276 -4.37295 0.31042 153 166 184
-2.99339 -4.37015 0.30518 177 187 202
-2.99930 -4.37010 0.28894 190 196 203
-4.08593 -4.24146 -0.21150 207 206 209
-4.06981 -4.24610 -0.21744 211 204 201
-4.08091 -4.24376 -0.22283 201 204 205
-4.09201 -4.24142 -0.22822 185 196 206
-1.91347 -4.07510 0.74712 82 77 69
-1.90023 -4.07891 0.74224 103 98 87
-1.92044 -4.10705 0.74814 29 15 31
-2.04897 -4.10821 0.68945 37 23 38
-2.04387 -4.10825 0.70348 23 22 15
-2.03966 -4.11017 0.69397 20 15 23
-2.05318 -4.10628 0.69895 36 25 34
-2.06249 -4.10432 0.69443 45 56 66
-2.05829 -4.10625 0.68493 43 58 55
-2.61227 -3.91052 0.40555 29 30 40
-2.59911 -3.91431 0.40070 13 15 19
-2.62424 -3.92415 0.40186 54 72 54
-2.93575 -4.38816 0.32041 36 34 36
-2.92984 -4.38820 0.33667 30 32 27
-2.92496 -4.39044 0.32565 34 35 30
-2.92008 -4.39267 0.31463 40 41 36
-2.94772 -4.39039 0.31522 44 46 49
-2.95160 -4.36189 0.30969 71 83 91
-2.98104 -4.42947 0.30512 118 131 152
-2.98326 -4.39499 0.29956 153 164 180
-2.98766 -4.36927 0.29416 176 184 198
-1.90864 -4.08744 0.73948 108 106 94
-1.89536 -4.09126 0.73458 104 101 92
-1.91559 -4.11945 0.74038 43 36 29
-1.92443 -4.12415 0.73692 22 15 19
-1.93790 -4.12027 0.74189 12 13 5
-1.93371 -4.12219 0.73242 16 11 7
-1.92952 -4.12411 0.72295 19 12 9
-2.03537 -4.11569 0.68497 25 18 33
-2.03026 -4.11573 0.69901 13 16 27
-2.02605 -4.11766 0.68949 17 18 30
-2.02183 -4.11959 0.67998 20 19 17
-2.04479 -4.10900 0.67979 42 36 50
-2.05411 -4.10641 0.67519 43 53 68
-2.06762 -4.10252 0.68017 31 26 41
-2.06347 -4.10061 0.67015 26 20 43
-2.07696 -4.09672 0.67512 21 18 19
-2.07276 -4.09865 0.66564 19 19 17
-2.06856 -4.10057 0.65615 21 18 13
-2.61068 -3.92615 0.39691 28 26 35
-2.59746 -3.92995 0.39203 17 15 19
-2.62263 -3.93949 0.39313 53 65 52
-2.63174 -3.93735 0.38868 71 80 73
-2.64503 -3.93352 0.39358 80 78 82
-2.64090 -3.93542 0.38423 78 79 82
-2.63676 -3.93731 0.37489 79 79 83
-2.93446 -4.40441 0.30954 44 40 41
-2.91871 -4.40894 0.30374 43 44 42
-2.92956 -4.40665 0.29847 48 45 48
-2.94754 -4.41077 0.30435 49 47 52
-2.95445 -4.39341 0.29896 68 81 91
-2.97940 -4.44420 0.29401 112 130 151
-2.97285 -4.37682 0.28841 150 161 181
-2.97837 -4.35531 0.28312 176 183 198
-2.98633 -4.34309 0.27791 189 197 207
-3.00184 -4.33863 0.28363 197 203 215
-2.99701 -4.34084 0.27273 196 203 215
-2.99218 -4.34305 0.26182 196 203 214
-4.18366 -4.18099 -0.29190 198 205 225
-4.17269 -4.18330 -0.28657 199 193 215
-4.18861 -4.17872 -0.28070 205 210 218
-4.19463 -4.17867 -0.29722 200 213 232
-4.21545 -4.19049 -0.30526 200 205 222
-4.22043 -4.18821 -0.29401 219 228 224
-4.21047 -4.19277 -0.31651 198 197 211
-4.23145 -4.18588 -0.29937 216 225 229
-4.22647 -4.18817 -0.31061 202 207 218
-1.90373 -4.10048 0.73187 100 95 95
-1.89040 -4.10432 0.72696 106 95 89
-1.91095 -4.12820 0.73199 55 30 48
-1.91979 -4.13327 0.72856 32 17 30
-1.92488 -4.13323 0.71455 23 16 11
-2.03115 -4.11766 0.67546 33 18 38
-2.04070 -4.10558 0.66957 51 55 54
-2.05002 -4.10206 0.66486 46 39 60
-2.05934 -4.09830 0.66011 28 18 33
-2.06443 -4.09826 0.64613 16 16 11
-2.60850 -3.93874 0.38805 28 24 34
-2.59523 -3.94256 0.38316 18 17 18
-2.62154 -3.95796 0.38444 52 61 55
-2.63014 -3.95273 0.37984 73 81 74
-2.63518 -3.95270 0.36598 80 78 78
-2.69865 -4.00495 0.35483 72 75 70
-2.68499 -4.00888 0.34979 82 77 81
-2.94249 -4.41250 0.29325 51 48 58
-2.92671 -4.41704 0.28744 46 46 46
-2.94571 -4.38090 0.28786 67 75 92
-2.97572 -4.45136 0.28280 110 127 148
-2.97114 -4.39085 0.27741 146 160 178
-2.97460 -4.36147 0.27218 173 179 196
-2.97998 -4.33979 0.26703 188 193 210
-2.98583 -4.33975 0.25096 196 205 214
-3.45231 -4.33017 0.04883 228 232 232
-3.44631 -4.33022 0.06532 229 231 236
-3.44136 -4.33248 0.05415 228 227 238
-3.43641 -4.33475 0.04297 228 229 238
-3.45725 -4.32791 0.06001 229 230 232
-3.72504 -4.39111 -0.06893 194 201 206
-3.71884 -4.39115 -0.05187 205 206 198
-3.71372 -4.39349 -0.06343 205 205 209
-3.70860 -4.39584 -0.07499 204 209 207
-3.71993 -4.39345 -0.08049 200 207 205
-3.73598 -4.38794 -0.07435 203 214 209
-3.74218 -4.38790 -0.09140 223 224 220
-3.74889 -4.38867 -0.08019 209 209 208
-3.76534 -4.38393 -0.07412 209 211 213
-3.76022 -4.38628 -0.08569 206 200 205
-4.16702 -4.18452 -0.29757 230 234 231
-4.16101 -4.18457 -0.28105 207 208 220
-4.15605 -4.18683 -0.29225 221 229 228
-4.17303 -4.18448 -0.31409 230 228 233
-4.18640 -4.17622 -0.30750 211 202 215
-4.19240 -4.17617 -0.32400 211 207 216
-1.89896 -4.11123 0.72385 100 92 95
-1.88559 -4.11508 0.71892 101 90 85
-1.90602 -4.14114 0.72418 79 72 60
-1.91536 -4.13872 0.71959 40 17 16
-1.92046 -4.13868 0.70557 21 16 14
-2.01762 -4.12147 0.67046 19 15 26
-2.01251 -4.12151 0.68450 20 19 20
-2.00830 -4.12344 0.67498 20 20 18
-2.00409 -4.12536 0.66547 20 17 28
-2.02695 -4.11926 0.66590 44 27 58
-2.03638 -4.11281 0.66079 49 63 68
-2.04572 -4.10920 0.65605 36 25 31
-2.05082 -4.10916 0.64204 20 12 18
-2.05501 -4.10767 0.65159 21 12 16
-2.06011 -4.10763 0.63758 16 16 17
-2.60560 -3.94747 0.37897 24 21 23
-2.59229 -3.95130 0.37407 19 18 21
-2.61613 -3.95303 0.37479 48 50 53
-2.62684 -3.95923 0.37061 72 79 80
-2.63189 -3.95920 0.35673 81 78 78
-2.93928 -4.42138 0.28217 48 49 59
-2.92346 -4.42593 0.27634 45 48 50
-2.94736 -4.40825 0.27688 63 73 91
-2.97379 -4.46522 0.27154 108 123 146
-2.96925 -4.40435 0.26634 145 158 175
-2.97210 -4.37240 0.26119 170 181 191
-2.97836 -4.35367 0.25607 187 194 204
-2.98422 -4.35362 0.23995 194 204 215
-3.44544 -4.32792 0.03799 225 228 233
-3.42957 -4.33248 0.03214 230 231 238
-3.72352 -4.37571 -0.08427 209 216 216
-3.75269 -4.38391 -0.09672 218 220 217
-3.74757 -4.38626 -0.10827 227 226 226
-3.76912 -4.37919 -0.09066 205 203 205
-3.75889 -4.38387 -0.11376 223 230 229
-4.08669 -4.22437 -0.26957 225 231 228
-4.08065 -4.22441 -0.25295 202 210 214
-4.07566 -4.22670 -0.26421 219 223 223
-4.09168 -4.22209 -0.25831 207 206 215
-4.08171 -4.22665 -0.28083 236 239 240
-4.10271 -4.21976 -0.26366 213 210 216
-4.14391 -4.19703 -0.29918 224 224 226
-4.13788 -4.19708 -0.28263 207 208 223
-4.13292 -4.19935 -0.29384 217 219 227
-4.14887 -4.19476 -0.28797 216 223 226
-4.16398 -4.18962 -0.30931 220 217 228
-4.17000 -4.18958 -0.32584 222 223 238
-1.89357 -4.13010 0.71698 110 100 97
-1.88012 -4.13397 0.71202 112 109 99
-1.88939 -4.13202 0.70752 123 111 108
-1.90271 -4.13003 0.71276 101 88 67
-1.91008 -4.15696 0.71248 39 22 22
-2.01366 -4.11553 0.65992 27 20 38
-2.02293 -4.11428 0.65549 61 57 40
-2.03199 -4.12196 0.65221 45 37 59
-2.03710 -4.12192 0.63815 19 15 16
-2.04153 -4.11046 0.64648 26 13 28
-2.04663 -4.11042 0.63247 21 15 21
-2.60333 -3.95988 0.36998 22 20 23
-2.58997 -3.96373 0.36505 20 19 21
-2.61372 -3.96453 0.36572 44 44 51
-2.62526 -3.97516 0.36163 71 77 82
-2.63034 -3.97513 0.34768 80 78 79
-2.93259 -4.41671 0.27106 45 49 60
-2.91681 -4.42125 0.26525 45 45 51
-2.93977 -4.40009 0.26583 60 72 92
-2.96490 -4.45258 0.26033 107 122 143
-2.96597 -4.41274 0.25522 143 156 171
-2.97129 -4.38972 0.25010 168 178 192
-2.97768 -4.37121 0.24500 185 193 204
-2.98358 -4.37116 0.22880 194 202 216
-3.43900 -4.32662 0.02711 223 229 231
-3.42314 -4.33118 0.02127 229 232 239
-3.47685 -4.35932 0.01345 163 152 157
-3.48291 -4.35928 -0.00320 160 164 172
-3.48967 -4.36107 0.00774 161 159 164
-3.50573 -4.35645 0.01366 161 173 175
-3.50073 -4.35874 0.00237 189 190 191
-3.69455 -4.35511 -0.08742 203 205 205
-3.68337 -4.35747 -0.08199 195 198 206
-3.67831 -4.35978 -0.09341 194 191 201
-3.70068 -4.35507 -0.10427 199 206 214
-3.71177 -4.36479 -0.09424 216 216 218
-3.71792 -4.36474 -0.11115 200 203 216
-3.72240 -4.36124 -0.09956 223 217 224
-4.11528 -4.20139 -0.29924 202 214 222
-4.10927 -4.20144 -0.28271 218 226 233
-4.09935 -4.20598 -0.30511 212 213 218
-4.12024 -4.19912 -0.28804 221 227 235
-4.11032 -4.20366 -0.31044 208 208 211
-4.15325 -4.18338 -0.31883 210 216 228
-4.15925 -4.18334 -0.33532 211 217 229
-1.89752 -4.14622 0.70536 121 111 79
-1.88399 -4.15011 0.70037 106 104 103
-1.90626 -4.15278 0.70205 63 58 44
-2.00969 -4.11042 0.64953 51 52 63
-2.01907 -4.10477 0.64457 52 69 47
-2.60083 -3.97119 0.36087 16 19 30
-2.58743 -3.97505 0.35594 19 20 16
-2.59666 -3.97310 0.35146 15 19 23
-2.61061 -3.97233 0.35648 33 39 51
-2.62186 -3.98136 0.35230 69 76 74
-2.62694 -3.98133 0.33833 79 79 78
-2.92690 -4.41586 0.25999 43 44 56
-2.91114 -4.42040 0.25418 43 41 42
-2.93708 -4.41094 0.25473 56 66 88
-2.95516 -4.43648 0.24924 104 121 140
-2.95973 -4.40997 0.24416 143 155 168
-2.96767 -4.39672 0.23901 167 176 191
-2.97295 -4.37388 0.23402 185 191 205
-2.97884 -4.37384 0.21782 195 200 215
-3.43251 -4.32518 0.01627 226 229 229
-3.41667 -4.32974 0.01043 229 230 237
-3.44988 -4.33813 0.00970 182 179 185
-3.45589 -4.33809 -0.00681 149 151 157
-3.68609 -4.35057 -0.09803 195 201 206
-3.68105 -4.35288 -0.10942 193 186 205
-3.69221 -4.35053 -0.11484 203 209 221
-4.12038 -4.19996 -0.31550 208 208 207
-1.89235 -4.16152 0.69774 105 92 94
-1.87876 -4.16543 0.69273 110 102 104
-1.90183 -4.15776 0.69294 91 85 63
-1.91037 -4.16808 0.69010 33 21 16
-1.98564 -4.14822 0.65312 21 14 43
-1.98051 -4.14826 0.66725 25 14 37
-1.97627 -4.15020 0.65768 23 10 35
-2.00568 -4.10684 0.63938 58 72 64
-2.01473 -4.11149 0.63570 37 36 53
-2.01982 -4.11145 0.62172 22 17 26
-2.60709 -3.97795 0.34715 27 33 43
-2.59366 -3.98182 0.34220 15 18 27
-2.61851 -3.98793 0.34294 67 73 72
-2.62360 -3.98790 0.32895 78 80 80
-2.92021 -4.41101 0.24896 39 37 45
-2.90448 -4.41554 0.24316 42 40 38
-2.91532 -4.41325 0.23790 37 34 36
-2.93160 -4.41088 0.24368 51 59 75
-2.95051 -4.43993 0.23806 100 118 133
-2.95776 -4.42345 0.23293 142 155 168
-2.96554 -4.40939 0.22781 167 176 189
-2.97045 -4.38494 0.22290 185 190 203
-2.97636 -4.38490 0.20665 195 198 215
-3.42557 -4.32262 0.00555 224 228 227
-3.40975 -4.32717 -0.00028 228 230 237
-3.44164 -4.33262 -0.00081 168 166 182
-3.99319 -4.24537 -0.26548 216 221 224
-4.00920 -4.24076 -0.25958 208 215 220
-3.99923 -4.24533 -0.28209 239 242 240
-4.01239 -4.23613 -0.27536 223 224 227
-4.02837 -4.23153 -0.26947 208 203 208
-4.02340 -4.23381 -0.28071 224 227 222
-4.01842 -4.23609 -0.29195 219 220 229
-4.10973 -4.19363 -0.32500 223 223 221
-4.09384 -4.19820 -0.33085 226 224 229
-4.10478 -4.19590 -0.33616 231 226 232
-4.11573 -4.19359 -0.34147 235 229 235
-4.11733 -4.18631 -0.32930 219 219 220
-4.12332 -4.18627 -0.34575 227 222 228
-4.13225 -4.17143 -0.33781 216 216 222
-4.13822 -4.17139 -0.35421 233 235 234
-1.88750 -4.17195 0.68936 107 103 110
-1.87388 -4.17587 0.68434 112 106 108
-1.88326 -4.17389 0.67978 116 111 105
-1.89690 -4.16968 0.68476 108 99 76
-1.90576 -4.17562 0.68127 43 35 25
-1.91469 -4.18099 0.67769 25 18 23
-1.92838 -4.17705 0.68273 14 12 10
-1.92412 -4.17900 0.67311 18 14 6
-1.96187 -4.17044 0.65472 27 13 33
-1.95670 -4.17047 0.66892 17 15 17
-1.95244 -4.17242 0.65930 19 14 22
-1.96613 -4.16848 0.66434 21 12 23
-1.96703 -4.17040 0.64052 64 65 71
-1.97251 -4.14146 0.64677 36 21 46
-1.98219 -4.13157 0.64126 47 49 65
-2.00168 -4.10362 0.62932 44 37 42
-2.00675 -4.10358 0.61540 21 14 22
-2.01093 -4.10168 0.62483 28 19 39
-2.01599 -4.10164 0.61091 21 14 20
-2.60395 -3.98577 0.33784 24 29 41
-2.59049 -3.98964 0.33287 14 19 30
-2.61501 -3.99375 0.33354 65 69 69
-2.62011 -3.99372 0.31953 76 79 78
-2.92834 -4.41964 0.23253 47 51 63
-2.94576 -4.44293 0.22688 94 111 126
-2.95270 -4.42520 0.22181 140 152 167
-2.96126 -4.41403 0.21668 168 175 187
-2.96722 -4.39330 0.21177 182 189 198
-2.97314 -4.39326 0.19549 196 199 214
-3.41992 -4.32312 -0.00541 224 226 225
-3.40411 -4.32767 -0.01124 229 232 238
-3.44121 -4.34563 -0.01295 156 149 180
-3.45135 -4.34136 -0.01809 147 145 153
-3.46232 -4.33904 -0.02342 167 173 180
-3.72833 -4.33664 -0.14700 202 202 211
-3.72223 -4.33669 -0.13023 229 236 225
-3.71720 -4.33899 -0.14159 212 208 212
-3.73947 -4.33430 -0.15241 203 209 216
-4.12676 -4.17284 -0.34875 225 224 226
-4.11096 -4.17739 -0.35457 221 224 233
-4.13273 -4.17280 -0.36514 239 241 243
-1.89211 -4.17933 0.67621 120 107 82
-1.87846 -4.18326 0.67118 120 107 110
-1.90137 -4.17947 0.67192 62 54 38
-1.91020 -4.18654 0.66853 33 14 19
-1.91909 -4.19329 0.66508 21 13 15
-1.93284 -4.18933 0.67014 9 7 8
-1.92879 -4.18735 0.65998 9 7 5
-1.94252 -4.18340 0.66504 13 12 18
-1.93778 -4.19378 0.65645 18 8 12
-1.95764 -4.17168 0.64501 44 33 66
-1.98733 -4.13065 0.62712 34 31 33
-1.99244 -4.13061 0.61309 16 17 8
-1.99713 -4.11574 0.62108 23 16 17
-2.00221 -4.11571 0.60711 17 18 16
-2.60142 -3.99714 0.32855 21 28 39
-2.58791 -4.00102 0.32357 14 21 26
-2.61289 -4.00739 0.32425 60 63 62
-2.91423 -4.43090 0.22661 40 38 41
-2.90335 -4.43320 0.23190 45 43 41
-2.89843 -4.43545 0.22079 47 47 47
-2.92421 -4.42499 0.22139 46 50 61
-2.93587 -4.42578 0.21605 90 105 114
-2.94837 -4.42975 0.21064 138 151 164
-2.95466 -4.40982 0.20573 167 177 187
-2.96178 -4.39346 0.20079 181 191 197
-2.96770 -4.39342 0.18452 197 201 210
-3.41103 -4.31581 -0.01564 221 225 229
-3.43223 -4.33826 -0.02324 146 139 178
-3.44357 -4.33691 -0.02864 161 163 169
-3.46236 -4.35306 -0.03576 181 186 189
-3.47834 -4.34846 -0.02987 195 206 201
-3.47337 -4.35074 -0.04110 193 200 200
-3.46839 -4.35301 -0.05233 204 208 205
-3.63324 -4.33027 -0.11740 199 196 200
-3.62718 -4.33031 -0.10076 191 194 197
-3.62219 -4.33259 -0.11204 194 196 194
-3.61720 -4.33488 -0.12331 196 201 204
-3.63929 -4.33022 -0.13404 218 220 213
-3.64558 -4.33060 -0.12310 211 208 209
-3.65164 -4.33056 -0.13975 209 215 211
-3.71987 -4.33221 -0.15744 188 190 195
-3.70373 -4.33685 -0.16339 186 196 199
-3.71484 -4.33451 -0.16878 205 214 211
-3.72596 -4.33217 -0.17418 215 217 216
-3.73111 -4.33013 -0.16288 204 211 212
-3.74725 -4.32549 -0.15693 208 211 213
-3.73720 -4.33009 -0.17961 217 219 220
-1.88729 -4.18915 0.66763 123 106 103
-1.87360 -4.19309 0.66259 106 104 104
-1.89653 -4.18998 0.66342 91 83 64
-1.90567 -4.19239 0.65939 43 31 18
-1.91085 -4.19235 0.64516 59 41 23
-1.91459 -4.19879 0.65586 31 24 22
-1.91979 -4.19875 0.64158 44 41 25
-1.92405 -4.19713 0.65130 24 21 26
-1.93376 -4.19113 0.64620 33 37 41
-1.95399 -4.16171 0.63396 52 56 62
-1.96304 -4.16670 0.63023 34 35 49
-1.96820 -4.16666 0.61606 17 15 21
-2.59858 -4.00695 0.31918 18 30 28
-2.58503 -4.01085 0.31419 17 22 19
-2.60915 -4.01203 0.31475 51 59 58
-2.61771 -4.00569 0.31015 74 80 82
-2.63127 -4.00179 0.31515 80 80 84
-2.62705 -4.00372 0.30562 81 81 84
-2.62283 -4.00565 0.29609 80 81 79
-2.90838 -4.42936 0.21557 44 44 52
-2.89259 -4.43390 0.20976 50 51 52
-2.90347 -4.43161 0.20448 51 51 55
-2.91756 -4.42028 0.21043 48 54 66
-2.93193 -4.43192 0.20486 85 100 105
-2.94708 -4.44623 0.19918 134 150 161
-2.94922 -4.40999 0.19471 164 177 187
-2.95727 -4.39711 0.18973 181 192 200
-3.38951 -4.30623 -0.02012 229 232 237
-3.38359 -4.30628 -0.00385 238 240 242
-3.37871 -4.30851 -0.01487 234 235 239
-3.37382 -4.31075 -0.02590 233 234 239
-3.40146 -4.30673 -0.02563 210 207 212
-3.40739 -4.30669 -0.04192 121 100 127
-3.42140 -4.32638 -0.03302 137 123 153
-3.43512 -4.33084 -0.03898 161 171 181
-3.45222 -4.34314 -0.04576 184 192 201
-3.45823 -4.34310 -0.06227 202 205 198
-1.88232 -4.20073 0.65923 104 91 105
-1.86858 -4.20468 0.65417 111 97 104
-1.87804 -4.20269 0.64957 110 99 101
-1.89164 -4.20072 0.65488 103 90 72
-1.90123 -4.19689 0.65006 63 50 13
-1.92905 -4.20040 0.63741 34 29 36
-1.93835 -4.20177 0.63320 27 20 39
-1.94356 -4.20173 0.61889 17 11 29
-1.94876 -4.18244 0.62657 25 19 45
-1.95394 -4.18241 0.61234 16 14 20
-2.59508 -4.01308 0.30971 20 29 20
-2.58152 -4.01698 0.30471 18 22 12
-2.60646 -4.02275 0.30530 45 54 53
-2.61581 -4.02061 0.30074 72 82 84
-2.62095 -4.02058 0.28661 80 82 73
-2.91274 -4.42284 0.19935 52 55 61
-2.89698 -4.42738 0.19354 62 58 56
-2.92546 -4.42801 0.19389 76 87 96
-2.93627 -4.42547 0.18862 128 145 160
-2.94937 -4.43181 0.18309 164 175 187
-2.95396 -4.40537 0.17852 182 190 200
-2.96359 -4.39856 0.17341 195 201 207
-2.97928 -4.39405 0.17919 204 209 217
-2.97440 -4.39629 0.16816 203 209 218
-2.96951 -4.39852 0.15713 202 207 218
-3.40443 -4.32810 -0.03857 187 179 186
-3.42719 -4.32592 -0.04938 164 172 179
-3.44279 -4.33480 -0.05584 187 188 198
-3.44878 -4.33476 -0.07229 198 206 199
-3.54808 -4.32932 -0.10542 190 191 198
-3.54207 -4.32936 -0.08888 199 205 207
-3.53710 -4.33163 -0.10009 191 194 198
-3.53214 -4.33391 -0.11130 198 199 195
-3.55305 -4.32705 -0.09421 197 198 202
-3.58488 -4.30493 -0.12482 202 200 195
-3.59087 -4.30489 -0.14127 209 211 210
-1.88704 -4.20706 0.64576 114 103 96
-1.87328 -4.21103 0.64068 127 108 97
-1.89644 -4.20626 0.64130 67 75 63
-1.90588 -4.20489 0.63677 43 27 32
-1.92450 -4.20666 0.62822 14 10 21
-1.92971 -4.20662 0.61391 14 7 9
-1.93387 -4.20701 0.62388 14 8 18
-1.93909 -4.20698 0.60956 18 11 19
-2.59224 -4.02313 0.30025 21 26 16
-2.57864 -4.02704 0.29523 17 21 13
-2.60215 -4.02428 0.29572 38 48 45
-2.61275 -4.02923 0.29120 72 81 81
-2.61790 -4.02919 0.27704 80 82 77
-2.90581 -4.41686 0.18849 58 53 57
-2.89009 -4.42138 0.18270 74 69 65
-2.90092 -4.41910 0.17744 67 61 60
-2.91730 -4.41727 0.18316 68 71 91
-2.93806 -4.45423 0.17672 121 135 159
-2.94130 -4.42178 0.17235 165 173 188
-2.94995 -4.41097 0.16736 183 187 199
-2.95955 -4.40400 0.16226 194 200 209
-2.96548 -4.40396 0.14597 201 205 216
-3.36009 -4.29091 -0.03474 234 235 239
-3.35421 -4.29096 -0.01858 239 240 243
-3.34936 -4.29318 -0.02953 238 241 245
-3.34451 -4.29540 -0.04048 241 242 244
-3.37301 -4.29406 -0.04049 215 219 223
-3.39535 -4.32017 -0.04863 140 141 164
-3.40055 -4.30420 -0.05246 122 117 141
-3.42205 -4.32764 -0.06044 171 184 192
-3.43310 -4.32574 -0.06577 187 192 195
-3.43907 -4.32570 -0.08217 193 205 198
-3.54037 -4.32553 -0.11588 200 202 200
-3.53542 -4.32779 -0.12706 194 193 198
-3.54637 -4.32548 -0.13238 203 208 210
-3.55141 -4.32341 -0.12122 219 229 224
-3.57040 -4.31248 -0.13105 218 214 215
-3.57639 -4.31244 -0.14752 206 203 203
-1.88255 -4.21184 0.63641 121 106 96
-1.86877 -4.21580 0.63134 117 105 96
-1.89194 -4.21118 0.63196 81 84 81
-1.90189 -4.20239 0.62657 35 22 39
-1.91112 -4.20426 0.62241 22 16 30
-1.91631 -4.20423 0.60813 18 12 17
-2.58934 -4.03300 0.29073 17 24 20
-2.57570 -4.03692 0.28570 20 21 18
-2.58509 -4.03494 0.28114 16 22 25
-2.59900 -4.03255 0.28617 30 42 45
-2.61095 -4.04512 0.28164 70 79 74
-2.61612 -4.04509 0.26741 80 81 81
-2.91326 -4.42296 0.17199 63 60 77
-2.90836 -4.42521 0.16092 57 56 57
-2.92529 -4.42538 0.16657 97 112 137
-2.93930 -4.43545 0.16086 153 167 190
-2.94571 -4.41578 0.15621 182 185 201
-2.95565 -4.41002 0.15108 194 199 210
-2.96158 -4.40998 0.13476 203 207 215
-3.35354 -4.28888 -0.04525 231 234 232
-3.37973 -4.32503 -0.05446 172 173 188
-3.38407 -4.30674 -0.05803 103 107 134
-3.40631 -4.33235 -0.06628 142 150 168
-3.41228 -4.33231 -0.08268 180 184 188
-3.41443 -4.32338 -0.07083 184 190 195
-3.42505 -4.32050 -0.07604 179 185 182
-3.43100 -4.32046 -0.09240 202 215 188
-1.87848 -4.21083 0.62639 112 98 93
-1.86472 -4.21479 0.62131 117 105 103
-1.87420 -4.21279 0.61671 116 99 103
-1.88794 -4.20918 0.62182 107 88 78
-1.89716 -4.21091 0.61764 49 29 33
-1.90653 -4.21073 0.61323 27 17 32
-1.91174 -4.21069 0.59893 20 14 19
-2.59557 -4.03932 0.27658 26 34 45
-2.58190 -4.04325 0.27154 20 20 23
-2.60817 -4.05566 0.27199 69 76 71
-2.61336 -4.05562 0.25772 82 80 86
-2.89654 -4.42348 0.16632 76 75 56
-2.88571 -4.42576 0.17158 86 83 68
-2.88082 -4.42800 0.16053 99 101 78
-2.91923 -4.42304 0.15565 60 71 101
-2.92874 -4.41544 0.15059 118 141 176
-2.94011 -4.41528 0.14525 172 185 204
-2.95084 -4.41262 0.14001 194 200 212
-3.32243 -4.28321 -0.04451 247 249 250
-3.31658 -4.28325 -0.02844 248 248 249
-3.31176 -4.28546 -0.03933 250 250 251
-3.32726 -4.28100 -0.03362 246 246 248
-3.33184 -4.27775 -0.04936 234 238 238
-3.36486 -4.33176 -0.06050 189 188 194
-3.36831 -4.31102 -0.06378 110 102 127
-3.39942 -4.32979 -0.07686 161 176 188
-3.40538 -4.32974 -0.09323 189 197 184
-1.88385 -4.20844 0.61185 120 105 99
-1.87010 -4.21240 0.60678 113 98 108
-1.89198 -4.22557 0.60934 65 63 67
-1.90207 -4.21531 0.60382 33 22 27
-2.59121 -4.04064 0.26697 25 27 43
-2.57754 -4.04457 0.26193 19 19 23
-2.60391 -4.05780 0.26231 69 72 75
-2.60911 -4.05777 0.24804 82 80 87
-2.89454 -4.43773 0.15483 92 94 62
-2.87876 -4.44227 0.14901 115 119 104
-2.90504 -4.43390 0.14961 68 67 50
-2.91584 -4.43135 0.14434 45 49 69
-2.92315 -4.41490 0.13966 67 90 125
-2.93463 -4.41526 0.13429 133 161 180
-2.94406 -4.40757 0.12928 183 197 214
-2.95214 -4.39485 0.12452 204 210 220
-2.96778 -4.39035 0.13028 211 216 223
-2.96291 -4.39258 0.11929 212 216 224
-3.31584 -4.28087 -0.05492 236 240 239
-3.34478 -4.32526 -0.06512 187 185 184
-3.35293 -4.31625 -0.06964 109 98 108
-3.36843 -4.32576 -0.07619 79 70 103
-3.37126 -4.30361 -0.07920 135 159 138
-3.37716 -4.30357 -0.09542 199 208 197
-3.39423 -4.33135 -0.08787 182 193 192
-3.40018 -4.33131 -0.10424 197 204 194
-4.02231 -4.06394 -0.40312 215 218 223
-4.01187 -4.06614 -0.39805 214 218 219
-4.02703 -4.06178 -0.39246 217 210 214
-4.03747 -4.05957 -0.39753 219 216 222
-4.03275 -4.06173 -0.40819 217 221 227
-1.87923 -4.21490 0.60266 121 104 110
-1.86546 -4.21886 0.59759 120 109 109
-1.87495 -4.21686 0.59298 125 119 114
-1.88866 -4.21379 0.59815 91 91 86
-1.89754 -4.22067 0.59447 39 29 26
-1.90713 -4.21743 0.58972 22 16 21
-1.92095 -4.21346 0.59481 14 10 10
-1.91665 -4.21543 0.58511 15 14 11
-1.91235 -4.21739 0.57540 18 17 10
-2.58895 -4.05452 0.25729 24 24 44
-2.57522 -4.05847 0.25223 15 19 19
-2.59934 -4.05807 0.25266 66 68 70
-2.90413 -4.45264 0.13783 104 97 59
-2.91447 -4.44797 0.13263 70 67 42
-2.92237 -4.43362 0.12787 38 50 61
-2.92932 -4.41584 0.12332 69 94 117
-2.93982 -4.41228 0.11813 138 161 190
-2.94541 -4.38991 0.11388 186 202 225
-2.95478 -4.38242 0.10893 208 217 232
-2.97036 -4.37793 0.11467 218 223 229
-2.96551 -4.38015 0.10372 218 224 232
-3.28885 -4.28527 -0.05520 246 250 250
-3.28301 -4.28532 -0.03917 254 253 253
-3.27820 -4.28752 -0.05003 253 253 254
-3.29789 -4.27884 -0.05992 227 225 232
-3.32564 -4.32090 -0.06994 176 163 184
-3.34136 -4.33128 -0.07658 91 83 103
-3.34771 -4.31762 -0.08055 58 50 64
-3.36020 -4.31961 -0.08628 101 104 128
-3.37111 -4.31761 -0.09156 169 189 186
-3.37703 -4.31756 -0.10783 200 206 206
-4.00161 -4.05983 -0.40671 198 200 210
-3.99590 -4.05987 -0.39103 210 208 215
-3.99119 -4.06203 -0.40166 211 214 220
-4.00903 -4.05311 -0.41069 189 192 208
-4.02773 -4.06345 -0.41874 205 214 226
-4.04289 -4.05908 -0.41315 220 228 228
-4.03817 -4.06124 -0.42381 234 240 241
-4.03345 -4.06340 -0.43446 233 241 244
-1.88468 -4.21146 0.58803 120 117 85
-1.87092 -4.21541 0.58295 119 115 107
-1.89314 -4.22396 0.58489 49 47 35
-1.90244 -4.22528 0.58060 27 21 19
-2.58632 -4.06644 0.24755 23 24 37
-2.57255 -4.07040 0.24247 16 21 13
-2.59738 -4.07377 0.24284 59 65 60
-2.60628 -4.06820 0.23826 79 81 79
-2.62008 -4.06423 0.24335 81 80 84
-2.61579 -4.06619 0.23365 81 80 84
-2.61149 -4.06816 0.22395 81 81 88
-2.89801 -4.44998 0.12690 127 115 86
-2.90398 -4.44994 0.11048 137 129 103
-2.90859 -4.44636 0.12167 108 97 63
-2.91931 -4.44335 0.11641 69 61 39
-2.92441 -4.41801 0.11228 37 48 47
-2.93034 -4.41796 0.09598 44 46 43
-2.93461 -4.41328 0.10715 65 84 112
-2.94999 -4.38489 0.09796 171 193 222
-2.95702 -4.36867 0.09354 206 221 234
-2.97254 -4.36420 0.09926 224 229 235
-2.96622 -4.36089 0.08868 222 229 238
-2.98171 -4.35644 0.09439 232 234 239
-2.97689 -4.35864 0.08350 230 233 240
-3.26586 -4.30041 -0.05663 249 253 252
-3.26001 -4.30045 -0.04055 254 254 254
-3.25518 -4.30266 -0.05144 253 254 254
-3.27068 -4.29820 -0.04573 254 254 254
-3.27301 -4.28872 -0.06079 235 243 237
-3.31390 -4.33569 -0.07685 148 133 162
-3.32011 -4.32143 -0.08075 76 55 102
-3.33109 -4.31967 -0.08605 42 45 74
-3.34457 -4.32427 -0.09208 81 89 104
-3.34651 -4.29960 -0.09468 147 156 162
-3.35239 -4.29956 -0.11084 195 199 206
-3.36159 -4.30823 -0.10120 187 199 205
-3.36749 -4.30818 -0.11741 207 207 210
-3.98548 -4.04449 -0.41315 207 200 205
-3.97045 -4.04881 -0.41869 232 228 231
-3.98080 -4.04663 -0.42371 217 212 216
-3.99115 -4.04445 -0.42874 206 204 215
-3.99545 -4.04174 -0.41804 195 195 209
-4.00112 -4.04170 -0.43362 214 217 230
-4.01795 -4.05795 -0.42753 210 220 234
-4.02366 -4.05791 -0.44322 226 230 236
-1.88808 -4.23656 0.57622 60 58 29
-1.89715 -4.24168 0.57227 35 21 28
-1.90671 -4.23986 0.56764 22 18 15
-1.92062 -4.23586 0.57276 10 12 10
-1.91629 -4.23784 0.56299 12 12 11
-1.91196 -4.23982 0.55321 18 14 13
-2.58345 -4.07705 0.23775 26 25 28
-2.56964 -4.08102 0.23266 18 19 15
-2.59398 -4.08109 0.23305 52 58 60
-2.60236 -4.07232 0.22853 75 81 75
-2.60757 -4.07229 0.21420 83 81 86
-2.94093 -4.37092 0.08795 85 105 148
-2.95243 -4.37180 0.08258 144 164 197
-2.96968 -4.35204 0.07317 214 228 239
-2.98513 -4.34760 0.07886 237 236 243
-2.97981 -4.34795 0.06812 232 238 245
-2.99525 -4.34351 0.07381 242 244 247
-2.99010 -4.34448 0.06304 243 247 250
-3.00554 -4.34004 0.06873 247 247 249
-3.00073 -4.34224 0.05788 248 250 251
-3.22302 -4.29261 -0.05023 252 254 254
-3.21720 -4.29265 -0.03423 254 254 254
-3.21240 -4.29485 -0.04507 254 254 254
-3.20760 -4.29705 -0.05591 238 244 247
-3.22782 -4.29041 -0.03939 254 254 254
-3.23844 -4.28818 -0.04454 254 254 254
-3.23841 -4.30359 -0.05678 246 252 251
-3.25083 -4.30617 -0.06248 234 240 243
-3.23166 -4.22283 -0.05880 210 205 225
-3.28771 -4.31229 -0.07949 102 93 121
-3.30132 -4.31765 -0.08557 64 38 91
-3.31573 -4.32492 -0.09190 46 38 70
-3.32512 -4.31906 -0.09671 91 100 111
-3.32586 -4.29108 -0.09886 150 160 158
-3.33172 -4.29104 -0.11496 197 198 199
-1.87597 -4.21738 0.56888 107 97 89
-1.86220 -4.22134 0.56380 110 104 96
-1.87168 -4.21934 0.55920 108 98 91
-1.88561 -4.21313 0.56406 91 82 55
-1.89268 -4.24573 0.56269 48 32 33
-1.90175 -4.25143 0.55874 27 18 28
-1.90701 -4.25139 0.54427 20 15 15
-2.57825 -4.07344 0.22814 29 24 30
-2.56446 -4.07740 0.22305 17 18 16
-2.58518 -4.05596 0.22380 48 44 65
-2.59996 -4.08555 0.21860 77 81 74
-2.60519 -4.08551 0.20422 84 82 83
-2.74803 -4.43485 0.16970 75 67 75
-2.74214 -4.43489 0.18590 70 67 69
-2.73728 -4.43712 0.17492 73 68 68
-2.73242 -4.43934 0.16395 73 72 65
-2.75289 -4.43263 0.18068 65 64 66
-2.75392 -4.43481 0.15351 92 85 79
-2.75892 -4.43332 0.16446 88 84 79
-2.77454 -4.42883 0.17021 83 78 81
-2.76968 -4.43106 0.15924 92 88 83
-2.76482 -4.43328 0.14827 94 92 87
-2.89980 -4.40835 0.09635 153 152 124
-2.88416 -4.41285 0.09059 163 160 149
-2.90622 -4.38857 0.09212 138 134 104
-2.93252 -4.35930 0.07791 30 28 48
-2.94379 -4.35948 0.07259 55 54 103
-2.96662 -4.36073 0.06187 146 165 190
-2.98480 -4.34487 0.05232 216 229 247
-2.99705 -4.34844 0.04674 232 242 249
-3.01250 -4.34399 0.05244 251 252 253
-3.18047 -4.25185 -0.04581 244 252 253
-3.21821 -4.29479 -0.06106 221 220 236
-3.21696 -4.25947 -0.06261 195 190 220
-3.24680 -4.31057 -0.07363 157 150 182
-3.25618 -4.30476 -0.07841 106 89 137
-3.27234 -4.31733 -0.08529 69 51 97
-3.28579 -4.32236 -0.09135 38 27 61
-3.29646 -4.31987 -0.09655 58 44 83
-3.30700 -4.31703 -0.10170 95 98 105
-3.30646 -4.28543 -0.10335 163 174 172
-3.31230 -4.28539 -0.11939 201 204 213
-3.32409 -4.30116 -0.11074 195 197 193
-3.32996 -4.30111 -0.12687 205 212 215
-1.88076 -4.22272 0.55509 118 103 83
-1.88823 -4.24934 0.55305 65 46 40
-1.89665 -4.26455 0.54993 31 16 27
-1.90193 -4.26451 0.53540 20 18 18
-2.57686 -4.09349 0.21809 28 23 26
-2.56299 -4.09748 0.21298 19 20 16
-2.58742 -4.09762 0.21332 44 39 60
-2.59992 -4.11305 0.20828 76 81 74
-2.60519 -4.11302 0.19377 80 83 76
-2.89383 -4.40605 0.08562 156 154 138
-2.87822 -4.41054 0.07987 162 161 155
-2.88897 -4.40827 0.07465 161 159 144
-2.89972 -4.40601 0.06943 157 152 126
-2.89913 -4.38168 0.08173 152 151 128
-2.90871 -4.37501 0.07682 142 136 102
-2.91699 -4.36339 0.07224 127 111 64
-2.92974 -4.36938 0.06654 77 59 40
-2.93761 -4.35640 0.06208 37 26 47
-2.96849 -4.34602 0.04687 83 89 153
-2.98167 -4.35314 0.04103 117 139 189
-2.99103 -4.34630 0.03621 158 176 204
-3.00260 -4.34740 0.03079 187 202 230
-3.02196 -4.33627 0.02099 227 235 251
-3.03737 -4.33184 0.02668 254 254 254
-3.08275 -4.31345 -0.00909 247 253 254
-3.09811 -4.30903 -0.00342 254 254 254
-3.09305 -4.31031 -0.01414 247 253 254
-3.10841 -4.30589 -0.00848 254 254 254
-3.10391 -4.30896 -0.01936 247 253 254
-3.11928 -4.30454 -0.01370 254 254 254
-3.11449 -4.30673 -0.02450 246 253 254
-3.15315 -4.22079 -0.04766 210 209 234
-3.19104 -4.29819 -0.06124 194 192 221
-3.19685 -4.29815 -0.07722 65 47 83
-3.20758 -4.28050 -0.07007 119 112 158
-3.21337 -4.28046 -0.08599 31 28 64
-3.22631 -4.30113 -0.07778 90 71 136
-3.23719 -4.29954 -0.08302 62 38 86
-3.26746 -4.31946 -0.09623 44 42 63
-3.28240 -4.32853 -0.10280 80 75 77
-3.28825 -4.31316 -0.10643 117 119 122
-3.29745 -4.30689 -0.11115 153 162 158
-3.30332 -4.30685 -0.12727 196 197 199
-3.30925 -4.30749 -0.11670 193 201 201
-3.31512 -4.30744 -0.13284 203 205 214
-1.86746 -4.22052 0.54945 113 109 93
-1.85798 -4.22252 0.55405 109 107 93
-1.85369 -4.22448 0.54438 108 101 102
-1.86317 -4.22248 0.53977 113 110 100
-1.87696 -4.21818 0.54482 133 120 94
-1.88430 -4.24575 0.54278 88 71 56
-1.89153 -4.27754 0.54102 36 21 25
-2.57485 -4.11000 0.20801 26 23 18
-2.56091 -4.11401 0.20287 24 26 16
-2.57052 -4.11199 0.19821 26 24 17
-2.58453 -4.10846 0.20333 42 37 45
-2.59938 -4.13805 0.19785 68 81 77
-2.60470 -4.13801 0.18323 81 84 82
-2.90225 -4.37063 0.06637 155 146 106
-2.88680 -4.37508 0.06067 159 152 139
-2.91107 -4.36112 0.06169 157 146 111
-2.92196 -4.35995 0.05646 134 121 99
-2.93459 -4.36548 0.05076 93 85 52
-2.94324 -4.35565 0.04613 67 55 28
-2.95194 -4.34615 0.04151 45 37 39
-2.95910 -4.33118 0.03732 19 18 43
-2.97345 -4.34286 0.03113 11 18 63
-2.98103 -4.32968 0.02684 41 39 91
-2.98682 -4.32964 0.01093 30 24 49
-2.99479 -4.33888 0.02079 79 80 142
-3.00804 -4.34597 0.01488 110 117 175
-3.01802 -4.34145 0.00991 130 144 196
-3.03907 -4.29835 -0.00234 190 201 226
-3.04483 -4.29831 -0.01817 102 77 144
-3.05756 -4.28568 -0.01179 202 203 231
-3.06331 -4.28564 -0.02757 98 78 144
-3.07560 -4.27191 -0.02107 200 205 229
-3.07754 -4.24275 -0.02352 199 203 229
-3.08276 -4.22450 -0.02696 196 202 228
-3.09772 -4.22020 -0.02145 244 252 254
-3.09306 -4.22233 -0.03196 184 193 223
-3.11280 -4.21536 -0.04169 157 176 208
-3.10716 -4.21539 -0.02619 240 251 254
-3.10251 -4.21753 -0.03669 170 186 219
-3.11745 -4.21323 -0.03118 237 249 253
-3.12774 -4.21106 -0.03618 233 242 246
-3.14870 -4.28997 -0.05480 143 157 188
-3.15347 -4.27057 -0.05808 127 134 173
-3.18557 -4.29842 -0.07185 93 72 130
-3.22990 -4.29485 -0.09307 48 41 57
-3.25429 -4.29895 -0.10443 107 114 110
-3.29305 -4.31029 -0.12222 186 195 187
-3.52011 -4.16736 -0.23746 197 200 205
-3.51440 -4.16740 -0.22178 206 205 201
-3.50970 -4.16956 -0.23241 200 203 200
-3.52481 -4.16521 -0.22684 212 214 213
-3.53522 -4.16301 -0.23189 216 219 214
-3.53052 -4.16517 -0.24252 209 216 217
-1.87224 -4.22591 0.53563 131 124 99
-1.85845 -4.22987 0.53055 121 109 103
-1.86794 -4.22787 0.52594 129 120 101
-1.88211 -4.21881 0.53060 103 93 71
-1.88673 -4.28567 0.53165 43 34 26
-1.89624 -4.28634 0.52716 23 23 24
-1.91033 -4.28229 0.53236 11 12 12
-1.90594 -4.28430 0.52245 15 15 12
-2.58056 -4.11275 0.19347 35 30 38
-2.56661 -4.11676 0.18833 27 27 41
-2.59465 -4.13800 0.18800 64 78 80
-2.59997 -4.13796 0.17339 84 85 80
-2.89755 -4.37328 0.05548 155 155 135
-2.88210 -4.37773 0.04978 154 153 146
-2.90339 -4.37324 0.03945 160 155 145
-2.90689 -4.36580 0.05068 153 152 138
-2.91430 -4.35090 0.04643 153 148 128
-2.92380 -4.34443 0.04160 152 140 109
-2.93658 -4.35070 0.03583 134 122 98
-2.94575 -4.34305 0.03110 111 101 78
-2.95781 -4.34635 0.02553 74 59 37
-2.96866 -4.34505 0.02031 64 46 48
-3.00059 -4.33879 0.00483 22 18 50
-3.01380 -4.34571 -0.00112 15 18 59
-3.02318 -4.33913 -0.00589 28 33 75
-3.03317 -4.33472 -0.01085 54 56 110
-3.03898 -4.33468 -0.02684 53 42 62
-3.09178 -4.26969 -0.04187 85 72 133
-3.09750 -4.26965 -0.05761 30 29 40
-3.10185 -4.26632 -0.04682 77 63 127
-3.10565 -4.24365 -0.04973 66 52 117
-3.12670 -4.27402 -0.05826 52 42 101
-3.13659 -4.27001 -0.06316 37 28 81
-3.14621 -4.26524 -0.06796 30 25 72
-3.15724 -4.26472 -0.07323 35 37 77
-3.18192 -4.27108 -0.08465 53 53 42
-3.19743 -4.28316 -0.09144 67 62 53
-3.21511 -4.26907 -0.10052 112 116 106
-3.24795 -4.29697 -0.11477 172 179 155
-3.25378 -4.29693 -0.13079 193 196 191
-3.26416 -4.30988 -0.12185 185 185 169
-3.27002 -4.30984 -0.13795 194 184 186
-3.27739 -4.31444 -0.12792 181 173 178
-3.28326 -4.31440 -0.14405 196 196 196
-3.28740 -4.31034 -0.13288 188 191 191
-3.29327 -4.31030 -0.14900 201 204 201
-3.51117 -4.16050 -0.24652 189 193 198
-3.52181 -4.15885 -0.25165 210 218 219
-3.53688 -4.15451 -0.24610 209 211 215
-3.53219 -4.15666 -0.25669 219 222 222
-3.52750 -4.15881 -0.26729 221 226 222
-1.87598 -4.24529 0.52289 111 103 83
-1.86211 -4.24928 0.51778 130 123 96
-1.88256 -4.28464 0.52152 51 48 34
-1.89111 -4.29909 0.51809 29 26 29
-1.90085 -4.29705 0.51337 22 17 15
-1.91498 -4.29298 0.51858 14 12 20
-1.91058 -4.29500 0.50864 14 14 14
-1.90618 -4.29701 0.49870 18 15 17
-2.57797 -4.12574 0.18332 30 27 45
-2.56397 -4.12977 0.17816 29 26 39
-2.59063 -4.14223 0.17803 64 75 69
-2.92022 -4.35134 0.03045 163 167 145
-2.92603 -4.35129 0.01451 161 161 159
-2.93956 -4.33989 0.02073 150 143 103
-2.95326 -4.34947 0.01464 150 134 99
-2.96449 -4.34955 0.00930 144 128 108
-2.97463 -4.34561 0.00429 117 107 98
-2.98272 -4.33428 -0.00007 103 95 81
-2.99355 -4.33296 -0.00528 82 63 35
-3.00730 -4.34191 -0.01143 58 40 25
-3.01838 -4.34132 -0.01673 53 38 29
-3.02914 -4.33958 -0.02193 54 45 54
-3.03496 -4.33953 -0.03793 112 104 78
-3.10948 -4.27218 -0.06319 44 31 42
-3.11521 -4.27214 -0.07895 114 113 82
-3.12247 -4.27773 -0.06913 53 39 50
-3.14181 -4.26842 -0.07876 76 57 64
-3.16547 -4.30531 -0.08837 89 82 83
-3.17598 -4.30281 -0.09349 97 97 89
-3.21574 -4.28640 -0.11315 178 176 158
-3.22154 -4.28636 -0.12908 184 178 176
-3.39161 -4.18509 -0.20142 200 203 207
-3.38592 -4.18513 -0.18579 187 194 193
-3.38123 -4.18728 -0.19638 195 196 189
-3.38692 -4.18724 -0.21201 195 191 197
-3.40667 -4.18076 -0.19587 209 212 212
-3.40040 -4.17922 -0.20586 214 213 214
-3.41544 -4.17489 -0.20032 199 196 196
-3.41076 -4.17703 -0.21090 210 206 209
-3.40608 -4.17918 -0.22147 198 200 213
-3.49691 -4.16659 -0.25238 193 194 190
-3.48183 -4.17093 -0.25794 209 214 206
-3.50678 -4.16328 -0.25723 187 190 192
-3.51781 -4.16247 -0.26251 206 211 210
-3.52350 -4.16243 -0.27816 213 220 218
-1.87060 -4.26116 0.51421 118 110 84
-1.85667 -4.26517 0.50907 125 117 101
-1.87675 -4.30626 0.51312 64 68 51
-1.88677 -4.30036 0.50810 37 27 34
-1.89664 -4.29625 0.50323 27 18 24
-1.90197 -4.29621 0.48857 23 18 18
-2.30592 -4.38108 0.31148 27 14 16
-2.30029 -4.38112 0.32694 14 16 14
-2.29565 -4.38325 0.31647 16 13 17
-2.31056 -4.37896 0.32196 19 18 12
-2.32082 -4.37679 0.31697 23 17 15
-2.31653 -4.38424 0.30655 36 21 15
-2.33146 -4.37994 0.31205 29 19 9
-2.32750 -4.39207 0.30163 45 27 24
-2.34248 -4.38776 0.30716 25 22 17
-2.33873 -4.40270 0.29671 45 34 27
-2.35377 -4.39838 0.30225 27 21 22
-2.35000 -4.41274 0.29174 40 28 12
-2.36510 -4.40840 0.29731 27 25 26
-2.36040 -4.41055 0.28670 35 23 27
-2.57842 -4.15825 0.17242 32 24 47
-2.56427 -4.16232 0.16721 27 26 25
-2.58634 -4.14485 0.16810 57 64 69
-2.59582 -4.14140 0.16344 77 85 80
-2.60991 -4.13734 0.16863 85 84 85
-2.60552 -4.13935 0.15873 82 84 86
-2.60114 -4.14136 0.14882 83 85 85
-2.94696 -4.34594 0.00430 171 164 141
-2.95930 -4.35027 -0.00141 154 143 144
-2.97756 -4.33509 -0.01074 175 182 151
-2.98405 -4.31821 -0.01452 157 149 119
-2.99167 -4.30568 -0.01866 132 115 81
-3.01447 -4.30760 -0.02946 124 122 85
-3.02023 -4.30756 -0.04528 163 155 133
-3.12769 -4.27608 -0.08474 123 119 98
-3.12295 -4.27825 -0.09544 166 158 137
-3.13343 -4.27604 -0.10053 163 162 141
-3.13860 -4.27517 -0.08998 130 126 110
-3.14435 -4.27512 -0.10578 162 162 142
-3.16288 -4.31408 -0.09998 142 145 125
-3.16871 -4.31404 -0.11598 159 156 146
-3.20339 -4.29943 -0.11990 174 174 167
-3.20921 -4.29939 -0.13587 191 189 193
-3.36920 -4.19889 -0.20308 212 217 205
-3.36350 -4.19893 -0.18742 198 203 191
-3.35880 -4.20108 -0.19803 209 213 205
-3.35410 -4.20323 -0.20864 203 204 203
-3.37490 -4.19885 -0.21874 210 213 204
-3.37669 -4.18978 -0.20702 206 204 189
-3.39511 -4.17993 -0.21621 195 192 202
-3.39043 -4.18208 -0.22678 185 181 190
-3.40078 -4.17989 -0.23181 185 185 200
-3.49592 -4.17676 -0.26442 209 216 205
-3.49122 -4.17892 -0.27505 223 228 223
-3.50830 -4.17879 -0.27024 204 205 203
-3.59199 -4.11591 -0.31272 215 223 219
-3.58635 -4.11595 -0.29723 210 209 211
-3.58171 -4.11808 -0.30773 209 214 214
-3.58734 -4.11804 -0.32322 219 223 222
-3.59763 -4.11587 -0.32821 228 230 227
-3.60009 -4.10943 -0.31685 223 228 220
-3.60571 -4.10939 -0.33232 218 217 219
-1.86511 -4.27795 0.50551 120 111 92
-1.85111 -4.28198 0.50035 123 111 116
-1.86076 -4.27995 0.49566 119 109 105
-1.87444 -4.28019 0.50114 96 92 75
-1.88178 -4.31056 0.49875 48 37 37
-1.89132 -4.31172 0.49423 29 24 31
-2.29045 -4.37564 0.30589 38 23 38
-2.28484 -4.37568 0.32131 18 16 19
-2.28022 -4.37780 0.31086 20 16 16
-2.30172 -4.39047 0.30106 84 56 74
-2.31250 -4.39603 0.29611 107 94 69
-2.32221 -4.38479 0.29106 117 113 113
-2.33347 -4.39650 0.28611 127 132 117
-2.34385 -4.39506 0.28110 109 117 39
-2.35615 -4.41857 0.27609 49 31 21
-2.37127 -4.41422 0.28166 33 26 30
-2.36657 -4.41637 0.27103 37 27 36
-2.57393 -4.15970 0.16250 25 28 30
-2.55978 -4.16377 0.15728 30 31 24
-2.58085 -4.13995 0.15846 51 60 63
-2.59094 -4.14036 0.15366 78 83 78
-2.59625 -4.14032 0.13906 84 86 87
-2.89192 -4.37013 0.01832 145 151 141
-2.88611 -4.37017 0.03432 169 171 161
-2.87651 -4.37456 0.01264 158 156 143
-2.89774 -4.37009 0.00233 168 162 158
-2.94162 -4.34602 -0.00631 175 171 146
-2.93684 -4.34821 -0.01710 148 144 144
-2.95496 -4.35416 -0.01238 163 162 150
-2.96331 -4.34356 -0.01676 163 155 145
-2.98120 -4.32726 -0.02591 167 164 154
-2.98698 -4.32722 -0.04179 171 165 159
-2.99625 -4.30154 -0.03405 176 172 148
-3.18312 -4.28972 -0.12377 178 176 166
-3.16779 -4.29413 -0.12942 194 193 176
-3.17835 -4.29190 -0.13454 197 199 187
-3.18891 -4.28968 -0.13967 207 210 202
-3.47101 -4.18468 -0.26518 203 203 205
-3.46530 -4.18473 -0.24949 207 204 209
-3.46059 -4.18688 -0.26012 205 205 209
-3.47572 -4.18253 -0.25455 208 213 209
-3.48236 -4.18452 -0.27061 214 215 209
-3.50697 -4.18824 -0.28223 220 222 219
-3.51270 -4.18820 -0.29798 226 228 221
-3.51628 -4.18360 -0.28685 217 218 212
-3.52201 -4.18356 -0.30259 224 222 217
-3.60989 -4.07341 -0.33564 215 219 224
-3.60433 -4.07345 -0.32034 216 219 225
-3.59973 -4.07556 -0.33071 211 213 219
-3.61449 -4.07131 -0.32527 214 218 225
-3.60530 -4.07552 -0.34601 209 203 208
-3.62465 -4.06917 -0.33020 225 233 229
-1.86904 -4.29588 0.49223 116 105 90
-1.85495 -4.29993 0.48703 118 111 107
-1.87642 -4.32554 0.48967 58 51 43
-2.27571 -4.38211 0.30043 19 20 25
-2.27009 -4.38215 0.31586 16 16 15
-2.26546 -4.38427 0.30541 15 13 13
-2.26083 -4.38639 0.29495 14 12 19
-2.28677 -4.39476 0.29555 75 70 92
-2.29504 -4.35822 0.29039 199 195 206
-2.30599 -4.36852 0.28549 242 241 207
-2.31654 -4.37134 0.28054 240 239 219
-2.32701 -4.37255 0.27557 246 244 222
-2.33762 -4.37551 0.27058 236 225 163
-2.35250 -4.43473 0.26541 88 70 48
-2.36254 -4.42715 0.26036 40 25 33
-2.37770 -4.42279 0.26595 39 32 35
-2.37298 -4.42495 0.25529 41 31 39
-2.36826 -4.42711 0.24463 38 32 39
-2.57287 -4.18336 0.15166 33 33 29
-2.55862 -4.18746 0.14641 24 31 34
-2.56844 -4.18540 0.14165 25 32 34
-2.57990 -4.16365 0.14765 53 54 48
-2.88599 -4.36765 0.00788 159 156 151
-2.92809 -4.35753 -0.01261 166 158 151
-2.91749 -4.35976 -0.00746 166 161 141
-2.91270 -4.36195 -0.01828 164 167 157
-2.95864 -4.34616 -0.02760 189 188 166
-2.99152 -4.30371 -0.04474 180 174 164
-2.99956 -4.29299 -0.04894 181 176 161
-3.00528 -4.29295 -0.06467 183 183 170
-3.46731 -4.18909 -0.27623 191 191 195
-3.47303 -4.18905 -0.29193 193 198 197
-3.49127 -4.19147 -0.28761 207 211 219
-3.50238 -4.19070 -0.29296 215 221 224
-3.58630 -4.08240 -0.33669 218 221 219
-3.57613 -4.08454 -0.33175 220 223 219
-3.58170 -4.08450 -0.34707 229 235 230
-3.58943 -4.06649 -0.33871 211 209 210
-1.86373 -4.30977 0.48311 120 108 92
-1.84959 -4.31383 0.47790 115 111 104
-1.87096 -4.34143 0.48056 74 72 54
-1.88060 -4.34225 0.47597 44 34 36
-1.89047 -4.33988 0.47116 34 23 24
-1.89587 -4.33984 0.45633 22 21 14
-2.27088 -4.38040 0.28996 18 18 26
-2.25603 -4.38468 0.28449 15 12 13
-2.28138 -4.38317 0.28501 59 57 76
-2.29044 -4.36032 0.28000 182 196 205
-2.30123 -4.36821 0.27506 221 219 226
-2.31170 -4.37011 0.27009 210 208 215
-2.32236 -4.37443 0.26511 220 218 219
-2.33256 -4.37162 0.26014 224 216 193
-2.34501 -4.39943 0.25497 110 79 73
-2.35806 -4.43244 0.24968 44 22 23
-2.36378 -4.43240 0.23393 37 35 33
-2.57749 -4.17849 0.13710 48 46 39
-2.58416 -4.15683 0.13328 74 82 87
-2.58950 -4.15679 0.11862 82 87 83
-2.88913 -4.35673 -0.00713 172 162 157
-2.90447 -4.35232 -0.00148 176 171 147
-2.89970 -4.35450 -0.01226 179 177 154
-2.92121 -4.35153 -0.02266 170 169 154
-2.90586 -4.35594 -0.02832 157 161 153
-2.92700 -4.35149 -0.03858 183 181 166
-2.93171 -4.34903 -0.02777 169 156 150
-2.93750 -4.34899 -0.04369 178 178 173
-2.96991 -4.32517 -0.04677 173 173 166
-2.97896 -4.31765 -0.05133 168 167 163
-2.98472 -4.31761 -0.06715 190 187 190
-2.99440 -4.29361 -0.05943 204 202 185
-3.00012 -4.29357 -0.07515 189 189 183
-3.49802 -4.19366 -0.30378 206 208 218
-3.56487 -4.07335 -0.33932 215 224 220
-3.55932 -4.07339 -0.32407 219 221 218
-3.55474 -4.07549 -0.33440 203 208 209
-3.57713 -4.05341 -0.34578 226 223 218
-3.57258 -4.05550 -0.35605 236 232 225
-3.58265 -4.05338 -0.36094 238 237 231
-1.85880 -4.31848 0.47359 119 113 93
-1.84464 -4.32255 0.46837 115 110 103
-1.85439 -4.32050 0.46363 118 114 99
-1.86828 -4.32015 0.46908 103 97 72
-1.87545 -4.35385 0.46648 58 42 34
-1.88530 -4.35224 0.46171 36 26 27
-2.26624 -4.38210 0.27952 23 18 21
-2.25138 -4.38637 0.27404 17 13 13
-2.26161 -4.38422 0.26908 22 20 23
-2.27652 -4.38089 0.27455 20 28 47
-2.28647 -4.37374 0.26959 134 144 142
-2.29643 -4.36726 0.26465 186 182 167
-2.30744 -4.37797 0.25963 182 170 148
-2.31761 -4.37480 0.25466 184 175 146
-2.32801 -4.37499 0.24967 194 186 138
-2.33955 -4.39062 0.24453 114 95 72
-2.35228 -4.42061 0.23916 46 27 22
-2.35798 -4.42057 0.22349 32 33 40
-2.54303 -4.25358 0.14336 38 25 19
-2.55756 -4.24940 0.14872 26 33 29
-2.55824 -4.21692 0.13514 37 29 32
-2.56551 -4.19742 0.13116 42 33 29
-2.57448 -4.18965 0.12665 57 44 32
-2.57986 -4.18961 0.11185 85 90 84
-2.58153 -4.17001 0.12278 76 85 83
-2.58688 -4.16997 0.10806 84 87 86
-2.94376 -4.33045 -0.04716 179 181 172
-2.93901 -4.33262 -0.05789 167 162 165
-2.94952 -4.33041 -0.06300 169 168 156
-3.49663 -4.20310 -0.31587 202 202 205
-3.48141 -4.20748 -0.32148 197 202 203
-3.49189 -4.20527 -0.32657 197 200 198
-3.50237 -4.20306 -0.33166 198 197 192
-3.55338 -4.06162 -0.34668 220 224 224
-3.55890 -4.06158 -0.36185 219 215 225
-3.56221 -4.05702 -0.35103 228 226 229
-3.56772 -4.05698 -0.36619 227 228 229
-1.86319 -4.33091 0.45962 123 109 86
-1.84897 -4.33500 0.45438 123 112 106
-1.87119 -4.35317 0.45624 71 58 40
-1.87984 -4.36834 0.45240 40 31 27
-1.88912 -4.37577 0.44810 26 25 15
-1.90357 -4.37161 0.45343 20 19 9
-1.89907 -4.37367 0.44326 20 20 9
-1.89457 -4.37573 0.43310 22 21 13
-2.27203 -4.38571 0.26410 20 25 34
-2.25716 -4.38999 0.25862 23 20 26
-2.26740 -4.38783 0.25365 26 26 30
-2.28187 -4.37625 0.25916 87 97 61
-2.29192 -4.37111 0.25422 138 141 128
-2.30160 -4.36028 0.24934 138 119 117
-2.31283 -4.37459 0.24423 133 115 105
-2.31844 -4.37455 0.22882 32 20 26
-2.32408 -4.38738 0.23910 123 112 75
-2.33619 -4.41114 0.23377 80 60 30
-2.34748 -4.42155 0.22856 38 31 38
-2.37078 -4.44815 0.21791 38 38 38
-2.37553 -4.44597 0.22863 38 36 28
-2.38603 -4.44376 0.22353 41 35 40
-2.38272 -4.46302 0.21249 44 31 35
-2.39805 -4.45861 0.21814 41 35 36
-2.39444 -4.47420 0.20709 43 27 27
-2.40983 -4.46977 0.21276 41 37 36
-2.52822 -4.25571 0.13810 77 82 47
-2.53370 -4.25567 0.12303 127 124 94
-2.53599 -4.23762 0.13398 93 94 59
-2.54144 -4.23758 0.11899 125 121 94
-2.54669 -4.24081 0.12889 103 104 80
-2.55216 -4.24077 0.11388 121 116 103
