ply
format ascii 1.0
element face 0
property list uchar int vertex_indices
element vertex 1295
property float x
property float y
property float z
property uchar diffuse_red
property uchar diffuse_green
property uchar diffuse_blue
end_header
-3.73995 -4.13974 1.49171 145 140 125
-3.75262 -4.14101 1.47817 137 125 96
-3.75159 -4.15661 1.49490 139 128 106
-3.76431 -4.15788 1.48130 138 126 98
-4.03155 -4.88800 1.64744 136 122 102
-4.01605 -4.88580 1.64791 130 123 99
-4.01567 -4.88511 1.63221 137 126 106
-4.03193 -4.88869 1.66314 134 122 101
-4.04744 -4.89089 1.66266 130 121 111
-4.04668 -4.88952 1.63126 152 142 108
-4.37139 -6.05303 1.89716 155 131 130
-4.39217 -6.07832 1.90173 184 180 177
-4.41126 -6.08023 1.88131 209 215 213
-4.41329 -6.10652 1.90695 208 216 212
-4.43247 -6.10844 1.88644 209 212 212
-2.26631 -3.31224 1.38183 189 172 152
-2.26657 -3.31272 1.39274 203 174 144
-2.28186 -3.30644 1.37952 197 173 152
-2.29261 -3.30796 1.37919 202 172 157
-2.40422 -3.27831 1.36536 225 189 172
-2.39338 -3.27634 1.35496 208 171 153
-2.65525 -3.29823 1.35410 236 215 205
-2.64446 -3.29627 1.34376 238 215 197
-2.65499 -3.29777 1.34344 241 216 196
-2.66552 -3.29926 1.34312 242 218 204
-2.68314 -3.28777 1.34994 238 219 217
-2.69336 -3.28880 1.33901 240 219 211
-2.69361 -3.28929 1.34963 237 219 221
-2.70383 -3.29032 1.33870 239 218 212
-2.70701 -3.28492 1.34778 238 221 228
-2.71721 -3.28594 1.33688 238 217 212
-2.72152 -3.27823 1.34533 239 226 233
-2.73649 -3.27048 1.34261 242 233 237
-2.74713 -3.27242 1.35282 249 247 252
-2.74769 -3.27028 1.34186 245 237 243
-2.75833 -3.27222 1.35206 251 250 252
-2.76017 -3.26743 1.34042 248 244 249
-2.77079 -3.26937 1.35060 252 252 253
-2.77053 -3.26891 1.34011 249 249 252
-2.77028 -3.26845 1.32961 239 227 229
-2.90535 -3.23733 1.32437 244 246 250
-2.89541 -3.23633 1.33499 252 253 254
-2.89491 -3.23543 1.31436 239 233 242
-2.90560 -3.23778 1.33468 253 254 254
-2.91406 -3.24219 1.32493 244 248 252
-2.92216 -3.24855 1.32588 234 237 246
-2.93042 -3.25462 1.32675 214 212 234
-2.93824 -3.26183 1.32791 209 209 232
-2.95425 -3.27570 1.33008 194 194 219
-2.98269 -3.34190 1.34347 139 122 97
-2.98764 -3.35778 1.34680 126 111 94
-2.98998 -3.38076 1.35192 98 90 84
-3.00037 -3.38181 1.34081 47 45 53
-3.00013 -3.41353 1.35879 53 52 37
-2.99986 -3.41305 1.34789 45 45 47
-3.01063 -3.41458 1.34756 47 45 42
-3.19263 -4.01587 1.48478 34 20 22
-3.18013 -4.01462 1.49815 31 30 20
-3.17981 -4.01405 1.48517 29 26 18
-3.17950 -4.01348 1.47219 27 24 20
-3.20327 -4.02640 1.48652 57 45 26
-3.24084 -4.03595 1.48634 80 65 34
-3.22766 -4.03356 1.47371 80 62 47
-3.24053 -4.03539 1.47331 80 65 39
-3.25339 -4.03721 1.47292 82 70 39
-3.25601 -4.02800 1.48356 83 73 34
-3.26853 -4.02925 1.47018 89 76 47
-3.28588 -4.01318 1.47828 96 80 47
-3.29947 -4.01128 1.47699 96 76 51
-3.31193 -4.01439 1.47692 94 69 46
-3.32442 -4.01744 1.47683 89 64 35
-3.33749 -4.01981 1.48936 83 65 45
-3.33718 -4.01925 1.47644 83 63 30
-3.62634 -3.99378 1.45237 94 80 45
-3.61413 -3.99255 1.46543 92 79 45
-3.61382 -3.99200 1.45275 90 79 41
-3.61351 -3.99145 1.44007 93 77 35
-3.62665 -3.99433 1.46505 92 79 38
-3.63697 -4.01054 1.45554 93 82 50
-3.64791 -4.02559 1.45830 118 111 82
-3.65971 -4.03434 1.45957 137 137 115
-3.67204 -4.03558 1.44637 150 158 144
-3.72808 -4.12259 1.47549 140 137 115
-3.74069 -4.12386 1.46201 136 124 102
-3.74071 -4.12763 1.47585 137 127 101
-3.75333 -4.12889 1.46235 137 125 101
-4.03117 -4.88782 1.63185 144 137 103
-4.03078 -4.88713 1.61615 148 139 106
-4.04629 -4.88933 1.61568 154 139 109
-4.35329 -6.08658 1.88642 152 132 115
-4.33415 -6.08466 1.90689 149 138 107
-4.33366 -6.08379 1.88702 149 138 103
-4.33318 -6.08292 1.86715 156 137 106
-4.37306 -6.09207 1.88644 162 144 141
-4.39424 -6.12184 1.89193 190 189 187
-4.41348 -6.12377 1.87135 207 214 218
-2.21940 -3.36464 1.38577 79 79 110
-2.20814 -3.36260 1.37498 14 9 32
-2.21913 -3.36416 1.37464 11 10 37
-2.23012 -3.36572 1.37431 8 19 42
-2.29192 -3.30813 1.36848 180 162 161
-2.30294 -3.31014 1.37904 205 171 153
-2.42122 -3.28733 1.35570 221 187 166
-2.43209 -3.28930 1.36612 226 191 175
-2.43305 -3.28681 1.35484 223 188 167
-2.44391 -3.28878 1.36526 223 192 176
-2.44365 -3.28831 1.35452 225 192 170
-2.73523 -3.27206 1.33262 239 218 215
-2.72458 -3.27013 1.32241 246 225 211
-2.73497 -3.27160 1.32209 244 223 213
-2.74537 -3.27308 1.32177 241 220 213
-2.74811 -3.26844 1.33100 239 221 223
-2.75823 -3.26946 1.32017 240 219 210
-2.76101 -3.26471 1.32935 239 224 225
-2.77111 -3.26573 1.31854 238 217 211
-2.82169 -3.22943 1.31759 244 240 246
-2.83214 -3.23133 1.32761 246 245 248
-2.83301 -3.22846 1.31666 245 244 248
-2.84345 -3.23036 1.32667 247 246 248
-2.84320 -3.22991 1.31635 246 246 249
-2.90519 -3.23666 1.31400 231 225 236
-2.91349 -3.24247 1.31479 225 221 236
-2.91956 -3.25359 1.31692 209 206 231
-2.92790 -3.25952 1.31774 185 185 221
-2.93549 -3.26732 1.31902 183 183 222
-2.93962 -3.28361 1.32244 181 181 215
-2.94606 -3.29454 1.32451 160 150 178
-2.95232 -3.30609 1.32672 140 127 126
-2.96100 -3.31185 1.32748 136 120 110
-2.96830 -3.32116 1.32912 136 123 108
-2.97655 -3.32823 1.33020 131 118 101
-2.97936 -3.34930 1.33478 109 103 79
-2.97788 -3.38184 1.34222 79 81 50
-2.98828 -3.38288 1.33110 46 45 39
-2.98749 -3.38611 1.34259 59 58 57
-2.99790 -3.38716 1.33145 42 44 35
-3.19136 -4.01907 1.47271 22 19 23
-3.17821 -4.01668 1.46010 24 23 17
-3.20199 -4.02969 1.47444 49 40 30
-3.21343 -4.03725 1.47543 75 58 42
-3.22600 -4.03851 1.46199 76 61 53
-3.29953 -4.00907 1.46368 105 88 57
-3.29921 -4.00850 1.45078 105 90 64
-3.31196 -4.01031 1.45039 114 95 63
-3.31337 -4.00588 1.46210 108 90 50
-3.33777 -4.01442 1.46250 95 73 40
-3.35082 -4.01680 1.47502 80 62 34
-3.35058 -4.01592 1.46204 88 65 44
-3.36363 -4.01830 1.47455 81 61 29
-3.36397 -4.01457 1.46090 83 60 40
-3.37701 -4.01694 1.47340 79 61 27
-3.38009 -3.99949 1.45648 78 58 28
-3.39307 -4.00185 1.46892 76 59 22
-3.39276 -4.00129 1.45610 75 56 20
-3.40725 -3.99369 1.45348 78 57 34
-3.40756 -3.99425 1.46627 73 58 29
-3.42019 -3.99605 1.46588 75 59 34
-3.41988 -3.99549 1.45309 84 67 43
-3.62634 -3.99089 1.43914 109 96 67
-3.61352 -3.98856 1.42686 116 101 76
-3.63581 -4.01672 1.44438 112 115 89
-3.64809 -4.01795 1.43124 126 137 99
-3.64873 -4.01583 1.44337 128 142 113
-3.69303 -4.07908 1.45488 152 153 147
-3.72890 -4.11034 1.45969 134 126 105
-3.74147 -4.11160 1.44625 137 125 102
-4.35468 -6.12292 1.87483 156 138 113
-4.33444 -6.11924 1.85543 158 141 119
-4.37515 -6.13910 1.87720 172 160 144
-4.39494 -6.14170 1.87655 199 201 198
-4.41426 -6.14363 1.85590 214 218 222
-2.34372 -3.29938 1.35253 202 172 153
-2.35467 -3.30138 1.36303 209 174 149
-2.35441 -3.30090 1.35220 206 174 151
-2.43247 -3.28686 1.34424 212 174 157
-2.42161 -3.28489 1.33383 210 173 151
-2.43221 -3.28639 1.33350 211 172 153
-2.44281 -3.28790 1.33318 207 173 154
-2.44514 -3.28490 1.34302 217 183 166
-2.45599 -3.28687 1.35342 229 193 175
-2.45790 -3.28273 1.34175 222 187 174
-2.46874 -3.28470 1.35214 227 193 174
-2.48233 -3.28012 1.33965 225 194 175
-2.49315 -3.28209 1.35002 227 198 184
-2.49289 -3.28162 1.33933 226 197 185
-2.81413 -3.22141 1.30603 239 218 221
-2.80370 -3.21951 1.29604 244 225 218
-2.81388 -3.22096 1.29573 243 223 216
-2.82405 -3.22241 1.29542 241 219 214
-2.82543 -3.22045 1.30512 238 222 225
-2.83535 -3.22144 1.29451 240 218 212
-2.83655 -3.21985 1.30429 237 226 230
-2.84646 -3.22084 1.29370 241 220 215
-2.84638 -3.22200 1.30416 241 230 236
-2.85679 -3.22389 1.31414 248 246 250
-2.85625 -3.22409 1.30401 246 235 242
-2.86666 -3.22598 1.31400 248 246 250
-2.86766 -3.22278 1.30301 246 240 248
-2.87806 -3.22467 1.31299 248 246 250
-2.87766 -3.22456 1.30279 243 242 250
-2.88807 -3.22645 1.31276 246 243 247
-2.89536 -3.23338 1.30365 235 236 245
-2.90528 -3.23542 1.30349 228 224 237
-2.90988 -3.24982 1.30640 213 207 229
-2.91470 -3.26393 1.30924 187 184 218
-2.92036 -3.27627 1.31163 158 158 201
-2.92691 -3.28674 1.31355 148 142 182
-2.93672 -3.28950 1.31355 144 133 159
-2.95287 -3.30365 1.31569 136 119 109
-2.96154 -3.30943 1.31644 135 117 114
-2.96743 -3.32224 1.31892 120 105 104
-2.96653 -3.35244 1.32568 95 84 80
-2.97075 -3.37015 1.32936 65 64 60
-2.98112 -3.37119 1.31827 43 44 48
-2.97980 -3.37574 1.33004 51 51 34
-2.99018 -3.37678 1.31893 44 47 49
-3.18927 -4.02545 1.46136 21 18 19
-3.17610 -4.02305 1.44874 24 21 15
-3.18896 -4.02488 1.44834 24 16 11
-3.19971 -4.03692 1.46326 44 38 28
-3.21155 -4.04303 1.46389 69 57 42
-3.22414 -4.04429 1.45042 72 61 46
-3.28428 -4.01632 1.45344 95 81 59
-3.27150 -4.01451 1.45383 86 72 53
-3.27119 -4.01394 1.44089 84 70 52
-3.32403 -4.01520 1.45073 121 97 63
-3.31097 -4.01282 1.43820 110 91 63
-3.32372 -4.01464 1.43781 118 96 65
-3.33647 -4.01645 1.43743 122 100 67
-3.33915 -4.00590 1.44773 122 100 65
-3.35155 -4.00714 1.43447 125 102 72
-3.35343 -4.00020 1.44557 116 96 63
-3.36698 -3.99779 1.44420 104 84 50
-3.37991 -3.99828 1.44350 95 71 41
-3.39427 -3.99154 1.44112 90 65 35
-3.40684 -3.99362 1.44080 91 72 42
-3.42029 -3.99114 1.43941 91 80 49
-3.43322 -3.99349 1.45181 88 76 49
-3.43291 -3.99293 1.43903 92 82 44
-3.62664 -3.98565 1.42540 146 140 120
-3.63784 -3.99764 1.42736 145 149 123
-3.66128 -4.01478 1.42972 124 140 109
-3.66098 -4.01423 1.41698 137 144 122
-3.69518 -4.05566 1.43669 145 133 116
-3.70758 -4.05690 1.42344 138 122 95
-3.98539 -4.80792 1.58579 142 132 100
-3.97014 -4.80575 1.58626 125 116 92
-3.98576 -4.80859 1.60124 141 131 101
-4.00101 -4.81076 1.60077 137 127 92
-4.00026 -4.80941 1.56989 148 137 121
-4.00028 -4.83080 1.58995 145 133 102
-4.01560 -4.83297 1.58949 147 137 107
-4.01522 -4.83229 1.57397 148 138 113
-4.35569 -6.15186 1.86136 155 141 120
-4.33534 -6.14816 1.84185 159 145 118
-4.37542 -6.15232 1.86024 176 171 155
-4.39479 -6.15427 1.83953 205 210 207
-4.39505 -6.15115 1.85876 205 210 204
-4.41440 -6.15309 1.83806 208 211 211
-2.27786 -3.32811 1.35212 9 13 39
-2.33323 -3.31514 1.34588 150 144 145
-2.35806 -3.29417 1.33977 175 160 159
-2.36900 -3.29616 1.35024 206 172 149
-2.37243 -3.28974 1.33791 195 170 165
-2.38333 -3.29173 1.34837 209 172 149
-2.38643 -3.28582 1.33620 205 174 154
-2.39705 -3.28733 1.33587 212 173 149
-2.45745 -3.28260 1.33112 209 173 160
-2.44661 -3.28063 1.32073 210 175 156
-2.45719 -3.28213 1.32041 209 173 154
-2.46776 -3.28364 1.32009 209 174 150
-2.47039 -3.28008 1.32978 214 179 159
-2.48069 -3.28112 1.31876 208 173 151
-2.48199 -3.27980 1.32900 218 185 163
-2.49551 -3.27618 1.32738 220 192 178
-2.50631 -3.27814 1.33773 228 200 188
-2.50749 -3.27517 1.32642 223 198 185
-2.51828 -3.27713 1.33676 230 203 187
-2.51767 -3.27727 1.32625 228 200 187
-2.52845 -3.27924 1.33659 234 205 188
-2.52819 -3.27877 1.32593 230 203 191
-2.87181 -3.21260 1.29033 230 216 227
-2.88255 -3.21264 1.28968 212 200 222
-2.89409 -3.21085 1.28858 199 192 224
-2.89661 -3.22952 1.29251 201 199 236
-2.90704 -3.23036 1.29205 216 213 247
-2.91201 -3.24383 1.29469 212 210 236
-2.91185 -3.26952 1.30031 182 182 206
-2.91712 -3.28288 1.30291 148 143 166
-2.92711 -3.28519 1.30280 139 124 141
-2.94434 -3.29655 1.30422 136 118 107
-2.95447 -3.29757 1.29339 90 85 78
-2.95395 -3.29992 1.30437 129 111 102
-2.95655 -3.32068 1.30874 106 94 101
-2.96295 -3.36038 1.31702 58 52 65
-2.97328 -3.36141 1.30597 47 44 46
-2.97154 -3.36701 1.31795 48 45 54
-2.98189 -3.36805 1.30687 46 44 43
-3.19723 -4.04497 1.45222 42 37 20
-3.20918 -4.05074 1.45275 63 58 36
-3.22181 -4.05201 1.43925 72 63 32
-3.28375 -4.01668 1.44072 92 78 56
-3.27066 -4.01430 1.42817 83 68 50
-3.29706 -4.01614 1.43978 101 86 59
-3.30952 -4.01739 1.42646 108 88 62
-3.36591 -4.00092 1.43222 130 103 73
-3.35292 -3.99856 1.41977 126 102 73
-3.36560 -4.00036 1.41938 130 101 75
-3.37828 -4.00216 1.41899 129 101 71
-3.37896 -4.00090 1.43141 129 102 75
-3.39133 -4.00214 1.41819 129 105 65
-3.40676 -3.99191 1.42774 111 97 63
-3.42040 -3.98839 1.42613 103 87 50
-3.43375 -3.98618 1.42483 99 79 33
-3.44666 -3.98853 1.43720 94 81 47
-3.44635 -3.98797 1.42444 92 75 45
-3.61496 -3.97500 1.41124 147 143 132
-3.62711 -3.97622 1.39824 154 155 148
-3.62653 -3.98361 1.41241 159 160 144
-3.63779 -3.99509 1.41422 158 157 142
-3.64901 -4.00740 1.41622 141 144 120
-3.67251 -4.02503 1.41863 138 137 124
-3.68482 -4.02627 1.40547 133 122 96
-4.35678 -6.18251 1.84804 158 142 123
-4.33632 -6.17879 1.82842 159 144 119
-4.37561 -6.16394 1.84282 181 181 172
-4.39501 -6.16589 1.82207 203 209 211
-2.29910 -3.33095 1.34055 9 8 33
-2.30966 -3.33201 1.32925 22 14 29
-2.31483 -3.32476 1.33826 10 16 48
-2.32537 -3.32582 1.32699 9 9 34
-2.33210 -3.33477 1.33936 88 87 122
-2.34266 -3.33583 1.32806 20 20 58
-2.36673 -3.29802 1.32934 128 124 146
-2.39802 -3.28485 1.32461 188 165 152
-2.40890 -3.28683 1.33503 212 173 150
-2.40889 -3.28595 1.32418 201 173 153
-2.41950 -3.28746 1.32386 206 176 154
-2.49492 -3.27628 1.31685 209 177 158
-2.48413 -3.27432 1.30650 210 175 145
-2.49466 -3.27581 1.30618 209 173 149
-2.50520 -3.27731 1.30586 208 173 149
-2.53189 -3.27133 1.31353 222 193 182
-2.54265 -3.27328 1.32384 232 206 196
-2.54769 -3.26342 1.31087 228 200 191
-2.55841 -3.26537 1.32115 238 208 192
-2.56400 -3.25443 1.30794 234 203 192
-2.57468 -3.25638 1.31818 239 207 189
-2.57442 -3.25592 1.30762 236 206 193
-2.57417 -3.25545 1.29707 228 199 187
-2.86146 -3.21067 1.28039 227 212 202
-2.87738 -3.22317 1.28210 170 148 161
-2.88533 -3.22958 1.28300 144 125 150
-2.89054 -3.24231 1.28541 141 127 160
-2.89896 -3.24787 1.28610 152 140 172
-2.89923 -3.27241 1.29135 163 154 181
-2.90820 -3.27701 1.29179 157 150 165
-2.91671 -3.28279 1.29252 141 128 131
-2.92615 -3.28642 1.29272 137 120 117
-2.93658 -3.28769 1.29236 130 116 108
-2.94443 -3.29526 1.29351 111 101 95
-2.94755 -3.34189 1.30334 66 61 67
-2.95783 -3.34292 1.29234 45 45 54
-2.95483 -3.35153 1.30497 49 46 61
-2.96514 -3.35257 1.29394 47 46 53
-3.18350 -4.04446 1.43997 18 20 15
-3.17057 -4.04262 1.44036 26 22 15
-3.17025 -4.04205 1.42727 27 23 15
-3.18318 -4.04389 1.42687 18 22 22
-3.19424 -4.05506 1.44159 37 38 18
-3.20670 -4.05891 1.44166 62 56 26
-3.21936 -4.06018 1.42813 74 61 41
-3.29520 -4.02249 1.42843 98 82 57
-3.30768 -4.02374 1.41508 104 86 67
-3.41890 -3.99408 1.41478 126 109 71
-3.40595 -3.99173 1.40237 127 107 73
-3.41859 -3.99352 1.40198 128 110 75
-3.43302 -3.98790 1.41259 117 98 60
-3.46115 -3.97516 1.40813 101 77 29
-3.47400 -3.97750 1.42045 91 75 49
-3.47656 -3.96061 1.40406 94 76 36
-3.48935 -3.96294 1.41633 89 76 53
-3.48904 -3.96238 1.40368 89 75 36
-3.55753 -3.93157 1.39288 90 73 49
-3.54550 -3.93036 1.40575 89 76 44
-3.54519 -3.92982 1.39326 88 77 42
-3.55784 -3.93212 1.40538 90 77 48
-3.57018 -3.93387 1.40500 90 78 45
-3.58488 -3.91677 1.38803 105 95 74
-3.59361 -3.94351 1.39325 131 121 107
-3.61458 -3.97494 1.39872 153 154 144
-3.63749 -3.99445 1.40152 153 155 142
-3.64886 -4.00556 1.40321 150 148 128
-3.66096 -4.01123 1.40370 142 134 118
-3.67322 -4.01246 1.39058 136 122 97
-3.67262 -4.02088 1.40506 134 124 99
-3.68491 -4.02211 1.39192 137 123 98
-4.35786 -6.21301 1.83446 161 146 125
-4.33728 -6.20926 1.81474 158 145 117
-4.37772 -6.21159 1.83295 182 183 176
-4.39729 -6.21355 1.81201 204 208 210
-5.04248 -6.97354 1.95618 204 205 215
-5.02057 -6.97134 1.97960 201 205 211
-5.02002 -6.97035 1.95686 204 205 209
-5.01947 -6.96936 1.93412 208 208 211
-5.06548 -6.97772 1.97823 217 221 223
-5.06493 -6.97673 1.95549 221 228 230
-2.37604 -3.30085 1.31865 64 64 98
-2.36509 -3.29886 1.30815 10 11 27
-2.37578 -3.30038 1.30783 8 11 29
-2.38647 -3.30189 1.30750 9 15 45
-2.39300 -3.29215 1.31578 106 105 126
-2.40545 -3.29070 1.31472 144 137 139
-2.42068 -3.28462 1.31252 174 161 153
-2.43154 -3.28660 1.32294 211 175 155
-2.44260 -3.28644 1.31158 204 176 163
-2.45320 -3.28795 1.31125 207 176 153
-2.51953 -3.27217 1.30391 210 172 154
-2.50876 -3.27021 1.29358 212 177 148
-2.51928 -3.27170 1.29326 213 175 150
-2.52979 -3.27320 1.29294 213 176 149
-2.53250 -3.26933 1.30252 212 177 159
-2.54274 -3.27036 1.29157 208 176 147
-2.54646 -3.26468 1.30069 217 186 173
-2.56299 -3.25532 1.29771 223 191 181
-2.83416 -3.19885 1.26937 246 230 211
-2.82432 -3.19787 1.27990 247 230 216
-2.82407 -3.19742 1.26968 246 227 211
-2.83441 -3.19930 1.27959 249 231 216
-2.84163 -3.20595 1.27042 237 224 207
-2.85111 -3.20876 1.27044 219 205 193
-2.86950 -3.21571 1.27080 165 145 138
-2.87938 -3.21670 1.26023 135 114 95
-2.87805 -3.22068 1.27133 142 121 110
-2.88795 -3.22167 1.26075 134 113 93
-2.88287 -3.23412 1.27388 129 108 97
-2.89281 -3.23511 1.26325 134 114 96
-2.88826 -3.24646 1.27616 123 104 97
-2.89824 -3.24746 1.26549 136 116 101
-2.89409 -3.25801 1.27825 125 106 104
-2.90411 -3.25901 1.26754 136 117 109
-2.90040 -3.26864 1.28012 133 114 122
-2.90830 -3.27574 1.28114 137 119 124
-2.92684 -3.28370 1.28170 122 107 102
-2.93719 -3.33883 1.29273 60 54 61
-2.94747 -3.33986 1.28174 49 46 48
-2.94846 -3.33851 1.29198 50 46 51
-2.95874 -3.33954 1.28099 47 47 49
-3.19234 -4.06076 1.42988 34 34 30
-3.17903 -4.05834 1.41713 25 20 18
-3.20529 -4.06277 1.42952 60 53 36
-3.21796 -4.06404 1.41598 74 58 40
-3.27984 -4.02995 1.41808 86 72 48
-3.26669 -4.02756 1.40547 79 65 47
-3.27952 -4.02938 1.40508 83 70 47
-3.29448 -4.02372 1.41587 94 80 60
-3.43171 -3.99271 1.40102 133 113 77
-3.41877 -3.99036 1.38862 126 107 83
-3.43140 -3.99215 1.38824 128 107 81
-3.44402 -3.99395 1.38785 129 108 87
-3.44601 -3.98530 1.39859 136 114 86
-3.45830 -3.98654 1.38546 131 112 86
-3.49049 -3.95163 1.38878 105 83 53
-3.50324 -3.95395 1.40100 90 74 49
-3.50541 -3.93866 1.38514 103 78 51
-3.51811 -3.94097 1.39731 91 73 45
-3.51762 -3.94154 1.38501 101 74 49
-3.53032 -3.94385 1.39718 88 76 45
-3.53002 -3.94330 1.38463 90 73 44
-3.54462 -3.93101 1.38115 85 75 39
-3.56904 -3.93633 1.38079 130 133 107
-3.60330 -3.96188 1.38412 148 148 147
-3.62667 -3.97674 1.38585 151 152 149
-3.63759 -3.99069 1.38814 146 143 137
-3.64979 -3.99191 1.37508 132 122 98
-3.66085 -4.00898 1.39060 134 121 106
-3.67311 -4.01021 1.37749 137 124 97
-4.35885 -6.24176 1.82030 161 147 130
-4.33816 -6.23800 1.80047 159 142 116
-4.37854 -6.24374 1.79924 193 195 186
-4.37923 -6.24827 1.82044 182 179 175
-4.39894 -6.25025 1.79937 215 222 225
-5.06384 -6.97222 1.93204 218 223 225
-5.04084 -6.96804 1.91000 207 215 216
-5.06328 -6.97123 1.90932 214 216 219
-5.08628 -6.97541 1.93136 219 218 221
-5.08573 -6.97441 1.90863 216 217 221
-2.40419 -3.31096 1.30832 89 85 112
-2.44344 -3.28414 1.30039 166 151 154
-2.45431 -3.28517 1.29996 189 170 154
-2.46517 -3.28714 1.31036 212 176 143
-2.46843 -3.28068 1.29818 206 178 146
-2.47900 -3.28218 1.29785 210 178 146
-2.56292 -3.25452 1.28707 210 177 153
-2.55224 -3.25258 1.27683 213 178 147
-2.56267 -3.25406 1.27651 211 179 149
-2.57310 -3.25554 1.27619 208 177 153
-2.64062 -3.21446 1.27409 235 208 195
-2.63063 -3.21346 1.28477 238 212 200
-2.63037 -3.21300 1.27440 232 202 188
-2.64087 -3.21491 1.28446 240 214 201
-2.65112 -3.21637 1.28415 241 215 197
-2.81904 -3.18441 1.25714 243 223 208
-2.80924 -3.18343 1.26762 244 223 213
-2.80899 -3.18298 1.25745 243 222 209
-2.81929 -3.18485 1.26732 245 224 211
-2.82726 -3.18971 1.25775 238 219 202
-2.83498 -3.19613 1.25862 225 207 193
-2.84179 -3.20461 1.25997 201 185 179
-2.84583 -3.21923 1.26277 175 159 153
-2.85628 -3.22003 1.26231 156 135 124
-2.86619 -3.22102 1.25171 140 118 101
-2.86741 -3.21933 1.26149 142 119 106
-2.87731 -3.22032 1.25091 138 117 101
-2.90821 -3.27489 1.27059 129 112 104
-2.91619 -3.28188 1.27157 107 98 91
-2.92084 -3.29693 1.27441 81 75 75
-2.92237 -3.31970 1.27905 60 52 68
-2.93260 -3.32073 1.26812 47 39 55
-2.93040 -3.32716 1.28012 52 44 63
-2.94064 -3.32818 1.26917 49 43 49
-3.19037 -4.06674 1.41819 36 32 25
-3.17704 -4.06431 1.40541 24 19 13
-3.20298 -4.07020 1.41815 58 50 31
-3.21568 -4.07148 1.40457 77 61 37
-3.29306 -4.02808 1.40400 89 77 54
-3.27992 -4.02569 1.39140 78 65 45
-3.30695 -4.02504 1.40253 99 84 64
-3.32007 -4.02743 1.41511 113 94 69
-3.48887 -3.95873 1.37784 135 116 88
-3.47609 -3.95641 1.36559 129 109 77
-3.48856 -3.95818 1.36521 132 111 84
-3.50104 -3.95995 1.36483 138 114 84
-3.50341 -3.94820 1.37478 133 112 80
-3.51644 -3.94634 1.37362 123 103 70
-3.53196 -3.92874 1.36903 103 77 40
-3.54401 -3.92994 1.35615 84 63 33
-3.54499 -3.92615 1.36771 79 66 33
-3.55815 -3.92249 1.36616 115 102 85
-3.56828 -3.93884 1.36895 142 146 133
-3.58034 -3.94005 1.35605 151 150 149
-3.58018 -3.94379 1.36926 145 145 139
-3.59218 -3.94815 1.36945 151 147 150
-3.61478 -3.96785 1.37219 148 148 145
-3.62593 -3.97946 1.37393 144 136 124
-3.63811 -3.98068 1.36091 136 123 93
-3.63690 -3.99311 1.37611 139 125 108
-3.64912 -3.99433 1.36304 135 124 94
-4.36002 -6.27435 1.80671 165 151 129
-4.37983 -6.27634 1.78553 204 207 207
-2.41923 -3.28522 1.29141 22 19 39
-2.40835 -3.28324 1.28098 34 28 42
-2.42691 -3.29159 1.29225 44 31 55
-2.42506 -3.31403 1.29694 96 89 100
-2.44996 -3.29160 1.29088 134 130 133
-2.47038 -3.27647 1.28658 163 155 145
-2.48217 -3.27584 1.28575 184 167 148
-2.49298 -3.27781 1.29611 211 177 148
-2.49487 -3.27364 1.28454 200 174 155
-2.50802 -3.27058 1.28314 207 179 163
-2.51854 -3.27208 1.28282 211 177 158
-2.62229 -3.22698 1.26744 218 184 169
-2.61224 -3.22598 1.27818 227 195 180
-2.61174 -3.22506 1.25732 210 176 153
-2.62204 -3.22653 1.25700 209 176 154
-2.63859 -3.21731 1.26449 222 192 183
-2.65070 -3.21530 1.26336 228 201 191
-2.66526 -3.20861 1.26113 234 208 196
-2.67573 -3.21051 1.27116 243 216 200
-2.81170 -3.17640 1.24584 240 220 208
-2.80192 -3.17542 1.25630 243 222 211
-2.80168 -3.17497 1.24615 243 223 210
-2.81934 -3.18281 1.24670 229 210 199
-2.82942 -3.18416 1.24637 211 191 180
-2.83989 -3.20772 1.25056 158 141 136
-2.84976 -3.20871 1.24000 141 122 101
-2.84678 -3.21617 1.25188 145 126 116
-2.85668 -3.21716 1.24129 142 122 97
-2.85527 -3.22124 1.25241 142 121 102
-2.86519 -3.22223 1.24181 141 121 101
-2.89342 -3.25748 1.25754 131 116 104
-2.88315 -3.25602 1.25785 138 118 101
-2.89967 -3.26825 1.25936 116 107 100
-2.90452 -3.28245 1.26198 95 90 80
-2.90578 -3.30538 1.26658 65 67 64
-2.91596 -3.30640 1.25570 43 42 50
-2.91223 -3.31634 1.26844 51 49 53
-2.92245 -3.31736 1.25751 44 41 49
-2.92190 -3.31977 1.26856 45 39 50
-2.93212 -3.32079 1.25763 45 42 54
-3.18606 -4.08203 1.40849 33 28 19
-3.17267 -4.07960 1.39565 23 20 16
-3.20037 -4.07891 1.40700 59 52 24
-3.21310 -4.08018 1.39339 74 62 40
-3.29108 -4.03489 1.39262 78 67 46
-3.27792 -4.03250 1.38000 75 60 43
-3.30544 -4.02987 1.39074 84 75 53
-3.32062 -4.02089 1.38800 96 86 59
-3.51686 -3.94139 1.36010 135 116 78
-3.50415 -3.93908 1.34792 133 107 87
-3.51655 -3.94084 1.34754 130 110 80
-3.53206 -3.92570 1.35599 128 105 57
-3.54409 -3.92691 1.34312 88 64 43
-3.55680 -3.92880 1.35515 113 103 103
-3.56894 -3.93185 1.35505 148 151 147
-3.59280 -3.94110 1.35552 154 151 149
-3.60322 -3.95694 1.35814 148 145 145
-3.61353 -3.97430 1.36107 141 132 112
-3.62569 -3.97552 1.34806 133 125 91
-3.62503 -3.98344 1.36225 136 124 95
-3.63722 -3.98466 1.34922 136 125 92
-3.83283 -4.50174 1.45572 136 132 93
-3.81894 -4.50035 1.47058 143 131 99
-3.81859 -4.49972 1.45615 141 132 96
-3.83318 -4.50237 1.47014 142 132 99
-3.84743 -4.50439 1.46971 141 131 102
-3.84673 -4.50313 1.44086 116 109 92
-4.33969 -6.28069 1.78881 159 137 117
-4.31984 -6.27870 1.81003 160 145 117
-4.31934 -6.27780 1.78943 161 143 113
-4.31884 -6.27690 1.76882 161 146 108
-4.36061 -6.29514 1.79051 175 162 152
-4.38049 -6.29714 1.76925 199 202 204
-5.03438 -6.92775 1.87961 198 206 209
-5.01262 -6.92557 1.90287 210 210 212
-5.01207 -6.92458 1.88029 209 209 207
-5.03383 -6.92677 1.85702 194 199 202
-5.40325 -6.83069 1.83785 204 206 222
-5.38148 -6.82760 1.83851 217 223 227
-5.40378 -6.83165 1.85989 212 216 220
-5.42555 -6.83474 1.85923 205 208 215
-5.42502 -6.83378 1.83718 204 208 216
-2.41592 -3.28978 1.28185 45 37 41
-2.42412 -3.29533 1.28248 57 48 52
-2.43035 -3.30424 1.28390 65 70 75
-2.43135 -3.32208 1.28742 73 81 94
-2.44621 -3.31660 1.28544 89 89 108
-2.48481 -3.27042 1.27390 113 107 123
-2.49812 -3.26712 1.27245 136 131 136
-2.50980 -3.26658 1.27166 160 151 154
-2.52180 -3.26546 1.27073 184 166 161
-2.53254 -3.26742 1.28103 213 177 150
-2.53810 -3.25671 1.26801 202 178 156
-2.54855 -3.25820 1.26769 210 181 155
-2.63493 -3.22318 1.25557 209 176 161
-2.62439 -3.22126 1.24547 213 178 150
-2.63468 -3.22273 1.24516 210 177 154
-2.64496 -3.22419 1.24485 209 175 158
-2.64937 -3.21686 1.25345 213 181 171
-2.66396 -3.21015 1.25125 219 192 181
-2.67736 -3.20556 1.24954 224 199 187
-2.69210 -3.19831 1.24721 231 207 195
-2.70251 -3.20020 1.25720 240 220 204
-2.70797 -3.18873 1.24436 236 214 198
-2.71835 -3.19062 1.25430 243 221 207
-2.72114 -3.18424 1.24268 238 217 204
-2.73149 -3.18612 1.25260 244 221 205
-2.73124 -3.18567 1.24237 240 218 210
-2.79304 -3.16976 1.23554 243 225 204
-2.78327 -3.16879 1.24598 246 223 206
-2.78303 -3.16834 1.23584 247 225 208
-2.79328 -3.17021 1.24567 244 224 208
-2.80562 -3.16589 1.23402 234 218 199
-2.81161 -3.17563 1.23562 217 201 192
-2.82035 -3.17975 1.23593 190 170 170
-2.82716 -3.18798 1.23718 168 147 144
-2.83697 -3.18896 1.22668 143 122 110
-2.82976 -3.20532 1.24050 151 133 123
-2.83963 -3.20631 1.22995 144 123 105
-2.83782 -3.21118 1.24120 142 124 110
-2.84771 -3.21217 1.23063 143 124 102
-2.87832 -3.24129 1.24485 135 118 103
-2.86810 -3.23984 1.24516 139 120 103
-2.87858 -3.24174 1.25521 137 117 99
-2.88509 -3.25059 1.24632 126 109 98
-2.89208 -3.28476 1.25276 75 73 75
-2.90220 -3.28578 1.24194 44 40 52
-2.89777 -3.29715 1.25491 56 53 60
-2.90793 -3.29817 1.24405 41 41 54
-2.90505 -3.30602 1.25626 44 45 52
-2.91524 -3.30704 1.24537 41 43 55
-3.18281 -4.09309 1.39776 36 23 18
-3.16937 -4.09065 1.38488 19 18 18
-3.19626 -4.09362 1.39707 58 49 26
-3.20904 -4.09490 1.38340 75 61 41
-3.28811 -4.04613 1.38213 64 49 42
-3.27490 -4.04373 1.36947 77 58 38
-3.28779 -4.04556 1.36908 63 49 34
-3.30069 -4.04739 1.36868 55 43 36
-3.30159 -4.04530 1.38117 60 49 50
-3.33322 -4.02152 1.37454 95 82 59
-3.34495 -4.02833 1.37521 107 93 63
-3.35807 -4.03071 1.38778 123 103 69
-3.35623 -4.03757 1.37640 117 102 70
-3.36937 -4.03996 1.38900 126 105 69
-3.36905 -4.03939 1.37601 125 106 72
-3.52983 -3.93717 1.34602 122 107 68
-3.51714 -3.93486 1.33386 129 108 81
-3.55484 -3.93903 1.34492 113 107 114
-3.56874 -3.93059 1.34241 151 156 155
-3.57996 -3.94002 1.34364 150 151 147
-3.59092 -3.95165 1.34533 143 138 119
-3.60302 -3.95286 1.33239 134 125 100
-3.60174 -3.96486 1.34734 138 130 110
-3.61388 -3.96607 1.33436 132 126 96
-3.61251 -3.97904 1.34955 134 124 99
-3.62469 -3.98026 1.33652 134 126 89
-3.81862 -4.49322 1.44053 135 131 88
-3.80475 -4.49183 1.45537 143 131 97
-3.80440 -4.49120 1.44097 140 132 93
-3.83249 -4.49461 1.42570 122 104 85
-3.83224 -4.50511 1.44211 125 121 86
-3.84614 -4.50651 1.42724 122 108 97
-4.34032 -6.30427 1.77305 160 143 112
-4.31938 -6.30047 1.75298 161 146 109
-4.36407 -6.37391 1.78562 175 168 154
-4.38423 -6.37593 1.76406 204 208 206
-5.37618 -6.80374 1.81216 210 215 223
-5.35449 -6.80066 1.81282 209 215 217
-5.35395 -6.79970 1.79085 212 219 218
-5.39761 -6.80561 1.81127 195 197 213
-5.41877 -6.80773 1.78865 197 195 206
-5.42034 -6.81353 1.81151 199 201 211
-5.44257 -6.81757 1.83283 209 213 219
-5.44204 -6.81661 1.81085 207 214 221
-5.44151 -6.81565 1.78887 204 211 216
-2.42225 -3.29753 1.27231 42 30 48
-2.43281 -3.29921 1.27203 42 34 52
-2.45251 -3.28549 1.26817 49 46 57
-2.45983 -3.29256 1.26914 45 45 59
-2.47019 -3.29360 1.25806 15 15 29
-2.48070 -3.27654 1.26476 37 38 73
-2.49099 -3.27757 1.25375 19 18 35
-2.50270 -3.25832 1.25989 39 42 78
-2.50250 -3.27833 1.26384 64 63 91
-2.53121 -3.24809 1.25621 99 100 125
-2.54729 -3.23962 1.25360 136 133 138
-2.55216 -3.25089 1.25553 170 157 154
-2.56284 -3.25283 1.26577 210 181 152
-2.56906 -3.24080 1.25256 192 173 159
-2.57970 -3.24273 1.26275 210 180 148
-2.58451 -3.23315 1.25015 203 182 157
-2.59511 -3.23508 1.26031 211 179 151
-2.59485 -3.23462 1.24983 211 182 155
-2.66128 -3.21427 1.24194 207 174 161
-2.65079 -3.21236 1.23188 211 179 156
-2.66103 -3.21381 1.23157 210 178 158
-2.67127 -3.21527 1.23126 209 176 155
-2.67495 -3.20921 1.24014 209 177 166
-2.68491 -3.21020 1.22949 209 175 154
-2.70610 -3.19142 1.23482 223 197 177
-2.72208 -3.18148 1.23193 227 203 186
-2.74862 -3.17179 1.22846 238 215 211
-2.75891 -3.17366 1.23833 244 225 209
-2.76108 -3.16840 1.22707 240 221 211
-2.77135 -3.17027 1.23692 246 225 208
-2.77110 -3.16982 1.22676 242 223 211
-2.78380 -3.16584 1.22524 240 222 210
-2.79437 -3.16609 1.22467 224 209 199
-2.80621 -3.16373 1.22351 200 185 179
-2.80956 -3.17894 1.22631 174 158 155
-2.81605 -3.18779 1.22768 152 132 132
-2.82587 -3.18878 1.21718 141 121 109
-2.85951 -3.23376 1.23419 141 122 100
-2.84930 -3.23231 1.23450 143 124 99
-2.86793 -3.23921 1.23477 131 115 100
-2.87569 -3.24619 1.23569 115 100 90
-2.87824 -3.26511 1.23927 90 76 74
-2.88888 -3.29111 1.24377 49 46 55
-2.89902 -3.29212 1.23292 43 42 53
-3.17938 -4.10485 1.38709 31 19 25
-3.16590 -4.10240 1.37417 26 17 11
-3.19077 -4.11385 1.38820 56 45 30
-3.31289 -4.05237 1.36895 58 45 43
-3.29967 -4.04997 1.35628 55 44 28
-3.31258 -4.05180 1.35588 58 46 31
-3.32548 -4.05364 1.35549 61 47 35
-3.32563 -4.05501 1.36873 63 49 53
-3.34028 -4.04855 1.36660 76 64 62
-3.38112 -4.04290 1.36310 115 103 68
-3.39427 -4.04530 1.37571 127 105 71
-3.39395 -4.04473 1.36271 121 105 67
-3.52647 -3.95560 1.33740 124 103 71
-3.51371 -3.95328 1.32518 129 107 82
-3.53861 -3.95682 1.32442 67 43 51
-3.54013 -3.94965 1.33543 75 56 44
-3.55257 -3.95132 1.33503 114 114 108
-3.56723 -3.93813 1.33158 144 154 150
-3.57754 -3.95396 1.33410 138 136 121
-3.58965 -3.95518 1.32114 132 123 100
-3.58845 -3.96630 1.33589 134 124 108
-3.60061 -3.96752 1.32289 135 124 95
-3.80472 -4.48075 1.42459 134 125 92
-3.79088 -4.47936 1.43939 143 130 97
-3.79054 -4.47873 1.42502 140 128 100
-3.81856 -4.48213 1.40979 119 107 89
-3.81858 -4.48776 1.42516 127 113 85
-4.34050 -6.31819 1.75524 160 148 115
-4.31951 -6.31438 1.73512 160 144 109
-4.36498 -6.40163 1.77025 181 180 163
-5.37021 -6.77666 1.78536 207 211 217
-5.36968 -6.77570 1.76349 206 211 215
-5.39260 -6.78349 1.78540 196 197 214
-2.44545 -3.29647 1.26005 26 21 37
-2.45584 -3.29751 1.24894 17 18 27
-2.51731 -3.25174 1.24723 19 17 35
-2.50660 -3.24979 1.23697 34 25 37
-2.51705 -3.25128 1.23665 36 29 32
-2.52750 -3.25276 1.23633 37 34 37
-2.52351 -3.26064 1.24859 19 22 47
-2.55767 -3.24019 1.24266 76 77 119
-2.57644 -3.22671 1.23897 119 121 142
-2.58679 -3.22812 1.23864 154 148 148
-2.60930 -3.22768 1.23725 201 178 161
-2.61962 -3.22914 1.23693 211 179 161
-2.70437 -3.19383 1.22519 210 179 156
-2.69398 -3.19194 1.21523 212 178 152
-2.70412 -3.19338 1.21492 212 178 152
-2.71427 -3.19482 1.21461 210 176 155
-2.73424 -3.17793 1.22039 220 188 176
-2.74977 -3.16858 1.21768 225 197 186
-2.77232 -3.16645 1.21596 227 207 197
-2.78866 -3.17682 1.21702 184 166 163
-2.79600 -3.18381 1.21795 159 137 137
-2.80581 -3.18480 1.20745 140 120 99
-2.80603 -3.18530 1.21765 145 124 119
-2.81585 -3.18629 1.20716 141 122 101
-2.81299 -3.19323 1.21878 139 120 112
-2.82283 -3.19422 1.20826 141 123 102
-2.84836 -3.23338 1.22450 137 121 101
-2.83814 -3.23193 1.22481 141 125 106
-2.85662 -3.23914 1.22514 124 108 95
-2.86590 -3.24271 1.22529 100 89 88
-2.86992 -3.25815 1.22804 71 65 66
-2.87996 -3.25915 1.21730 44 41 49
-2.88459 -3.27460 1.23037 44 40 53
-2.89468 -3.27561 1.21958 42 44 51
-3.17597 -4.11650 1.37631 33 15 21
-3.16244 -4.11404 1.36334 22 20 14
-3.18762 -4.12465 1.37721 55 43 30
-3.20056 -4.12771 1.37706 75 60 47
-3.21412 -4.13018 1.39005 80 60 45
-3.21379 -4.12959 1.37665 81 61 49
-3.21347 -4.12901 1.36325 75 61 48
-3.28423 -4.05940 1.35900 62 49 34
-3.27097 -4.05699 1.34628 79 63 43
-3.33760 -4.05923 1.35587 63 49 46
-3.33728 -4.05866 1.34279 66 53 42
-3.35020 -4.06049 1.34239 66 54 40
-3.34996 -4.06377 1.35603 64 51 49
-3.36257 -4.06503 1.34255 68 56 40
-3.36546 -4.05290 1.35303 72 59 49
-3.37971 -4.04783 1.35122 89 78 54
-3.39225 -4.05127 1.35116 103 94 62
-3.40543 -4.05367 1.36380 125 105 73
-3.40666 -4.04500 1.34912 112 102 68
-3.41981 -4.04739 1.36172 127 106 71
-3.42058 -4.04105 1.34755 120 106 68
-3.43370 -4.04344 1.36013 128 106 77
-3.43339 -4.04287 1.34716 125 107 80
-3.52481 -3.96345 1.32650 125 98 79
-3.51202 -3.96112 1.31424 131 106 85
-3.53698 -3.96467 1.31348 65 47 43
-3.55045 -3.96259 1.32485 107 103 81
-3.56443 -3.95423 1.32242 131 133 117
-3.57655 -3.95545 1.30946 134 124 95
-3.57581 -3.96314 1.32348 128 123 105
-3.58796 -3.96436 1.31049 135 124 98
-3.79121 -4.46402 1.40787 137 125 107
-3.77742 -4.46264 1.42262 144 130 102
-3.77707 -4.46201 1.40830 141 130 108
-3.80499 -4.46540 1.39313 118 111 101
-3.80437 -4.48011 1.41022 125 114 96
-3.81821 -4.48150 1.39542 116 111 98
-4.34003 -6.31798 1.73463 159 147 119
-4.31904 -6.31417 1.71451 156 138 107
-4.36457 -6.40277 1.74960 186 188 176
-4.38293 -6.36020 1.74031 208 213 213
-4.40406 -6.36404 1.76056 210 213 216
-4.40355 -6.36313 1.73968 207 210 214
-4.40304 -6.36221 1.71880 201 205 213
-5.22997 -6.70347 1.75762 199 208 211
-5.20855 -6.70043 1.75827 199 199 204
-5.20803 -6.69949 1.73658 199 198 200
-5.23049 -6.70442 1.77930 210 214 215
-5.25138 -6.70652 1.75696 210 217 220
-5.38729 -6.75991 1.75941 207 211 219
-5.36522 -6.75589 1.73826 204 210 212
-5.38676 -6.75895 1.73761 208 213 218
-5.40972 -6.76715 1.75951 203 200 211
-5.43127 -6.77021 1.75886 205 209 214
-5.43074 -6.76926 1.73704 209 217 220
-2.54094 -3.24897 1.23484 30 28 47
-2.53026 -3.24703 1.22460 30 30 33
-2.54069 -3.24851 1.22428 32 28 36
-2.55111 -3.24999 1.22397 37 31 42
-2.56913 -3.23885 1.23130 31 32 70
-2.58374 -3.23271 1.22930 60 55 87
-2.61991 -3.22768 1.22627 178 160 162
-2.63047 -3.22960 1.23639 211 180 158
-2.74531 -3.17646 1.20934 212 179 157
-2.73500 -3.17458 1.19946 212 178 150
-2.74507 -3.17601 1.19915 212 178 155
-2.75962 -3.16944 1.20719 216 185 164
-2.77470 -3.18237 1.20878 173 155 140
-2.79471 -3.18552 1.20822 140 118 98
-2.80453 -3.18650 1.19772 141 123 100
-2.83820 -3.23082 1.21433 129 117 96
-2.82824 -3.22982 1.22498 143 124 104
-2.82798 -3.22937 1.21464 137 123 100
-2.84469 -3.24040 1.21577 111 100 80
-2.85344 -3.24515 1.21617 86 75 68
-2.86104 -3.25252 1.21713 63 55 61
-2.87107 -3.25352 1.20641 48 42 46
-3.17225 -4.12938 1.36569 33 18 22
-3.15867 -4.12691 1.35267 31 19 24
-3.18342 -4.13969 1.36701 56 43 30
-3.19622 -4.14354 1.36700 72 59 45
-3.20919 -4.14484 1.35313 75 60 49
-3.28156 -4.06926 1.34800 76 59 39
-3.26826 -4.06684 1.33525 79 63 47
-3.28124 -4.06869 1.33485 82 64 60
-3.29423 -4.07053 1.33446 84 69 56
-3.29514 -4.06844 1.34706 74 54 38
-3.30779 -4.06970 1.33353 88 73 48
-3.32165 -4.06947 1.34574 66 50 40
-3.37990 -4.04471 1.33769 77 62 46
-3.39243 -4.04597 1.32429 80 66 47
-3.40425 -4.05540 1.33832 83 71 55
-3.41855 -4.04960 1.33640 99 87 69
-3.43226 -4.04673 1.33507 117 100 83
-3.44540 -4.04912 1.34767 128 106 82
-3.44509 -4.04855 1.33468 125 107 76
-3.52340 -3.96974 1.31522 127 100 83
-3.51059 -3.96741 1.30294 129 107 84
-3.54865 -3.97175 1.31415 100 94 64
-3.56222 -3.96637 1.31235 131 125 97
-3.57439 -3.96759 1.29934 136 125 96
-3.77812 -4.44302 1.39042 139 129 101
-3.76440 -4.44164 1.40510 140 131 104
-3.76405 -4.44102 1.39085 141 130 99
-3.79184 -4.44440 1.37575 123 117 98
-4.33989 -6.32507 1.71538 154 137 123
-4.36376 -6.39570 1.72742 181 181 180
-4.38385 -6.38616 1.72445 201 208 215
-4.40405 -6.38819 1.70285 201 207 213
-5.40819 -6.76154 1.73687 210 212 220
-5.38613 -6.75753 1.71572 204 201 206
-5.55370 -6.76103 1.72841 200 199 207
-5.53277 -6.75893 1.75079 212 221 222
-5.53224 -6.75798 1.72907 212 215 214
-5.57569 -6.76503 1.74949 201 203 212
-5.57516 -6.76408 1.72776 195 197 210
-2.61131 -3.22216 1.21536 57 53 95
-2.64834 -3.21508 1.21193 162 159 150
-2.69286 -3.19314 1.20531 208 182 158
-2.70301 -3.19458 1.20500 210 180 157
-2.75624 -3.17523 1.19837 212 178 155
-2.74594 -3.17335 1.18849 213 181 162
-2.75599 -3.17478 1.18818 214 181 156
-2.76453 -3.18020 1.19882 197 167 136
-2.77574 -3.17932 1.19802 162 141 109
-2.78622 -3.17989 1.19753 142 122 100
-2.79604 -3.18087 1.18704 140 122 109
-2.82218 -3.21755 1.20250 134 120 101
-2.81200 -3.21611 1.20281 141 124 98
-2.81175 -3.21566 1.19250 127 111 93
-2.82243 -3.21800 1.21280 141 123 103
-2.82673 -3.23108 1.20476 115 109 90
-2.83253 -3.24210 1.20648 94 89 72
-2.83916 -3.25150 1.20785 74 65 56
-2.84919 -3.25250 1.19712 45 39 50
-2.84986 -3.25204 1.20734 55 46 47
-2.85989 -3.25305 1.19662 46 40 46
-2.85926 -3.25546 1.20744 48 40 45
-2.86930 -3.25646 1.19671 46 41 47
-3.16814 -4.14380 1.35528 40 18 24
-3.15450 -4.14132 1.34220 29 18 17
-3.18013 -4.15102 1.35594 60 47 29
-3.19313 -4.15233 1.34203 75 64 44
-3.19331 -4.15352 1.35565 74 62 45
-3.20632 -4.15483 1.34175 80 62 44
-3.31988 -4.07568 1.33395 88 73 46
-3.30657 -4.07326 1.32120 86 74 46
-3.31956 -4.07511 1.32080 95 83 45
-3.36258 -4.06285 1.32914 81 56 47
-3.37821 -4.05104 1.32605 81 62 48
-3.41770 -4.05188 1.32395 88 66 58
-3.42947 -4.05963 1.32473 110 87 65
-3.44418 -4.05130 1.32234 126 106 64
-3.45733 -4.05369 1.33495 127 106 76
-3.45702 -4.05313 1.32195 129 107 71
-3.45670 -4.05256 1.30895 129 106 67
-3.52101 -3.98208 1.30508 128 103 73
-3.50815 -3.97975 1.29275 128 106 83
-3.53326 -3.98331 1.29198 68 55 22
-3.53619 -3.96722 1.30145 73 46 24
-3.54565 -3.98869 1.30491 96 90 55
-3.55975 -3.98022 1.30252 133 126 94
-3.57197 -3.98144 1.28946 133 125 94
-3.75114 -4.42039 1.37359 135 127 91
-3.73748 -4.41902 1.38820 140 129 93
-3.73714 -4.41840 1.37402 140 128 97
-3.75149 -4.42101 1.38777 140 130 92
-3.76414 -4.43496 1.37557 126 123 88
-3.77743 -4.44690 1.37703 123 120 90
-4.31763 -6.29187 1.68983 146 127 119
-4.29772 -6.28987 1.71112 160 145 112
-4.29722 -6.28897 1.69045 162 143 112
-4.33921 -6.32029 1.69389 147 135 153
-4.36268 -6.38318 1.70427 181 187 199
-4.38288 -6.38521 1.68266 204 213 214
-4.38377 -6.39325 1.70494 203 214 218
-4.40400 -6.39528 1.68331 204 210 210
-5.40533 -6.74973 1.71317 212 218 222
-5.40480 -6.74878 1.69141 215 220 226
-5.42641 -6.75085 1.71218 206 214 216
-5.44842 -6.75485 1.73329 207 207 210
-5.44789 -6.75390 1.71153 207 208 214
-5.44737 -6.75295 1.68977 201 208 214
-5.53689 -6.69171 1.69488 200 194 201
-5.51515 -6.68776 1.67404 203 208 214
-5.53637 -6.69077 1.67339 211 209 212
-5.55759 -6.69379 1.67274 213 211 211
-2.60811 -3.22708 1.20608 45 32 51
-2.59754 -3.22516 1.19594 51 42 42
-2.60786 -3.22662 1.19563 56 46 45
-2.61818 -3.22809 1.19531 54 49 52
-2.62134 -3.22321 1.20462 43 48 62
-2.64345 -3.22329 1.20339 76 90 121
-2.65362 -3.22498 1.20313 109 111 137
-2.70424 -3.19130 1.19412 187 170 161
-2.71463 -3.19319 1.20408 212 179 155
-2.71618 -3.18923 1.19307 204 178 164
-2.72631 -3.19067 1.19276 211 182 160
-2.76389 -3.18054 1.18879 205 175 137
-2.77401 -3.18187 1.18846 172 148 111
-2.78417 -3.18313 1.18812 146 126 104
-2.80686 -3.20316 1.19050 135 119 96
-2.79673 -3.20172 1.19081 139 122 103
-2.80711 -3.20361 1.20076 141 123 96
-2.81711 -3.22736 1.19434 105 97 87
-2.82016 -3.24419 1.19724 76 79 70
-2.82808 -3.25074 1.19799 56 57 56
-2.83812 -3.25175 1.18725 43 41 47
-2.83853 -3.25185 1.19760 49 43 52
-2.84857 -3.25286 1.18687 43 41 46
-3.16546 -4.15256 1.34364 41 19 21
-3.15178 -4.15008 1.33053 28 20 14
-3.17729 -4.16055 1.34443 61 48 29
-3.33098 -4.08442 1.32186 104 88 51
-3.31764 -4.08200 1.30907 91 80 43
-3.34368 -4.08570 1.30828 107 91 62
-3.34535 -4.07973 1.32019 107 87 57
-3.36171 -4.06501 1.31658 101 81 58
-3.39142 -4.04896 1.31197 92 72 47
-3.40397 -4.05022 1.29856 109 77 58
-3.40276 -4.05872 1.31312 89 61 40
-3.41620 -4.05765 1.31216 91 61 38
-3.42844 -4.06294 1.31244 104 88 55
-3.44272 -4.05704 1.31055 126 107 60
-3.45527 -4.05830 1.29714 129 107 68
-3.51867 -3.99414 1.29478 128 104 68
-3.50576 -3.99179 1.28241 129 107 74
-3.54258 -4.00609 1.29562 90 88 56
-3.55828 -3.98743 1.29132 128 125 94
-3.57053 -3.98865 1.27823 135 126 93
-3.73850 -4.39827 1.35618 137 127 95
-3.72491 -4.39691 1.37071 142 129 100
-3.72456 -4.39629 1.35660 140 129 98
-3.75103 -4.41698 1.35889 124 117 89
-3.76468 -4.41835 1.34429 113 96 76
-3.76394 -4.43253 1.36100 103 103 88
-3.77688 -4.44896 1.36327 100 101 91
-3.79063 -4.45033 1.34857 125 119 91
-3.78981 -4.46704 1.36584 119 116 102
-3.80396 -4.46905 1.36541 130 128 108
-3.80361 -4.46842 1.35108 132 120 92
-4.27339 -6.20232 1.65544 154 140 113
-4.25377 -6.20035 1.67642 158 140 111
-4.25327 -6.19946 1.65605 154 137 112
-4.27388 -6.20321 1.67581 160 142 114
-4.29567 -6.26114 1.66493 154 138 104
-4.31524 -6.24646 1.66114 127 110 100
-4.33909 -6.32769 1.67463 137 136 146
-4.36232 -6.38532 1.68384 183 194 202
-5.42300 -6.73669 1.68817 201 206 210
-5.42247 -6.73574 1.66646 203 208 211
-5.44391 -6.73878 1.66580 203 208 211
-2.63575 -3.21611 1.19219 52 52 69
-2.62524 -3.21420 1.18210 60 55 54
-2.63550 -3.21566 1.18179 55 52 62
-2.64577 -3.21712 1.18148 44 38 52
-2.64965 -3.21080 1.19046 35 43 77
-2.65964 -3.21180 1.17978 33 28 43
-2.65386 -3.22359 1.19251 40 46 87
-2.67742 -3.19989 1.18696 54 64 108
-2.69170 -3.19350 1.18501 75 80 114
-2.70622 -3.18655 1.18296 101 106 123
-2.71661 -3.18747 1.18254 136 133 140
-2.72956 -3.18337 1.18108 174 160 156
-2.74138 -3.18142 1.18007 197 177 161
-2.75121 -3.18336 1.17987 208 184 156
-2.76159 -3.18421 1.17944 208 183 145
-2.77010 -3.18884 1.17980 182 157 119
-2.77992 -3.19085 1.17961 152 127 104
-2.78842 -3.19558 1.17998 137 118 101
-2.79746 -3.19925 1.18013 129 115 97
-2.80314 -3.20998 1.18173 116 104 86
-2.80018 -3.23910 1.18711 90 80 75
-2.80569 -3.25067 1.18888 62 59 62
-2.81574 -3.25168 1.17813 42 39 42
-2.81563 -3.25292 1.18872 47 48 50
-2.82568 -3.25393 1.17797 41 41 41
-2.82566 -3.25497 1.18853 43 42 47
-2.83572 -3.25598 1.17777 42 42 39
-3.16241 -4.16274 1.33220 37 17 22
-3.14870 -4.16024 1.31906 29 17 13
-3.17411 -4.17140 1.33310 57 44 30
-3.18711 -4.17500 1.33302 74 62 41
-3.20053 -4.17690 1.33261 80 65 32
-3.20020 -4.17631 1.31902 78 63 43
-3.35706 -4.08578 1.30754 114 96 69
-3.35674 -4.08520 1.29437 114 95 68
-3.36975 -4.08705 1.29397 120 101 71
-3.37124 -4.08175 1.30603 121 100 68
-3.38391 -4.08302 1.29248 127 102 71
-3.38575 -4.07582 1.30416 120 96 56
-3.41702 -4.05103 1.29797 103 66 57
-3.42628 -4.07240 1.30128 109 87 60
-3.43889 -4.07366 1.28779 130 109 68
-3.44083 -4.06520 1.29918 127 105 62
-3.45341 -4.06646 1.28573 130 107 73
-3.51722 -4.00062 1.28335 128 104 67
-3.50428 -3.99827 1.27095 131 108 74
-3.53324 -3.98089 1.27892 61 49 23
-3.54168 -4.00934 1.28354 84 79 51
-3.55690 -3.99402 1.27995 127 123 94
-3.56917 -3.99525 1.26682 135 126 94
-3.72582 -4.37813 1.33927 133 127 97
-3.71229 -4.37678 1.35373 141 129 93
-3.71195 -4.37616 1.33969 137 127 101
-3.73841 -4.39476 1.34154 126 118 88
-3.77597 -4.45577 1.35036 116 107 88
-3.77562 -4.45515 1.33606 127 117 85
-3.78974 -4.45715 1.33563 126 118 88
-4.25161 -6.16162 1.62914 143 127 115
-4.23212 -6.15967 1.64998 155 136 110
-4.23163 -6.15878 1.62975 155 137 115
-4.27274 -6.19713 1.63431 132 123 105
-4.29378 -6.22408 1.63796 125 118 94
-4.31460 -6.24214 1.64003 115 105 94
-4.33893 -6.33445 1.65519 143 143 143
-4.36141 -6.37623 1.66142 182 192 199
-4.38209 -6.37902 1.66076 201 211 217
-4.40279 -6.38196 1.66013 207 215 217
-5.08436 -6.71738 1.68207 207 213 212
-5.10644 -6.72140 1.70324 200 206 209
-5.10591 -6.72045 1.68142 206 212 210
-5.10538 -6.71949 1.65959 203 207 210
-2.68660 -3.20233 1.17662 12 13 39
-2.69654 -3.20332 1.16599 17 8 17
-2.71747 -3.18486 1.17185 38 37 71
-2.71010 -3.22052 1.17851 80 79 108
-2.74600 -3.17138 1.16790 121 121 128
-2.74931 -3.18620 1.17032 158 151 145
-2.76055 -3.18536 1.16955 187 175 153
-2.77106 -3.18595 1.16907 183 164 133
-2.77773 -3.19437 1.17018 152 129 104
-2.78313 -3.20549 1.17183 125 110 87
-2.78801 -3.21788 1.17373 102 94 79
-2.78715 -3.24244 1.17809 80 74 66
-2.79718 -3.24344 1.16736 50 46 53
-2.79174 -3.25590 1.18020 57 52 55
-2.80182 -3.25691 1.16942 45 43 48
-2.80131 -3.25899 1.18021 44 40 50
-2.81139 -3.26000 1.16943 43 41 43
-3.15925 -4.17334 1.32077 34 20 25
-3.14550 -4.17084 1.30758 21 18 13
-3.17039 -4.18445 1.32210 52 44 28
-3.18355 -4.18760 1.32192 71 59 39
-3.19668 -4.18891 1.30788 77 60 44
-3.31075 -4.11207 1.30163 94 76 48
-3.29794 -4.11079 1.31533 84 74 42
-3.29762 -4.11021 1.30203 87 74 45
-3.32586 -4.10455 1.29947 99 81 54
-3.34020 -4.10039 1.29795 106 89 62
-3.35295 -4.10167 1.28431 116 98 74
-3.39614 -4.08882 1.29282 133 102 75
-3.38282 -4.08639 1.28005 125 100 78
-3.39582 -4.08824 1.27965 128 103 78
-3.40883 -4.09009 1.27926 128 106 72
-3.40988 -4.08673 1.29169 130 103 66
-3.42255 -4.08800 1.27814 128 109 69
-3.42162 -4.09539 1.29256 126 105 64
-3.43431 -4.09667 1.27899 129 108 71
-3.51514 -4.01103 1.27259 131 105 69
-3.50216 -4.00867 1.26015 131 107 73
-3.52867 -4.00734 1.27119 66 40 34
-3.53966 -4.01985 1.27277 85 80 48
-3.55439 -4.00805 1.26989 125 123 96
-3.56672 -4.00929 1.25671 134 126 93
-3.70111 -4.33934 1.31987 131 123 100
-3.68770 -4.33800 1.33421 135 128 102
-3.68737 -4.33739 1.32029 136 128 98
-3.70145 -4.33995 1.33379 138 128 103
-3.70077 -4.33873 1.30595 125 114 86
-3.71366 -4.35396 1.32174 124 114 96
-3.72711 -4.35531 1.30736 101 87 78
-3.72583 -4.37367 1.32453 114 107 89
-3.73815 -4.39312 1.32725 109 99 85
-3.75006 -4.41914 1.33116 118 101 79
-3.76372 -4.42051 1.31655 130 122 93
-4.22977 -6.10895 1.60100 153 134 110
-4.21045 -6.10701 1.62166 154 136 107
-4.20996 -6.10613 1.60160 152 137 109
-4.25111 -6.16027 1.60882 128 113 102
-4.27267 -6.20815 1.61602 108 99 92
-4.29302 -6.21654 1.61637 104 97 90
-4.31381 -6.23435 1.61834 110 104 97
-4.34020 -6.37231 1.64108 147 149 144
-4.36132 -6.38395 1.64195 180 187 192
-4.38215 -6.38892 1.64167 193 200 208
-4.40353 -6.40334 1.64301 200 205 212
-4.42482 -6.40721 1.66342 204 208 216
-4.42431 -6.40630 1.64238 202 204 214
-4.64625 -6.58565 1.66155 205 214 219
-4.62443 -6.58168 1.64062 194 195 203
-4.64573 -6.58471 1.63998 200 206 211
-4.66703 -6.58773 1.63933 204 207 208
-4.86969 -6.53688 1.64062 215 215 214
-4.84919 -6.53483 1.66254 219 220 224
-4.84868 -6.53390 1.64126 221 223 225
-4.89122 -6.54080 1.66126 201 198 201
-4.89071 -6.53987 1.63998 199 195 197
-5.61251 -6.59039 1.60886 205 215 216
-5.59219 -6.58835 1.63059 196 201 203
-5.59168 -6.58743 1.60949 197 200 202
-5.59117 -6.58651 1.58840 197 201 206
-5.63385 -6.59427 1.62932 210 214 215
-5.63012 -6.58089 1.60622 208 213 216
-5.65142 -6.58477 1.62663 203 204 210
-5.65091 -6.58385 1.60558 205 205 213
-5.65040 -6.58293 1.58453 201 206 215
-2.71048 -3.19751 1.16423 13 7 21
-2.70006 -3.19562 1.15424 16 12 14
-2.71023 -3.19706 1.15393 17 12 11
-2.72039 -3.19850 1.15362 19 11 13
-2.72164 -3.19700 1.16353 10 10 33
-2.73113 -3.19977 1.16348 26 24 50
-2.73310 -3.21748 1.16642 63 61 92
-2.75654 -3.19245 1.16083 96 103 122
-2.76423 -3.19880 1.16150 118 120 123
-2.77319 -3.20266 1.16167 115 106 101
-2.77241 -3.22656 1.16582 92 85 74
-2.78240 -3.22756 1.15514 55 52 61
-2.77382 -3.24630 1.16913 70 67 63
-2.78388 -3.24731 1.15838 54 51 57
-2.78174 -3.25275 1.16981 56 52 59
-2.79182 -3.25376 1.15904 50 50 51
-3.15447 -4.19036 1.31044 31 19 21
-3.14065 -4.18785 1.29719 22 19 13
-3.16649 -4.19820 1.31113 50 39 30
-3.18054 -4.19794 1.31031 69 55 37
-3.19371 -4.19926 1.29622 72 60 40
-3.27778 -4.13650 1.29442 78 66 36
-3.26487 -4.13521 1.30823 83 69 51
-3.26454 -4.13462 1.29483 76 65 45
-3.26422 -4.13404 1.28142 79 61 43
-3.27811 -4.13709 1.30783 82 72 44
-3.29240 -4.13208 1.29286 89 76 54
-3.30807 -4.12249 1.29035 101 92 82
-3.32164 -4.12247 1.28960 107 95 85
-3.33557 -4.12064 1.28853 111 94 76
-3.51193 -4.02834 1.26299 133 101 67
-3.49889 -4.02597 1.25048 130 109 75
-3.52573 -4.02338 1.26138 61 38 29
-3.53438 -4.05149 1.26573 82 75 48
-3.55400 -4.00807 1.25720 125 124 96
-3.56632 -4.00931 1.24402 135 125 91
-3.68858 -4.32160 1.30368 133 125 92
-3.67523 -4.32026 1.31796 139 127 96
-3.67489 -4.31966 1.30410 138 125 97
-3.73735 -4.39783 1.31410 106 96 88
-3.75094 -4.39919 1.29956 123 112 93
-3.74907 -4.42623 1.31834 124 113 92
-3.76276 -4.42760 1.30370 119 111 91
-4.20871 -6.07374 1.57617 144 134 112
-4.18949 -6.07182 1.59672 152 136 107
-4.18901 -6.07095 1.57677 152 137 115
-4.25096 -6.17033 1.59045 122 105 91
-4.27049 -6.17229 1.56956 106 95 78
-4.27229 -6.21074 1.59622 104 93 81
-4.29301 -6.22818 1.59808 97 93 84
-4.31370 -6.24255 1.59941 112 111 106
