ply
format ascii 1.0
element face 0
property list uchar int vertex_indices
element vertex 1297
property float x
property float y
property float z
property uchar diffuse_red
property uchar diffuse_green
property uchar diffuse_blue
end_header
-2.99631 -4.69646 2.59705 228 215 224
-3.00159 -4.71581 2.60557 179 175 219
-3.01875 -4.72693 2.59324 147 139 215
-3.09279 -4.67974 2.58830 240 252 254
-3.10201 -4.68760 2.60838 254 254 254
-3.10583 -4.68913 2.59228 252 254 254
0.34224 -4.05290 2.33508 49 59 66
0.35447 -4.04249 2.30845 112 122 119
0.31989 -4.06738 2.31903 22 32 49
0.32495 -4.06535 2.34036 40 53 59
0.31273 -4.07576 2.36699 101 117 124
0.30766 -4.07780 2.34565 79 98 109
-0.85226 -3.93618 2.26969 181 164 148
-0.84162 -3.92713 2.24652 183 167 154
-0.90110 -3.94717 2.27397 86 67 59
-0.90602 -3.96373 2.28121 35 23 38
-0.92544 -3.97631 2.26727 37 24 34
-1.50262 -4.02501 2.30129 25 24 37
-1.50677 -4.02667 2.28381 26 29 36
-1.52094 -4.03688 2.28814 28 36 57
-1.91592 -4.17151 2.36110 15 12 42
-1.92085 -4.18833 2.36846 110 126 133
-1.92219 -4.20803 2.37714 169 179 179
-1.92028 -4.23041 2.38703 184 186 183
-1.93986 -4.23601 2.38927 191 192 195
-1.95624 -4.24410 2.39265 201 200 206
-1.96609 -4.25248 2.41409 212 207 206
-1.97016 -4.25412 2.39691 209 208 210
-2.55396 -4.37024 2.44133 160 156 131
-2.59736 -4.35030 2.43203 76 62 50
-2.57458 -4.39501 2.45201 17 12 16
-2.59170 -4.40610 2.43972 16 11 15
-2.62283 -4.36990 2.44038 13 21 42
-2.66164 -4.37615 2.44268 36 51 83
-2.68166 -4.37851 2.44349 51 81 94
-2.69499 -4.38759 2.44734 107 117 111
-2.69969 -4.40550 2.45518 157 140 111
-2.70797 -4.41984 2.46141 155 109 92
-2.69788 -4.45331 2.47629 136 99 97
-2.71147 -4.46236 2.48013 118 97 107
-2.70615 -4.51487 2.50335 89 101 114
-2.69263 -4.55306 2.52035 82 99 112
-2.69180 -4.57803 2.53137 85 97 112
-2.69835 -4.59522 2.53888 90 92 102
-2.69591 -4.64695 2.56172 108 87 87
-2.71750 -4.64795 2.56191 97 89 85
-2.78767 -4.69435 2.58156 68 71 84
-2.80522 -4.70572 2.56896 81 71 73
-2.84244 -4.68189 2.57543 117 148 200
-2.85325 -4.69468 2.58095 180 210 239
-2.98984 -4.68497 2.57507 242 244 243
-2.98049 -4.67700 2.55471 237 239 238
-2.99371 -4.68653 2.55875 239 240 237
-3.00694 -4.69605 2.56280 245 245 239
-3.06305 -4.69760 2.57979 142 163 228
-3.08003 -4.70860 2.56760 152 159 207
0.33589 -4.05433 2.31346 64 75 74
0.34812 -4.04392 2.28684 114 121 124
0.31018 -4.08347 2.32598 43 58 85
0.29794 -4.09390 2.35264 109 122 137
0.29287 -4.09593 2.33128 82 104 124
-0.85515 -3.93881 2.25151 183 166 149
-0.84451 -3.92975 2.22834 186 172 157
-0.85955 -3.94058 2.23294 184 168 154
-0.88648 -3.94042 2.25192 172 149 126
-0.93516 -3.93203 2.24778 117 92 76
-0.90646 -3.96777 2.26371 54 35 37
-1.15202 -3.92078 2.24079 50 49 54
-1.13326 -3.90862 2.25426 42 36 51
-1.13751 -3.91033 2.23635 55 49 63
-1.14176 -3.91204 2.21844 73 72 82
-1.14777 -3.91907 2.25870 40 34 51
-1.16229 -3.92952 2.26314 36 34 46
-1.21173 -3.90425 2.23298 39 37 47
-1.22190 -3.91290 2.25512 34 36 45
-1.22611 -3.91460 2.23737 33 33 48
-1.23032 -3.91629 2.21963 37 33 45
-1.82685 -4.06092 2.29577 18 22 35
-1.80911 -4.04943 2.30850 24 24 35
-1.81313 -4.05105 2.29157 27 29 39
-1.82283 -4.05931 2.31270 21 26 41
-1.84458 -4.07241 2.28303 12 13 17
-1.84396 -4.06832 2.29885 15 16 21
-1.85366 -4.07658 2.31996 17 19 30
-1.85767 -4.07819 2.30304 11 13 26
-1.86169 -4.07981 2.28612 13 13 17
-1.91815 -4.17453 2.34467 26 29 32
-1.91950 -4.19414 2.35325 102 118 115
-1.94852 -4.19233 2.35218 140 149 156
-1.93669 -4.22238 2.36546 152 157 164
-1.95558 -4.22847 2.36795 161 167 170
-1.98325 -4.24856 2.37648 197 198 199
-1.99308 -4.25692 2.39788 214 212 208
-2.00121 -4.26019 2.36359 199 199 196
-2.55199 -4.37747 2.42755 124 126 164
-2.54797 -4.40388 2.43916 83 81 101
-2.59390 -4.38136 2.42886 33 26 44
-2.61095 -4.39240 2.41662 22 25 25
-2.69228 -4.37316 2.42433 23 47 76
-2.69071 -4.39737 2.43495 82 111 130
-2.71316 -4.39715 2.43464 177 195 183
-2.76052 -4.41660 2.44271 229 227 193
-2.75261 -4.47127 2.46674 228 224 192
-2.74635 -4.50144 2.48001 227 221 191
-2.74984 -4.54530 2.49920 219 217 197
-2.76555 -4.57643 2.51269 184 181 165
-2.76863 -4.59740 2.52185 155 140 115
-2.75157 -4.64096 2.54109 85 76 38
-2.75588 -4.66102 2.54984 60 71 54
-2.76944 -4.67078 2.55399 65 79 65
-2.78141 -4.68235 2.55894 70 78 63
-2.83471 -4.69703 2.56487 68 72 99
-2.90758 -4.68786 2.56015 197 223 243
-2.91704 -4.69591 2.58075 237 239 237
-2.92009 -4.69852 2.56471 228 241 244
-2.92955 -4.70657 2.58530 238 241 240
-2.93346 -4.70815 2.56880 237 241 242
-3.04361 -4.67655 2.55390 246 239 235
-3.03433 -4.66865 2.53370 239 238 238
-3.04745 -4.67809 2.53771 241 240 240
-3.05741 -4.68515 2.55754 233 220 223
-3.16374 -4.67972 2.55415 226 246 254
-3.17288 -4.68750 2.57406 254 254 254
-3.17694 -4.68867 2.55795 244 253 254
-3.18608 -4.69645 2.57785 254 254 254
-3.18986 -4.69797 2.56190 253 254 254
0.33011 -4.05602 2.29197 64 74 76
0.28858 -4.05687 2.29204 30 38 35
0.27137 -4.06927 2.29730 31 36 48
0.26978 -4.08924 2.30598 62 73 98
0.25757 -4.09963 2.33256 126 133 135
0.25252 -4.10166 2.31126 103 110 127
0.24746 -4.10369 2.28996 87 98 113
-0.88015 -3.94827 2.23613 180 161 144
-0.86952 -3.93922 2.21299 187 173 159
-0.92092 -3.94440 2.23415 157 131 113
-0.93752 -3.95422 2.23830 104 80 58
-0.95290 -3.96473 2.24276 62 42 26
-0.96347 -3.97374 2.26578 39 31 43
-1.01231 -3.94961 2.23574 55 41 43
-1.10020 -3.91744 2.22109 66 61 74
-1.11907 -3.92967 2.20755 74 67 76
-1.15681 -3.92217 2.22273 63 67 70
-1.20997 -3.90951 2.21683 47 45 48
-1.22858 -3.92156 2.20347 40 34 44
-1.81125 -4.05691 2.27653 27 28 50
-1.79349 -4.04540 2.28928 27 30 41
-1.79751 -4.04702 2.27233 34 30 45
-1.82901 -4.06842 2.26378 18 13 25
-1.83087 -4.06254 2.27883 17 17 30
-1.84860 -4.07403 2.26610 16 14 19
-1.92421 -4.13372 2.30912 19 13 16
-1.90646 -4.12222 2.32186 10 15 15
-1.91048 -4.12383 2.30492 12 11 15
-1.92873 -4.15064 2.31645 24 16 25
-1.94652 -4.16216 2.30368 23 14 16
-1.93218 -4.16848 2.32419 18 18 28
-1.92135 -4.19749 2.33689 75 90 102
-1.94583 -4.19921 2.33746 121 125 138
-1.96107 -4.20808 2.34121 143 141 145
-1.97060 -4.22145 2.34695 155 155 154
-1.98924 -4.24866 2.35866 183 183 185
-2.18460 -4.25742 2.36103 224 224 223
-2.16704 -4.24605 2.37364 223 219 214
-2.17102 -4.24765 2.35687 226 222 219
-2.18062 -4.25583 2.37779 223 218 215
-2.19420 -4.26560 2.38194 225 221 215
-2.19756 -4.26773 2.36542 221 228 227
-2.20717 -4.27591 2.38634 227 222 217
-2.21114 -4.27751 2.36957 217 227 227
-2.26559 -4.33832 2.39564 152 159 197
-2.24797 -4.32690 2.40829 221 226 225
-2.25196 -4.32851 2.39146 174 173 216
-2.26160 -4.33672 2.41246 216 224 223
-2.27523 -4.34653 2.41663 216 224 220
-2.30309 -4.34877 2.39990 144 162 176
-2.35451 -4.34631 2.39845 147 167 174
-2.39816 -4.32845 2.39036 139 156 179
-2.45786 -4.31718 2.38501 130 125 168
-2.45397 -4.31562 2.40139 164 178 190
-2.46724 -4.32517 2.40545 175 191 190
-2.47859 -4.31976 2.38598 102 100 157
-2.48796 -4.32773 2.40637 181 197 195
-2.49051 -4.33052 2.39058 75 93 150
-2.50763 -4.34162 2.37829 78 80 95
-2.50337 -4.34043 2.39479 66 95 139
-2.52049 -4.35152 2.38250 81 87 93
-2.51605 -4.35050 2.39908 65 95 135
-2.52397 -4.36515 2.40540 68 92 136
-2.53290 -4.37889 2.41131 68 87 130
-2.56183 -4.39569 2.41841 74 86 95
-2.58811 -4.39244 2.41680 62 69 60
-2.60520 -4.40351 2.40452 21 26 33
-2.66995 -4.37856 2.41015 11 19 36
-2.66071 -4.37069 2.39005 11 15 19
-2.67377 -4.38009 2.39404 10 15 29
-2.69361 -4.37721 2.40939 12 28 49
-2.69648 -4.39693 2.41795 17 55 80
-2.70706 -4.40887 2.42307 91 130 158
-2.74756 -4.38989 2.41451 188 209 219
-2.75724 -4.40263 2.41998 217 224 217
-2.76432 -4.41813 2.42668 212 220 217
-2.76169 -4.44397 2.43794 211 221 229
-2.75460 -4.47479 2.45141 211 219 228
-2.75250 -4.50055 2.46263 210 215 218
-2.76957 -4.51161 2.45038 176 171 181
-2.75195 -4.52487 2.47322 207 205 203
-2.76040 -4.53964 2.47958 192 185 197
-2.75910 -4.56512 2.49068 179 173 181
-2.76817 -4.57942 2.49684 176 175 170
-2.78674 -4.58326 2.49837 181 169 140
-2.78594 -4.60862 2.50941 164 124 114
-2.76851 -4.65289 2.52881 108 92 115
-2.78672 -4.65732 2.53060 81 77 86
-2.79581 -4.67208 2.53696 73 60 32
-2.81605 -4.67410 2.53769 64 62 42
-2.83401 -4.67866 2.53954 71 70 58
-2.84864 -4.68702 2.54307 80 75 55
-2.88870 -4.69093 2.54447 71 83 111
-2.90384 -4.72423 2.55885 164 191 227
-2.95690 -4.68619 2.54191 211 229 244
-2.98518 -4.67756 2.53794 231 241 242
-2.99840 -4.68708 2.54199 236 238 238
-3.06662 -4.67998 2.53839 246 246 243
-3.05737 -4.67209 2.51823 241 242 240
-3.07046 -4.68152 2.52223 239 240 240
-3.08355 -4.69095 2.52624 241 241 241
-3.10269 -4.68632 2.54088 236 230 222
-3.16378 -4.71228 2.55173 193 216 242
-3.20881 -4.67958 2.53717 225 246 253
-3.21790 -4.68733 2.55697 254 254 254
-3.22615 -4.68292 2.53849 247 254 254
-3.23522 -4.69064 2.55826 254 254 254
-3.23898 -4.69216 2.54242 254 254 254
-4.48025 -5.74978 2.99349 53 82 84
-4.49656 -5.74936 2.99319 145 188 173
-4.51361 -5.76040 2.98095 184 198 198
0.37708 -4.06202 2.27263 115 120 127
0.39955 -4.04746 2.28876 122 125 137
0.39446 -4.04951 2.26731 120 126 135
0.38937 -4.05155 2.24586 118 127 133
0.34507 -4.06757 2.27486 69 70 91
0.26849 -4.05169 2.26759 50 51 61
0.24629 -4.06608 2.25165 55 65 75
0.24716 -4.06205 2.27196 48 46 60
0.22497 -4.07643 2.25603 49 57 67
0.23059 -4.07470 2.27734 55 54 73
0.20840 -4.08908 2.26140 85 97 107
-0.88011 -3.95256 2.21870 186 168 154
-0.86947 -3.94350 2.19553 192 179 165
-0.89464 -3.96368 2.22343 180 152 141
-0.94825 -3.95233 2.21824 154 126 105
-1.00926 -3.93639 2.21103 118 95 60
-1.06166 -3.92511 2.20588 93 73 44
-1.10656 -3.91794 2.20254 80 68 57
-1.17108 -3.91792 2.20219 60 57 72
-1.21748 -3.90923 2.19819 47 41 53
-1.23608 -3.92128 2.18484 46 35 43
-1.81765 -4.03708 2.25030 23 18 36
-1.79996 -4.02562 2.26300 26 33 50
-1.82166 -4.03870 2.23341 16 15 33
-1.83534 -4.04855 2.23759 16 14 24
-1.82538 -4.05124 2.25637 20 15 30
-1.84309 -4.06272 2.24365 20 12 31
-1.92613 -4.11666 2.28412 16 15 15
-1.90843 -4.10520 2.29682 8 13 15
-1.91244 -4.10681 2.27993 9 11 8
-1.92385 -4.13866 2.29364 30 28 31
-1.94162 -4.15017 2.28088 48 44 52
-1.91940 -4.16248 2.30396 39 41 45
-1.94391 -4.18477 2.31346 46 39 55
-1.93915 -4.20923 2.32406 102 103 119
-1.95471 -4.21789 2.32772 137 132 134
-1.97422 -4.22342 2.33001 148 147 141
-1.98580 -4.23521 2.33504 164 163 164
-1.99969 -4.24516 2.33927 177 177 170
-2.01105 -4.25717 2.34440 191 188 186
-2.02086 -4.26552 2.36576 210 208 201
-2.02492 -4.26715 2.34864 205 202 196
-2.15356 -4.22494 2.32972 218 222 221
-2.13603 -4.21358 2.34231 219 215 209
-2.14000 -4.21518 2.32557 223 221 215
-2.14959 -4.22334 2.34646 222 216 215
-2.16315 -4.23311 2.35060 224 218 216
-2.16044 -4.24028 2.33631 208 221 220
-2.17587 -4.24851 2.33979 194 213 215
-2.19721 -4.25171 2.34106 178 193 212
-2.23245 -4.24299 2.33711 152 166 203
-2.25135 -4.24804 2.33919 132 143 193
-2.26086 -4.25614 2.35991 212 227 227
-2.26848 -4.25455 2.34191 111 115 166
-2.27799 -4.26264 2.36261 204 223 225
-2.28149 -4.26459 2.34619 78 92 145
-2.29100 -4.27269 2.36688 193 199 224
-2.30797 -4.26287 2.34530 69 90 149
-2.32230 -4.27168 2.34903 91 103 155
-2.35818 -4.26138 2.34439 96 104 142
-2.36209 -4.27935 2.35214 84 99 127
-2.37933 -4.29052 2.33975 66 65 90
-2.37093 -4.31469 2.36737 61 82 113
-2.36803 -4.33919 2.37797 54 72 116
-2.36600 -4.36310 2.38832 54 72 130
-2.44334 -4.31394 2.36666 88 106 147
-2.46553 -4.31522 2.36710 129 139 148
-2.48475 -4.31918 2.36871 119 116 110
-2.51014 -4.31726 2.36774 86 81 79
-2.52913 -4.36548 2.38849 74 84 106
-2.53866 -4.37864 2.39413 72 82 104
-2.55617 -4.38407 2.39638 67 83 93
-2.57331 -4.39518 2.38407 43 51 66
-2.57061 -4.39246 2.39993 57 78 73
-2.57279 -4.41294 2.40877 41 61 53
-2.69550 -4.38068 2.39418 8 18 32
-2.68630 -4.37284 2.37413 15 18 17
-2.69932 -4.38222 2.37811 14 17 18
-2.71234 -4.39159 2.38210 17 14 35
-2.70759 -4.39102 2.39859 11 23 39
-2.71989 -4.40114 2.40290 28 58 83
-2.71801 -4.42596 2.41363 120 153 188
-2.73777 -4.42843 2.41459 185 189 211
-2.74824 -4.44054 2.41978 180 180 190
-2.75728 -4.45422 2.42564 176 178 175
-2.76495 -4.46941 2.43217 179 176 185
-2.76265 -4.49537 2.44340 180 179 181
-2.75466 -4.55167 2.46777 175 166 180
-2.75873 -4.57138 2.47627 184 172 167
-2.77331 -4.57963 2.47976 193 189 178
-2.79263 -4.58263 2.48095 197 193 187
-2.79278 -4.60694 2.49146 214 206 199
-2.81008 -4.61814 2.47904 225 226 223
-2.80111 -4.62225 2.49804 230 223 205
-2.81844 -4.63348 2.48560 229 230 222
-2.80485 -4.64285 2.50692 228 220 183
-2.82444 -4.64552 2.50797 191 167 94
-2.81739 -4.67870 2.52235 101 69 24
-2.85609 -4.65926 2.51374 76 42 23
-2.86163 -4.67806 2.52184 68 56 43
-2.87768 -4.68466 2.52461 75 70 65
-2.89641 -4.68803 2.52597 83 76 78
-2.91571 -4.71630 2.53808 86 97 129
-2.92227 -4.73426 2.54581 126 148 191
-2.95649 -4.71871 2.53891 181 206 237
-3.00705 -4.68280 2.52312 222 234 245
-3.03776 -4.67070 2.51773 239 243 243
-3.11775 -4.69955 2.52978 247 245 231
-3.10852 -4.69168 2.50967 239 237 238
-3.12158 -4.70108 2.51366 243 240 241
-3.13463 -4.71048 2.51766 248 246 242
-3.13797 -4.69973 2.52975 236 230 221
-3.15028 -4.71002 2.53413 202 194 201
-3.19032 -4.71037 2.53407 161 189 224
-3.20708 -4.72123 2.52204 164 166 203
-3.24390 -4.69211 2.52590 234 250 254
-3.25297 -4.69984 2.54566 254 254 254
-3.25701 -4.70098 2.52966 248 254 254
-3.26608 -4.70870 2.54942 254 254 254
-3.26983 -4.71021 2.53359 253 254 254
-4.06269 -5.00109 2.65513 251 254 254
-4.04694 -4.99088 2.66644 254 254 254
-4.05051 -4.99231 2.65141 254 254 254
-4.05912 -4.99965 2.67017 254 254 254
-4.07131 -5.00842 2.67390 254 254 254
-4.06898 -5.02219 2.66422 244 253 253
-4.07762 -5.02955 2.68304 254 254 254
-4.08478 -5.03243 2.65288 164 158 184
-4.07911 -5.03541 2.66988 234 247 247
-4.08776 -5.04278 2.68873 254 254 254
-4.22788 -5.17433 2.72914 141 144 134
-4.21197 -5.16402 2.74057 141 133 133
-4.21557 -5.16547 2.72538 144 143 130
-4.22428 -5.17288 2.74433 139 137 134
-4.23658 -5.18174 2.74810 140 141 135
-4.23480 -5.19609 2.73851 137 142 136
-4.46914 -5.74739 2.97556 53 66 79
-4.45204 -5.73631 2.98784 59 73 73
-4.45591 -5.73786 2.97151 58 73 78
-4.45978 -5.73942 2.95519 57 73 82
-4.50080 -5.74969 2.97638 158 194 182
-4.51784 -5.76073 2.96415 184 199 197
0.39301 -4.07401 2.25551 117 122 130
0.40534 -4.06350 2.22866 117 124 138
0.38790 -4.07606 2.23399 118 122 135
0.37047 -4.08861 2.23933 92 96 111
0.37684 -4.08716 2.26111 79 79 100
0.35429 -4.10177 2.24492 55 52 69
0.28447 -4.06379 2.25079 60 60 78
0.26219 -4.07822 2.23479 36 41 56
-0.88436 -3.95441 2.20017 191 175 162
-0.87373 -3.94535 2.17700 196 183 172
-0.88877 -3.95619 2.18160 194 181 169
-0.91287 -3.95754 2.20142 188 167 157
-0.93144 -3.96629 2.20512 176 154 132
-0.96753 -3.96485 2.20439 160 136 96
-1.03701 -3.94374 2.19511 141 116 73
-1.09404 -3.92953 2.18883 120 97 62
-1.14136 -3.92073 2.18490 95 74 53
-1.17984 -3.91693 2.18315 70 48 44
-1.22072 -3.91151 2.18069 54 35 47
-1.83621 -4.00872 2.22049 16 18 38
-1.81864 -3.99733 2.23311 27 30 44
-1.82261 -3.99893 2.21633 29 30 38
-1.84019 -4.01032 2.20372 14 19 31
-1.85378 -4.02010 2.20787 13 16 31
-1.92875 -4.09916 2.25903 20 22 12
-1.91111 -4.08773 2.27169 11 11 16
-1.91511 -4.08934 2.25485 15 13 12
-1.92970 -4.11861 2.26737 28 31 23
-1.92684 -4.14107 2.27702 38 39 38
-1.93390 -4.17663 2.29226 49 31 33
-1.94181 -4.19117 2.29848 60 50 48
-1.95886 -4.19861 2.30162 102 101 102
-1.96399 -4.21542 2.30882 125 126 126
-1.97426 -4.22823 2.31429 137 138 136
-1.98472 -4.24094 2.31971 148 150 151
-2.00448 -4.24621 2.32191 163 164 163
-2.03213 -4.24503 2.32132 185 183 187
-2.08602 -4.22235 2.31141 197 203 199
-2.09569 -4.23058 2.33246 218 215 206
-2.11060 -4.22325 2.31172 202 215 212
-2.13121 -4.22730 2.31340 207 208 213
-2.17158 -4.21486 2.30793 182 171 190
-2.19374 -4.21736 2.30893 121 117 159
-2.21149 -4.22347 2.31150 65 70 115
-2.24762 -4.21395 2.30730 37 48 103
-2.26492 -4.22516 2.29488 47 54 75
-2.26575 -4.21954 2.30964 27 43 104
-2.28739 -4.22206 2.31066 33 51 104
-2.31286 -4.22116 2.31019 40 56 99
-2.33847 -4.26245 2.32783 55 74 104
-2.36438 -4.26090 2.32708 49 69 108
-2.35661 -4.28930 2.33930 55 67 102
-2.36040 -4.32936 2.35649 73 74 92
-2.38633 -4.32768 2.35568 98 103 115
-2.42386 -4.31519 2.35021 137 140 142
-2.44109 -4.32635 2.33784 165 170 170
-2.47811 -4.28695 2.33791 160 166 163
-2.49514 -4.29798 2.32569 165 170 174
-2.50301 -4.28551 2.33722 166 171 168
-2.51998 -4.29651 2.32503 167 176 176
-2.50650 -4.30398 2.34513 162 158 146
-2.49745 -4.33441 2.35823 133 123 116
-2.51776 -4.33724 2.35937 107 101 107
-2.54183 -4.35856 2.36845 68 72 90
-2.55893 -4.36964 2.35617 46 52 75
-2.55258 -4.37048 2.37353 59 66 94
-2.56969 -4.38157 2.36125 40 51 63
-2.56618 -4.37965 2.37743 54 61 82
-2.59805 -4.39337 2.38322 29 39 47
-2.60192 -4.39492 2.36691 24 30 34
-2.61513 -4.40444 2.37095 21 24 19
-2.72197 -4.40446 2.38759 18 18 48
-2.71275 -4.39661 2.36751 21 21 41
-2.72579 -4.40599 2.37150 23 20 46
-2.72996 -4.41908 2.39384 44 69 103
-2.73105 -4.44097 2.40323 137 162 192
-2.75037 -4.44387 2.40442 183 184 179
-2.75989 -4.45705 2.41005 190 185 174
-2.76556 -4.47439 2.41747 194 190 182
-2.75905 -4.50493 2.43060 194 196 191
-2.77612 -4.51599 2.41834 222 222 212
-2.76636 -4.52081 2.43740 204 201 198
-2.78346 -4.53189 2.42512 223 221 217
-2.76123 -4.55032 2.45008 222 223 206
-2.77843 -4.56147 2.43773 223 223 219
-2.76471 -4.57067 2.45880 228 229 209
-2.78197 -4.58185 2.44641 224 225 227
-2.75822 -4.60218 2.47235 226 228 221
-2.77558 -4.61343 2.45988 228 231 226
-2.77868 -4.60403 2.47308 229 226 222
-2.79600 -4.61526 2.46064 225 226 225
-2.79710 -4.60806 2.47475 226 227 223
-2.81440 -4.61927 2.46233 225 228 223
-2.83026 -4.64493 2.49047 235 233 205
-2.82078 -4.63686 2.46982 226 228 225
-2.83419 -4.64651 2.47393 226 229 226
-2.82277 -4.67864 2.50497 227 210 164
-2.85811 -4.66304 2.49816 178 150 98
-2.87667 -4.66667 2.49966 94 65 28
-2.88896 -4.67759 2.50431 72 49 30
-2.89917 -4.69098 2.51003 65 64 65
-2.92000 -4.69178 2.51030 79 76 80
-2.92914 -4.70648 2.51658 86 83 92
-2.95079 -4.70612 2.51636 82 92 118
-3.04194 -4.67183 2.50136 198 218 241
-3.05890 -4.68282 2.48918 161 187 221
-3.16795 -4.69356 2.51029 250 246 236
-3.15879 -4.68575 2.49033 241 243 242
-3.17175 -4.69508 2.49429 245 245 245
-3.18471 -4.70441 2.49826 248 248 244
-3.18636 -4.69576 2.51118 240 230 221
-3.23484 -4.71076 2.51747 181 195 227
-3.25150 -4.72156 2.50550 178 180 217
-3.26034 -4.70306 2.51408 212 232 249
-3.28094 -4.70175 2.51345 235 249 252
-3.28999 -4.70946 2.53315 254 254 254
-3.29373 -4.71096 2.51736 251 254 254
-4.01415 -4.97422 2.62811 252 254 254
-3.99837 -4.96399 2.63944 254 254 254
-4.00194 -4.96543 2.62438 254 254 254
-4.01057 -4.97278 2.64317 254 254 254
-4.02278 -4.98157 2.64690 254 254 254
-4.02993 -4.98444 2.61678 206 196 220
-4.02678 -4.98214 2.63147 247 254 254
-4.03541 -4.98949 2.65026 254 254 254
-4.05302 -4.99592 2.63731 229 238 247
-4.07991 -4.97413 2.62787 217 215 238
-4.09284 -4.98108 2.63081 196 185 209
-4.08913 -5.05803 2.66385 147 151 173
-4.09781 -5.06542 2.68275 215 207 231
-4.10140 -5.06686 2.66761 146 144 163
-4.10500 -5.06831 2.65246 139 135 130
-4.21525 -5.13848 2.69799 133 141 129
-4.22181 -5.16071 2.70751 124 131 133
-4.22504 -5.19112 2.72055 110 114 124
-4.24371 -5.26278 2.75126 64 79 90
-4.25986 -5.27325 2.73967 55 67 68
-4.46171 -5.78456 2.97456 39 61 85
-4.45229 -5.77653 2.95403 55 76 79
-4.48392 -5.76586 2.96646 103 131 134
-0.92459 -3.95511 2.18111 192 178 163
-0.91399 -3.94609 2.15803 198 186 175
-0.92898 -3.95687 2.16262 197 184 170
-0.94613 -3.96211 2.18407 188 171 149
-0.97386 -3.96546 2.18547 179 158 127
-0.99219 -3.97422 2.18919 166 143 111
-1.04570 -3.96223 2.18402 155 132 99
-1.11043 -3.94329 2.17588 140 116 78
-1.13946 -3.94526 2.17669 120 93 61
-1.18199 -3.93900 2.17398 98 69 56
-1.23213 -3.92791 2.16920 72 46 40
-1.24232 -3.93659 2.19139 40 37 38
-1.25461 -3.93336 2.17150 59 37 26
-1.26479 -3.94203 2.19366 37 36 39
-1.93132 -4.08181 2.23410 17 20 20
-1.91373 -4.07041 2.24673 12 10 19
-1.91771 -4.07202 2.22994 12 11 20
-1.92170 -4.07362 2.21315 11 13 18
-1.93530 -4.08341 2.21731 12 16 26
-1.93162 -4.10163 2.24255 25 32 27
-1.92957 -4.12335 2.25181 32 41 36
-1.93023 -4.14317 2.26026 42 48 47
-1.92987 -4.16390 2.26910 58 56 53
-1.93820 -4.17807 2.27513 69 55 50
-1.95046 -4.18922 2.27987 80 67 56
-1.98039 -4.18655 2.27870 104 91 95
-1.97779 -4.20936 2.28843 118 108 115
-1.98485 -4.22469 2.29496 132 125 122
-2.00191 -4.23208 2.29809 143 141 143
-2.02548 -4.23421 2.29898 150 153 154
-2.07312 -4.21673 2.29148 158 163 160
-2.10551 -4.21133 2.28914 153 139 163
-2.13241 -4.21022 2.28864 140 131 160
-2.16323 -4.20574 2.28670 156 156 164
-2.18801 -4.20608 2.28682 138 135 142
-2.20749 -4.21073 2.28878 66 59 82
-2.24432 -4.20071 2.28447 37 41 63
-2.25692 -4.21096 2.28883 42 49 71
-2.29459 -4.22079 2.29298 46 58 76
-2.29849 -4.22236 2.27654 36 36 60
-2.31890 -4.22087 2.29299 45 60 78
-2.32974 -4.23256 2.29797 45 59 79
-2.36053 -4.29088 2.32280 75 68 101
-2.46468 -4.23990 2.30096 146 154 131
-2.48160 -4.25086 2.28881 159 176 183
-2.49512 -4.25481 2.30728 165 171 167
-2.54232 -4.29724 2.32532 161 180 170
-2.56083 -4.30151 2.32713 150 169 144
-2.55716 -4.34906 2.34740 56 60 72
-2.57421 -4.36010 2.33516 41 46 64
-2.59408 -4.38013 2.36061 31 41 51
-2.58475 -4.37218 2.34029 36 45 52
-2.59794 -4.38168 2.34432 32 37 38
-2.73573 -4.41859 2.37686 16 24 58
-2.74520 -4.43173 2.38245 73 95 120
-2.74670 -4.45331 2.39165 184 201 199
-2.75184 -4.47120 2.39927 217 216 210
-2.76883 -4.48221 2.38707 220 219 212
-2.76683 -4.47869 2.40245 219 215 205
-2.78381 -4.48969 2.39026 218 216 213
-2.76512 -4.50412 2.41329 220 221 210
-2.78218 -4.51517 2.40104 218 216 216
-2.84694 -4.65692 2.47835 232 232 220
-2.83745 -4.64885 2.45770 226 228 225
-2.85086 -4.65850 2.46180 227 229 226
-2.86427 -4.66816 2.46590 228 230 229
-2.86064 -4.66624 2.48231 236 232 203
-2.87798 -4.67747 2.46986 234 236 228
-2.85550 -4.69759 2.49568 224 205 160
-2.87294 -4.70889 2.48316 237 233 206
-2.87290 -4.70269 2.49784 166 136 91
-2.90255 -4.69322 2.49377 93 57 34
-2.92636 -4.69043 2.49256 73 54 33
-2.95677 -4.70518 2.49882 86 82 87
-2.98136 -4.70107 2.49704 90 89 98
-2.99854 -4.71220 2.48470 91 84 87
-2.99716 -4.70754 2.49978 85 97 118
-3.01433 -4.71867 2.48745 94 94 107
-3.09214 -4.66701 2.48241 208 229 242
-3.10135 -4.67486 2.50247 237 237 237
-3.10643 -4.67480 2.48571 231 240 244
-3.11945 -4.68417 2.48969 237 239 240
-3.22463 -4.67815 2.48702 248 245 236
-3.21555 -4.67042 2.46725 243 243 243
-3.22839 -4.67966 2.47118 245 247 247
-3.23356 -4.69258 2.49316 231 225 219
-3.23861 -4.71228 2.50156 202 197 211
-3.27799 -4.71235 2.50155 186 199 235
-3.29619 -4.71423 2.50233 219 240 254
-3.30524 -4.72194 2.52204 254 254 254
-3.31733 -4.71194 2.50133 239 252 253
-3.32635 -4.71962 2.52098 254 254 254
-3.33009 -4.72113 2.50524 252 254 254
-3.97848 -4.92187 2.59016 253 254 254
-3.96278 -4.91169 2.60143 254 254 254
-3.96633 -4.91312 2.58644 254 254 254
-3.97492 -4.92044 2.60515 254 254 253
-3.98707 -4.92918 2.60886 254 254 253
-3.99053 -4.93079 2.59395 249 253 253
-3.99912 -4.93810 2.61266 254 254 254
-4.00624 -4.94096 2.58267 186 171 200
-4.00704 -4.96383 2.60802 231 241 247
-4.01054 -4.99012 2.61922 223 222 240
-4.05918 -4.95830 2.60561 172 162 190
-4.07482 -4.96843 2.59438 137 129 133
-4.05385 -5.00301 2.62467 149 144 169
-4.06963 -5.01324 2.61334 138 133 127
-4.06679 -5.01027 2.62776 143 140 157
-4.08257 -5.02049 2.61643 139 136 126
-4.08792 -5.03479 2.63819 136 132 137
-4.10373 -5.04503 2.62684 140 139 134
-4.09692 -5.05049 2.64487 135 134 132
-4.13738 -5.14104 2.68343 138 143 131
-4.12136 -5.13067 2.69493 140 136 131
-4.12499 -5.13212 2.67964 141 142 132
-4.13375 -5.13958 2.69872 141 139 126
-4.14614 -5.14850 2.70251 142 139 127
-4.15335 -5.14186 2.68376 135 141 128
-4.16210 -5.14930 2.70280 144 141 132
-4.16963 -5.14184 2.68374 130 133 127
-4.18393 -5.14621 2.68559 120 121 125
-4.19486 -5.19606 2.70683 79 87 106
-4.21091 -5.20646 2.69530 56 66 77
-4.22269 -5.20679 2.71137 66 73 87
-4.23872 -5.21717 2.69987 59 66 73
-4.23285 -5.22110 2.71746 64 67 77
-4.24890 -5.23149 2.70594 58 70 65
-4.45947 -5.80557 2.96640 31 58 84
-4.45000 -5.79751 2.94579 57 76 79
-4.47723 -5.80121 2.96452 123 155 153
-4.50064 -5.77825 2.95471 176 204 204
-4.51778 -5.78936 2.94241 175 192 199
0.17300 -4.03950 2.19636 43 32 30
0.18502 -4.02926 2.17018 106 106 98
0.16098 -4.04974 2.22254 49 50 63
0.15102 -4.05374 2.18058 100 95 102
-0.96831 -3.95359 2.16127 196 182 167
-0.95777 -3.94461 2.13831 201 189 178
-0.97267 -3.95534 2.14287 200 187 176
-1.01841 -3.96318 2.16538 186 168 138
-1.05188 -3.96288 2.16530 177 159 124
-1.07386 -3.96927 2.16803 170 149 114
-1.17273 -3.94883 2.15948 146 120 95
-1.18465 -3.96091 2.16461 131 101 79
-1.23108 -3.95197 2.16088 115 81 55
-1.28173 -3.94019 2.15595 87 60 46
-1.36785 -3.92516 2.14968 51 33 26
-1.37788 -3.93370 2.17152 36 32 34
-1.47177 -3.89795 2.13828 47 33 36
-1.48164 -3.90635 2.15976 31 33 38
-1.48572 -3.90799 2.14254 39 35 39
-1.97332 -3.97680 2.17222 24 25 37
-1.95613 -3.96566 2.18456 17 14 24
-1.96392 -3.96879 2.15174 36 28 43
-1.96943 -3.97523 2.18863 17 10 18
-1.97721 -3.97836 2.15581 31 29 48
-1.98272 -3.98481 2.19270 13 10 16
-1.93447 -4.10410 2.22607 14 24 31
-1.92481 -4.09587 2.20504 12 12 26
-1.93847 -4.10570 2.20922 9 13 20
-1.94237 -4.11829 2.23208 20 31 39
-1.93942 -4.14084 2.24163 36 43 53
-1.93218 -4.16686 2.25264 55 61 62
-1.95183 -4.17227 2.25495 75 73 57
-1.97671 -4.17354 2.25551 104 92 73
-1.97891 -4.19249 2.26354 119 109 100
-1.98604 -4.20767 2.26997 128 121 113
-2.00389 -4.21923 2.25716 108 94 77
-2.00216 -4.21577 2.27342 132 121 106
-2.02055 -4.22203 2.27609 120 100 108
-2.03854 -4.22856 2.27888 109 93 109
-2.05048 -4.23996 2.28371 110 101 116
-2.11089 -4.21179 2.27186 134 118 136
-2.15551 -4.19610 2.26526 158 146 155
-2.17113 -4.20406 2.26865 175 167 162
-2.18835 -4.21066 2.27147 142 120 121
-2.23070 -4.19615 2.26537 62 47 53
-2.25295 -4.19829 2.26630 30 39 52
-2.26798 -4.20646 2.26978 32 47 67
-2.28587 -4.21217 2.27221 35 44 69
-2.32209 -4.22304 2.27685 41 33 55
-2.32889 -4.23827 2.28331 45 40 62
-2.33986 -4.24991 2.28825 70 64 87
-2.43075 -4.19085 2.26335 111 107 105
-2.44760 -4.20177 2.25126 167 181 180
-2.44203 -4.20180 2.26800 143 144 129
-2.45594 -4.21040 2.27166 162 167 157
-2.48056 -4.20932 2.27123 167 177 163
-2.50117 -4.25430 2.29029 159 178 181
-2.50903 -4.26852 2.29632 156 180 176
-2.52634 -4.27399 2.29865 145 176 164
-2.51675 -4.30470 2.31164 124 156 145
-2.51998 -4.32355 2.31963 92 112 137
-2.52993 -4.33614 2.32497 62 69 118
-2.57010 -4.31976 2.31808 44 50 75
-2.58704 -4.33073 2.30592 36 46 50
-2.57111 -4.34087 2.32702 40 47 63
-2.58810 -4.35188 2.31482 34 44 48
-2.70783 -4.40712 2.35522 27 26 31
-2.69093 -4.39617 2.36735 16 23 29
-2.69476 -4.39771 2.35122 22 31 34
-2.72061 -4.41682 2.35934 35 19 34
-2.73946 -4.42022 2.36080 42 22 47
-2.75138 -4.43079 2.36529 86 91 103
-2.75589 -4.44920 2.37309 190 208 197
-2.77281 -4.46017 2.36094 225 225 221
-2.76192 -4.46612 2.38026 218 217 217
-2.77888 -4.47711 2.36808 224 222 224
-2.90999 -4.69061 2.47546 220 198 150
-2.90052 -4.68255 2.45484 228 232 229
-2.92497 -4.69834 2.47875 156 121 65
-2.95901 -4.68309 2.47233 103 54 39
-2.97101 -4.69422 2.47706 79 59 48
-3.00263 -4.68139 2.47166 83 77 72
-3.01971 -4.69246 2.45939 87 67 59
-3.09560 -4.66899 2.46651 127 151 188
-3.08639 -4.66114 2.44645 93 89 79
-3.12799 -4.67967 2.47107 216 233 247
-3.13719 -4.68750 2.49110 238 240 238
-3.15179 -4.67515 2.46919 236 241 242
-3.16474 -4.68448 2.47315 240 238 240
-3.16854 -4.68600 2.45716 224 234 242
-3.24769 -4.68029 2.47147 248 249 245
-3.23863 -4.67258 2.45175 241 240 241
-3.25144 -4.68180 2.45567 243 243 242
-3.26424 -4.69101 2.45958 246 246 244
-3.25054 -4.70286 2.48103 249 246 237
-3.26716 -4.71362 2.46910 249 248 241
-3.26714 -4.70704 2.48282 234 226 222
-3.28360 -4.71135 2.48466 199 190 208
-3.32493 -4.70810 2.48333 199 222 248
-3.94942 -4.88980 2.56095 251 254 254
-3.93374 -4.87965 2.57220 254 254 254
-3.93729 -4.88107 2.55724 254 254 254
-3.94587 -4.88837 2.57591 254 254 254
-3.95799 -4.89710 2.57962 254 254 254
-3.96285 -4.89601 2.56359 244 253 254
-3.97229 -4.90992 2.56949 232 249 250
-4.01745 -4.88627 2.55953 212 207 223
-4.02929 -4.92788 2.57716 156 144 177
-4.04491 -4.93799 2.56595 138 129 138
-4.03984 -4.97297 2.59626 142 138 154
-4.05556 -4.98316 2.58497 141 135 129
-4.10398 -5.07973 2.64153 140 141 136
-4.11268 -5.08714 2.66048 143 135 133
-4.10989 -5.10254 2.65119 138 140 134
-4.11863 -5.10997 2.67021 144 138 132
-4.11582 -5.12557 2.66095 130 133 128
-4.12455 -5.14261 2.66817 118 124 126
-4.13498 -5.15600 2.67385 104 115 118
-4.14262 -5.17578 2.68223 90 102 108
-4.15704 -5.18029 2.68416 75 81 101
-4.17313 -5.19072 2.67261 56 65 79
-4.18771 -5.18479 2.68610 61 71 90
-4.20375 -5.19518 2.67458 57 68 78
-4.45835 -5.82311 2.95664 43 64 87
-4.44886 -5.81502 2.93596 53 66 86
-4.50154 -5.78949 2.94245 176 198 202
-4.51871 -5.80061 2.93012 180 194 196
0.27171 -4.09179 2.19619 91 80 65
0.28393 -4.08138 2.16956 113 123 123
0.26665 -4.09382 2.17485 114 121 118
0.24936 -4.10627 2.18014 114 123 130
-1.01107 -3.95239 2.14175 201 187 172
-1.00057 -3.94346 2.11890 206 192 182
-1.01541 -3.95414 2.12344 205 192 179
-1.03025 -3.96482 2.12798 204 193 178
-1.04316 -3.95296 2.14209 201 186 163
-1.08319 -3.94869 2.14043 197 182 155
-1.10967 -3.95229 2.14203 193 174 150
-1.17917 -3.94923 2.14097 181 158 136
-1.21761 -3.96449 2.14751 165 139 100
-1.34556 -3.92421 2.13099 128 104 77
-1.43141 -3.90868 2.12474 101 68 41
-1.47411 -3.90069 2.12152 84 53 36
-1.50194 -3.90192 2.12213 56 43 34
-1.51178 -3.91029 2.14355 30 35 39
-1.52980 -3.90301 2.12268 46 38 35
-1.53961 -3.91136 2.14403 28 32 33
-1.55264 -3.90721 2.12452 41 33 30
-1.56242 -3.91555 2.14583 29 30 41
-1.56647 -3.91717 2.12875 39 27 37
-1.98398 -4.09131 2.20331 12 17 30
-1.97440 -4.08315 2.18245 14 16 18
-1.98795 -4.09291 2.18660 13 16 20
-1.97606 -4.11749 2.21429 21 25 45
-1.96049 -4.14978 2.22782 33 44 56
-1.97166 -4.16164 2.23284 64 75 70
-1.98933 -4.16845 2.23576 95 102 105
-1.99612 -4.18376 2.24222 108 101 102
-2.01580 -4.18895 2.24446 106 88 95
-2.03251 -4.21731 2.25644 124 104 97
-2.06095 -4.21535 2.25571 136 118 106
-2.07867 -4.22683 2.24299 153 138 121
-2.09903 -4.20541 2.25166 144 129 112
-2.13907 -4.19360 2.24682 154 141 127
-2.15656 -4.20493 2.23427 174 165 143
-2.16983 -4.18915 2.24505 168 156 154
-2.18368 -4.19852 2.24903 174 160 159
-2.21888 -4.19007 2.24559 138 115 107
-2.24034 -4.19292 2.24686 59 38 36
-2.25825 -4.19869 2.24934 28 18 28
-2.27389 -4.20633 2.25261 34 21 42
-2.29189 -4.21192 2.25502 42 33 48
-2.31648 -4.21177 2.25503 71 66 64
-2.38139 -4.17648 2.24041 112 111 92
-2.43174 -4.15331 2.23083 147 147 130
-2.43082 -4.17483 2.23988 167 171 156
-2.44392 -4.18410 2.24381 172 183 165
-2.48161 -4.19231 2.24739 160 170 187
-2.49181 -4.22526 2.26127 149 149 179
-2.50716 -4.23248 2.26436 147 146 178
-2.50947 -4.25171 2.27245 140 141 172
-2.58262 -4.20526 2.25316 112 109 140
-2.58056 -4.22840 2.26288 57 65 93
-2.58162 -4.24879 2.27146 19 39 59
-2.59663 -4.25611 2.27458 13 23 52
-2.61331 -4.26692 2.26260 33 37 47
-2.58712 -4.28679 2.28745 22 23 58
-2.58946 -4.30639 2.29570 36 35 52
-2.60632 -4.31731 2.28360 42 22 20
-2.64358 -4.40951 2.33923 42 13 10
-2.63972 -4.40796 2.35550 23 25 31
-2.65290 -4.41745 2.35953 22 30 36
-2.68956 -4.38574 2.32938 45 13 13
-2.69843 -4.39941 2.33516 51 20 23
-2.71518 -4.42794 2.34721 101 75 64
-2.73725 -4.42804 2.34732 146 116 97
-2.74149 -4.44672 2.35519 192 177 163
-2.75844 -4.45770 2.34302 225 224 225
-2.76010 -4.45035 2.35677 222 223 219
-2.77702 -4.46131 2.34462 226 224 220
-2.96272 -4.65937 2.44530 236 226 190
-2.97869 -4.69118 2.45873 133 109 44
-3.01369 -4.67414 2.45167 99 69 32
-3.03073 -4.68518 2.43944 134 102 48
-3.14807 -4.60923 2.42483 92 99 113
-3.13901 -4.60152 2.40510 89 73 44
-3.16174 -4.61736 2.42829 102 115 152
-3.14560 -4.66357 2.44766 142 158 198
-3.16232 -4.67440 2.43565 113 124 162
-3.17248 -4.65493 2.44412 194 211 234
-3.28694 -4.71341 2.46907 249 248 235
-3.27788 -4.70569 2.44933 241 242 239
-3.29070 -4.71492 2.45325 244 247 243
-3.30351 -4.72415 2.45717 248 250 244
-3.36296 -4.68870 2.45893 192 178 193
-3.37708 -4.69570 2.46192 197 206 236
-3.40505 -4.68309 2.45671 227 247 254
-3.41392 -4.69065 2.47604 254 254 254
-3.42410 -4.68285 2.45667 242 253 254
-3.43296 -4.69039 2.47595 254 254 254
-3.43662 -4.69186 2.46050 251 254 254
-3.91223 -4.84202 2.52517 253 254 253
-3.89661 -4.83190 2.53638 254 254 254
-3.90015 -4.83332 2.52147 254 254 254
-3.90869 -4.84060 2.54007 254 254 253
-3.92077 -4.84929 2.54377 254 254 251
-3.92387 -4.85153 2.52920 246 254 252
-3.93241 -4.85880 2.54781 254 254 253
-3.93948 -4.86165 2.51799 170 151 192
-3.93360 -4.86462 2.53474 236 252 250
-3.94924 -4.87475 2.52351 146 135 169
-3.94361 -4.87727 2.54009 228 236 244
-3.95720 -4.88315 2.54261 217 218 243
-3.96132 -4.90719 2.55273 194 173 218
-3.97460 -4.91374 2.55552 158 146 181
-3.99030 -4.92391 2.54425 134 130 130
-3.98295 -4.92990 2.56234 140 137 163
-3.99867 -4.94009 2.55105 136 134 127
-4.00564 -4.95064 2.57114 140 130 137
-4.02138 -4.96084 2.55984 141 134 126
-4.02513 -4.94474 2.56872 139 125 134
-4.04081 -4.95490 2.55746 141 136 134
-4.10409 -5.05337 2.61464 123 128 124
-4.10861 -5.07895 2.62541 109 114 119
-4.10417 -5.12442 2.64451 93 95 110
-4.11001 -5.14786 2.65438 76 81 97
-4.12611 -5.15829 2.64282 52 65 69
-4.12197 -5.15792 2.65865 64 75 91
-4.13808 -5.16835 2.64709 54 65 79
-4.13233 -5.17160 2.66444 62 73 92
-4.14846 -5.18204 2.65286 57 65 81
-4.16080 -5.18149 2.66869 58 65 84
-4.17689 -5.19192 2.65713 57 66 77
-4.45441 -5.84973 2.95057 67 76 104
-4.48550 -5.80287 2.93096 155 190 178
-4.50275 -5.81404 2.91858 183 200 205
0.77068 -3.97289 2.12166 136 119 95
0.79375 -3.95795 2.13823 151 132 118
0.78330 -3.96215 2.09418 152 139 110
0.77590 -3.97079 2.14368 126 108 100
0.75806 -3.98364 2.14914 85 85 92
0.75284 -3.98574 2.12712 100 85 89
-1.09371 -3.94676 2.12078 206 191 179
-1.08332 -3.93791 2.09815 205 195 184
-1.09801 -3.94848 2.10265 205 194 186
-1.11270 -3.95906 2.10714 207 196 188
-1.15762 -3.94722 2.12131 203 187 170
-1.19577 -3.94350 2.11997 198 184 165
-1.22155 -3.94711 2.12161 194 180 157
-1.25768 -3.94430 2.12063 191 176 140
-1.31464 -3.92849 2.11434 188 171 135
-1.50484 -3.86680 2.08961 160 135 86
-1.57297 -3.84242 2.07980 145 120 82
-1.59822 -3.86341 2.08870 115 94 60
-1.56237 -3.90518 2.10594 94 72 34
-1.59339 -3.92286 2.11349 47 29 31
-1.60315 -3.93118 2.13476 27 27 48
-1.60720 -3.93281 2.11772 34 21 46
-2.02779 -4.08250 2.18247 12 15 24
-2.01827 -4.07440 2.16175 13 15 14
-2.03173 -4.08409 2.16586 12 12 9
-2.04518 -4.09377 2.16998 15 9 20
-2.03553 -4.09659 2.18839 16 16 33
-2.05296 -4.10788 2.17588 9 6 32
-2.03427 -4.11775 2.19721 18 22 47
-2.03239 -4.13953 2.20630 24 36 61
-2.03561 -4.15746 2.21380 77 81 86
-2.03343 -4.17978 2.22310 121 104 98
-2.05110 -4.19123 2.21042 139 124 106
-2.05011 -4.18722 2.22630 137 121 90
-2.06777 -4.19866 2.21362 145 130 113
-2.07195 -4.19049 2.22778 143 129 103
-2.08957 -4.20191 2.21513 149 134 117
-2.10766 -4.18245 2.22462 147 134 112
-2.16664 -4.17586 2.22218 161 150 128
-2.20752 -4.18358 2.22563 176 164 149
-2.25067 -4.16835 2.21950 147 129 99
-2.25933 -4.18180 2.22516 69 58 40
-2.28829 -4.17812 2.22378 61 72 75
-2.33061 -4.16286 2.21764 113 125 128
-2.37609 -4.14456 2.21024 153 154 145
-2.39292 -4.15546 2.19816 172 185 192
-2.37801 -4.16353 2.21817 170 173 155
-2.39249 -4.17169 2.22166 174 184 167
-2.41460 -4.17316 2.22239 175 187 180
-2.43347 -4.17738 2.22425 172 181 183
-2.45038 -4.18328 2.22681 161 168 182
-2.45846 -4.19700 2.23258 143 137 171
-2.50310 -4.17791 2.22485 129 107 160
-2.53098 -4.17361 2.22321 123 95 158
-2.55557 -4.17212 2.22272 122 95 159
-2.56817 -4.18150 2.22670 122 95 160
-2.57790 -4.19353 2.23177 125 90 146
-2.58862 -4.20468 2.23649 90 55 102
-2.57770 -4.23612 2.24955 33 24 57
-2.58664 -4.24915 2.25504 20 32 41
-2.59805 -4.25986 2.25957 28 39 39
-2.59476 -4.44117 2.33524 132 101 53
-2.65359 -4.42771 2.32993 162 123 47
-2.73218 -4.37032 2.30640 193 167 112
-2.74892 -4.38117 2.29438 229 225 210
-2.66655 -4.46060 2.34373 214 200 146
-2.68371 -4.47171 2.33142 225 223 219
-2.73382 -4.43716 2.33431 230 225 193
-2.75076 -4.44814 2.32215 224 222 220
-2.75617 -4.43687 2.33431 228 223 209
-2.77306 -4.44781 2.32218 223 221 224
-3.01192 -4.63165 2.41699 234 233 215
-3.00267 -4.62377 2.39684 226 225 221
-3.01575 -4.63319 2.40084 226 228 226
-3.02884 -4.64261 2.40484 230 229 226
-3.03683 -4.62667 2.41505 234 225 176
-3.04125 -4.64662 2.42340 202 180 115
-3.16662 -4.59207 2.40130 92 85 73
-3.15761 -4.58439 2.38168 137 93 49
-3.19967 -4.57542 2.39453 97 90 91
-3.21917 -4.57575 2.39477 96 99 116
-3.24544 -4.59257 2.40193 156 173 206
-3.25436 -4.60016 2.42136 238 239 241
-3.25805 -4.60164 2.40579 204 221 236
-3.26174 -4.60313 2.39023 122 138 174
-3.34279 -4.69668 2.44592 246 246 234
-3.33381 -4.68904 2.42638 246 245 245
-3.34650 -4.69817 2.43026 249 248 247
-3.35919 -4.70731 2.43414 252 250 244
-3.42265 -4.69163 2.44424 206 210 240
-3.45104 -4.67787 2.43865 233 248 254
-3.45985 -4.68538 2.45785 254 254 254
-3.47407 -4.67151 2.43612 246 253 254
-3.48285 -4.67899 2.45524 254 254 254
-3.48649 -4.68045 2.43992 253 254 254
-3.88381 -4.80965 2.49599 250 254 254
-3.89233 -4.81691 2.51455 254 254 254
-3.89457 -4.82066 2.50064 240 253 254
-3.90635 -4.82986 2.50454 227 242 249
-3.91904 -4.83739 2.50776 220 225 240
-3.93141 -4.84549 2.51120 201 191 230
-3.96042 -4.88520 2.52794 140 135 159
-3.95186 -4.87792 2.50930 136 128 129
-3.96396 -4.88663 2.51300 138 134 121
-3.97606 -4.89534 2.51671 139 135 123
-3.97234 -4.89424 2.53177 137 126 149
-3.98799 -4.90438 2.52054 140 138 131
-3.98304 -4.90568 2.53661 135 126 136
-3.99869 -4.91582 2.52537 139 141 126
-4.04527 -4.97930 2.56767 136 138 131
-4.06300 -4.97661 2.56665 132 138 125
-4.07266 -4.99051 2.57250 127 128 119
-4.08037 -5.04314 2.59451 97 101 114
-4.07609 -5.08731 2.61293 81 87 96
-4.09208 -5.09767 2.60144 50 67 61
-4.09178 -5.12480 2.62866 62 71 86
-4.10786 -5.13522 2.61712 53 66 69
-4.10355 -5.13521 2.63307 58 65 84
-4.11963 -5.14563 2.62152 54 68 65
-4.11283 -5.15115 2.63977 53 63 71
-4.12894 -5.16159 2.62821 55 68 69
-4.44078 -5.85448 2.93513 45 62 90
-4.42328 -5.84314 2.94770 63 73 84
-4.42725 -5.84474 2.93099 60 73 83
-4.43121 -5.84633 2.91429 60 73 82
-4.45123 -5.87406 2.94336 88 108 127
-4.48582 -5.81601 2.91931 166 197 195
-4.50311 -5.82721 2.90690 182 197 201
0.76254 -3.97374 2.09914 146 128 103
0.77515 -3.96299 2.07167 152 137 116
0.75732 -3.97584 2.07712 148 132 111
-1.20912 -3.93971 2.09984 203 195 180
-1.19888 -3.93099 2.07753 207 197 189
-1.21336 -3.94142 2.08196 203 196 186
-1.22785 -3.95185 2.08640 199 193 182
-1.23529 -3.94304 2.10142 200 192 174
-1.25397 -3.95514 2.08800 196 189 175
-1.29694 -3.92454 2.09421 198 189 167
-1.31543 -3.93652 2.08093 193 186 175
-1.34172 -3.91605 2.09103 196 186 167
-1.36010 -3.92795 2.07784 190 182 175
-1.37714 -3.91312 2.09008 193 183 168
-1.39543 -3.92497 2.07695 188 179 170
-1.41960 -3.90562 2.08729 190 181 156
-1.43777 -3.91740 2.07424 186 175 159
-1.45920 -3.89967 2.08513 187 172 139
-1.49073 -3.89863 2.08493 180 162 133
-1.52778 -3.89391 2.08326 173 153 126
-1.55480 -3.89544 2.08409 164 143 106
-1.60066 -3.88468 2.07998 151 127 79
-1.60971 -3.89759 2.08539 131 103 60
-1.61764 -3.91126 2.09112 110 78 46
-1.65949 -3.92152 2.09569 54 28 28
-1.66918 -3.92977 2.11678 30 31 33
-1.83790 -3.91428 2.09402 29 30 37
-1.82059 -3.90306 2.10645 37 29 45
-1.82451 -3.90464 2.08993 37 38 49
-1.82843 -3.90622 2.07341 36 25 29
-1.83398 -3.91270 2.11054 31 27 44
-1.84736 -3.92234 2.11464 26 25 40
-1.85496 -3.92136 2.09709 22 20 30
-1.86442 -3.92941 2.11768 21 22 35
-1.88606 -3.91859 2.09617 16 16 27
-1.89937 -3.92818 2.10025 12 15 19
-1.94053 -3.93698 2.10421 14 10 15
-1.92726 -3.92743 2.10015 9 9 13
-1.93664 -3.93542 2.12058 12 12 24
-1.94991 -3.94497 2.12464 22 16 35
-1.95441 -3.94610 2.10809 21 11 29
-1.96379 -3.95409 2.12852 24 22 52
-1.96653 -3.95648 2.11248 30 18 44
-1.97591 -3.96447 2.13292 31 22 44
-1.98859 -3.95963 2.11395 33 16 37
-1.99796 -3.96760 2.13434 27 22 40
-2.00183 -3.96916 2.11800 30 17 38
-2.05193 -4.12894 2.18460 18 24 29
-2.06118 -4.14205 2.19011 70 72 76
-2.17048 -4.15688 2.19708 154 139 127
-2.16101 -4.14882 2.17645 152 138 125
-2.17440 -4.15846 2.18055 152 144 136
-2.18773 -4.16336 2.19989 159 153 136
-2.20268 -4.17170 2.20346 159 164 146
-2.22397 -4.17474 2.20488 156 156 148
-2.25885 -4.16633 2.20165 142 138 116
-2.28507 -4.16497 2.20129 87 82 64
-2.30991 -4.16462 2.20133 43 53 61
-2.33446 -4.16441 2.20142 78 110 135
-2.36072 -4.16258 2.20087 142 170 191
-2.39632 -4.17322 2.20554 171 180 179
-2.42408 -4.16973 2.20430 156 167 172
-2.45242 -4.16554 2.20278 127 142 161
-2.48856 -4.15424 2.19837 108 105 160
-2.52122 -4.14577 2.19511 111 88 163
-2.53670 -4.15255 2.19803 120 93 158
-2.55031 -4.16100 2.20163 121 95 154
-2.55932 -4.17363 2.20694 118 92 153
-2.57165 -4.18325 2.21102 118 89 150
-2.58249 -4.19426 2.21566 129 101 146
-2.59903 -4.20498 2.20379 109 76 103
-2.59036 -4.20806 2.22144 108 85 115
-2.58095 -4.23814 2.23384 55 35 54
-2.58572 -4.25510 2.24090 33 11 13
-2.59557 -4.26735 2.24605 35 10 13
-2.61264 -4.27271 2.24840 48 16 19
-2.62485 -4.32659 2.27083 156 124 50
-2.65045 -4.36818 2.28826 253 247 198
-2.66737 -4.37914 2.27611 254 254 254
-2.68406 -4.42505 2.31208 238 231 197
-2.70108 -4.43607 2.29987 239 242 231
-3.01511 -4.48622 2.33992 230 223 227
-2.99863 -4.47554 2.35176 228 228 227
-3.00236 -4.47704 2.33602 228 223 223
-3.01138 -4.48472 2.35566 229 229 227
-3.02413 -4.49390 2.35956 229 230 229
-3.03160 -4.49690 2.32809 254 254 251
-3.06793 -4.62009 2.39580 237 235 212
-3.07173 -4.62162 2.37979 232 230 226
-3.13545 -4.58695 2.38257 196 171 106
-3.17215 -4.59129 2.38465 104 66 30
-3.20317 -4.57716 2.37903 96 72 48
-3.22017 -4.58069 2.38062 96 84 76
-3.26906 -4.54293 2.36533 99 93 101
-3.36705 -4.53999 2.36485 238 244 244
-3.37574 -4.54739 2.38378 240 239 238
-3.37934 -4.54884 2.36861 244 244 240
-3.43155 -4.65883 2.41459 241 231 215
-3.42274 -4.65133 2.39541 249 248 249
-3.43520 -4.66030 2.39922 253 251 246
-3.44765 -4.66927 2.40303 252 248 234
-3.43592 -4.67938 2.42314 222 210 197
-3.45207 -4.68985 2.41154 241 233 219
-3.46368 -4.66637 2.41796 210 191 188
-3.47262 -4.68037 2.42383 217 214 242
-3.48870 -4.69079 2.41228 210 205 218
-3.49006 -4.68199 2.42463 234 247 254
-3.49884 -4.68947 2.44375 254 254 254
-3.50399 -4.68870 2.42752 242 248 253
-3.51276 -4.69618 2.44662 254 254 254
-3.87301 -4.77633 2.46661 232 250 250
-3.88107 -4.79202 2.47317 225 232 240
-3.92286 -4.83827 2.49265 131 130 155
-3.93845 -4.84837 2.48146 135 130 124
-3.93646 -4.84407 2.49516 134 124 156
-3.95203 -4.85416 2.48398 141 133 125
-4.00432 -4.93739 2.53435 138 139 124
-4.01489 -4.94927 2.53935 135 138 122
-4.02837 -4.95537 2.54198 130 135 120
-4.03665 -4.97198 2.54893 123 121 125
-4.04050 -4.99781 2.55966 105 107 116
-4.06823 -4.97458 2.55024 85 92 103
-4.08391 -4.98474 2.53898 54 60 81
-4.04624 -5.05443 2.58317 69 75 91
-4.06221 -5.06478 2.57171 51 61 75
-4.04929 -5.08288 2.59499 59 68 86
-4.06534 -5.09327 2.58347 49 64 71
-4.06125 -5.09279 2.59918 53 64 81
-4.07729 -5.10318 2.58766 49 66 67
-4.43901 -5.87421 2.92590 40 64 86
-4.42941 -5.86603 2.90497 61 72 76
-4.45972 -5.86121 2.92067 106 139 134
-4.48856 -5.82139 2.90438 170 197 198
-4.50586 -5.83260 2.89196 183 196 198
-1.49081 -3.90280 2.06875 183 168 150
-1.48095 -3.89441 2.04728 182 170 159
-1.49489 -3.90444 2.05155 180 167 152
-1.50883 -3.91448 2.05581 177 162 152
-1.52874 -3.89752 2.06694 178 161 146
-1.54666 -3.90914 2.05407 175 160 150
-1.55182 -3.90158 2.06883 174 158 137
-1.56971 -3.91317 2.05599 173 159 146
-1.57489 -3.90557 2.07070 170 153 125
-1.62754 -3.90903 2.07263 155 127 100
-1.66662 -3.92107 2.07796 115 78 40
-1.67691 -3.93320 2.08305 85 56 38
-1.85158 -3.90910 2.07482 29 14 17
-1.84214 -3.90106 2.05425 78 45 22
-1.87158 -3.91409 2.07707 25 7 13
-1.89333 -3.91779 2.07880 24 7 14
-1.91195 -3.92362 2.08138 27 14 18
-1.93321 -3.92753 2.08319 35 30 28
-1.94949 -3.93492 2.08639 37 32 26
-1.96670 -3.94161 2.08931 41 30 33
-1.98660 -3.94631 2.09143 71 74 91
-2.00556 -3.95164 2.09381 54 58 78
-2.02312 -3.95794 2.09657 37 28 37
-2.03244 -3.96588 2.11687 25 22 38
-2.03630 -3.96743 2.10060 26 24 37
-2.05503 -4.07078 2.14332 13 6 7
-2.04164 -4.06114 2.13922 9 10 17
-2.06222 -4.08522 2.14932 25 9 19
-2.05532 -4.11070 2.15974 35 28 45
-2.08907 -4.10451 2.15752 69 61 58
-2.06831 -4.14114 2.17240 111 95 94
-2.12264 -4.11845 2.16358 135 120 109
-2.13995 -4.12967 2.15116 154 136 120
-2.13317 -4.13037 2.16859 147 131 114
-2.14657 -4.14002 2.17269 151 135 125
-2.15049 -4.14160 2.15616 154 139 126
-2.20463 -4.15427 2.17911 135 134 146
-2.25235 -4.13542 2.17182 102 101 133
-2.28577 -4.12810 2.16913 85 84 119
-2.29891 -4.13756 2.17315 87 92 112
-2.29452 -4.16181 2.18308 85 88 88
-2.31159 -4.17287 2.17083 24 30 31
-2.35727 -4.12922 2.17028 47 45 40
-2.37410 -4.14012 2.15819 18 30 27
-2.36578 -4.14245 2.17580 18 35 58
-2.35144 -4.17541 2.18923 67 100 132
-2.38566 -4.16660 2.18593 124 159 185
-2.41037 -4.16583 2.18586 127 140 161
-2.48101 -4.12458 2.16956 94 98 130
-2.49757 -4.13531 2.15767 24 9 30
-2.51602 -4.11416 2.16561 46 59 97
-2.53568 -4.11715 2.16703 33 27 85
-2.54867 -4.12603 2.17081 63 41 107
-2.56508 -4.13667 2.15902 76 29 94
-2.55856 -4.13770 2.17571 87 62 120
-2.57499 -4.14834 2.16391 78 30 81
-2.57497 -4.14349 2.17825 89 52 116
-2.57748 -4.16194 2.18587 86 41 109
-2.58165 -4.17899 2.19292 87 46 110
-2.59010 -4.19218 2.19843 98 65 113
-2.60761 -4.21816 2.20929 105 66 67
-2.62874 -4.21951 2.21005 114 75 48
-2.63342 -4.23642 2.21705 153 125 71
-2.66103 -4.23145 2.21528 203 182 99
-2.64368 -4.29148 2.23981 253 249 208
-2.66038 -4.30231 2.22782 254 254 254
-2.64481 -4.31232 2.24840 254 251 207
-2.66158 -4.32318 2.23636 254 254 254
-2.68506 -4.38390 2.27824 254 254 253
-2.68888 -4.38543 2.26211 254 254 254
-2.70195 -4.39484 2.26611 254 254 254
-2.70683 -4.38442 2.27867 254 254 249
-2.72368 -4.39534 2.26657 254 254 253
-3.03806 -4.39474 2.28611 224 216 216
-3.02189 -4.38427 2.29772 219 219 217
-3.02555 -4.38574 2.28228 221 214 213
-3.03440 -4.39327 2.30154 221 222 221
-3.04690 -4.40228 2.30537 222 222 224
-3.03759 -4.41862 2.29593 227 228 229
-3.05383 -4.42914 2.28427 254 254 253
-3.03351 -4.47066 2.31731 253 251 247
-3.04992 -4.48129 2.30553 254 254 254
-3.02025 -4.53450 2.34345 254 252 249
-3.02402 -4.53601 2.32758 254 254 254
-3.03687 -4.54527 2.33151 254 254 254
-3.05459 -4.59225 2.36754 232 229 227
-3.10646 -4.62932 2.38330 236 233 206
-3.15288 -4.59653 2.37025 227 215 166
-3.16940 -4.60723 2.35839 243 237 208
-3.20807 -4.55202 2.35247 191 159 95
-3.21903 -4.56314 2.35715 138 84 42
-3.21847 -4.58911 2.36783 105 65 43
-3.29776 -4.53696 2.34714 100 91 78
-3.31380 -4.54735 2.33562 100 83 57
-3.32347 -4.52842 2.34387 100 98 103
-3.33942 -4.53876 2.33242 104 96 81
-3.34860 -4.52038 2.34080 109 116 131
-3.39030 -4.54033 2.34941 228 239 246
-3.39897 -4.54771 2.36829 243 241 238
-3.40614 -4.55060 2.33804 208 219 237
-3.40790 -4.54188 2.35022 241 244 242
-3.41654 -4.54925 2.36906 242 242 241
-3.42013 -4.55069 2.35396 243 243 241
-3.47432 -4.68466 2.40962 220 215 219
-3.46551 -4.67717 2.39045 253 252 248
-3.50917 -4.68788 2.41128 216 213 227
-3.51280 -4.68934 2.39598 253 251 244
-3.51727 -4.70320 2.41766 233 231 241
-3.53333 -4.71360 2.40613 253 253 252
-3.82179 -4.69663 2.41790 253 254 254
-3.80641 -4.68667 2.42894 254 254 254
-3.80989 -4.68807 2.41426 254 254 254
-3.81831 -4.69523 2.43258 254 254 254
-3.83021 -4.70380 2.43622 254 254 254
-3.82292 -4.81238 2.46554 217 214 232
-3.85895 -4.77896 2.45213 194 184 215
-3.86460 -4.79898 2.46043 155 145 173
-3.87950 -4.80257 2.46205 136 140 161
-3.89508 -4.81266 2.45086 134 129 127
-3.89090 -4.81241 2.46621 131 132 162
-3.90648 -4.82251 2.45502 137 130 127
-3.90283 -4.82132 2.46999 132 123 147
-3.91841 -4.83141 2.45880 138 132 129
-3.99031 -4.90818 2.50658 131 138 134
-4.01925 -4.94911 2.52370 91 94 104
-4.02840 -4.96392 2.52988 74 79 84
-4.04414 -4.97412 2.51858 51 58 72
-4.04650 -5.02838 2.55658 55 61 87
