ply
format ascii 1.0
element face 0
property list uchar int vertex_indices
element vertex 1277
property float x
property float y
property float z
property uchar diffuse_red
property uchar diffuse_green
property uchar diffuse_blue
end_header
-4.04817 -5.14774 0.53822 159 166 158
-4.08174 -5.15168 0.54247 181 183 170
-4.10033 -5.15557 0.52751 179 187 173
-4.12133 -5.11717 0.54833 182 188 189
-4.13905 -5.11173 0.55073 199 205 201
-4.15743 -5.11558 0.53595 206 215 207
-4.17190 -5.11703 0.55485 201 204 199
-4.17410 -5.11652 0.53809 205 207 205
-4.26979 -5.13580 0.56707 183 192 193
-4.25146 -5.13196 0.58182 184 191 194
-4.25365 -5.13146 0.56509 181 188 190
-4.28373 -5.14065 0.58579 198 208 205
-4.28598 -5.13967 0.56908 199 208 206
-4.30212 -5.14402 0.57107 204 210 208
-4.30431 -5.14351 0.55433 208 210 213
-5.17340 -5.37912 0.67835 198 207 197
-5.15726 -5.37478 0.67636 184 192 190
-5.17560 -5.37862 0.66161 205 213 201
-5.18954 -5.38346 0.68033 200 208 204
-5.19173 -5.38296 0.66360 198 205 201
-5.45713 -5.40430 0.71440 190 192 197
-5.43899 -5.40051 0.72899 201 208 205
-5.44334 -5.39951 0.69589 190 190 189
-5.45495 -5.40480 0.73096 205 209 206
-5.45930 -5.40380 0.69785 182 182 183
-5.47091 -5.40910 0.73292 206 210 197
-5.47238 -5.40315 0.71640 194 198 197
-5.48615 -5.40794 0.73490 201 205 190
-5.48832 -5.40745 0.71836 197 203 195
-2.07311 -4.39100 0.28344 128 111 91
-2.05962 -4.38631 0.26532 131 117 90
-2.07524 -4.39051 0.26724 127 112 93
-2.09085 -4.39471 0.26917 131 110 87
-2.09184 -4.39087 0.28587 126 106 80
-2.11444 -4.38526 0.28895 104 96 70
-2.16049 -4.34643 0.29593 88 69 42
-2.17437 -4.35271 0.29757 59 44 18
-2.19536 -4.34884 0.30040 40 26 25
-2.21267 -4.35017 0.30262 25 15 17
-3.24716 -3.80263 0.45102 31 38 46
-3.26139 -3.80561 0.43957 36 37 53
-3.25642 -3.81270 0.45196 44 50 66
-3.49919 -3.86639 0.48216 28 30 41
-3.48668 -3.86302 0.48062 35 35 47
-3.51340 -3.86937 0.47072 21 19 22
-3.51240 -3.86802 0.48383 24 23 34
-3.52661 -3.87100 0.47240 23 21 24
-3.58778 -4.00014 0.49027 43 53 61
-3.57664 -3.99626 0.47532 41 47 72
-3.60242 -4.00320 0.47849 145 163 168
-3.59129 -4.02958 0.48998 97 110 99
-3.96727 -5.04323 0.51307 143 150 141
-3.95337 -5.03840 0.49439 123 132 130
-3.98557 -5.04706 0.49836 152 158 150
-4.06395 -5.16837 0.52246 168 174 165
-4.04975 -5.16343 0.50338 151 158 154
-4.06619 -5.16785 0.50541 166 173 167
-4.08263 -5.17227 0.50743 165 168 172
-4.08249 -5.16013 0.52508 176 182 172
-4.12262 -5.12247 0.53125 179 182 175
-4.14163 -5.10879 0.53407 194 203 198
-4.16000 -5.11263 0.51930 195 202 200
-4.25559 -5.13302 0.54827 191 193 193
-4.23944 -5.12867 0.54628 196 201 202
-4.24164 -5.12817 0.52954 200 204 206
-4.27208 -5.13454 0.55037 199 201 198
-4.29041 -5.13838 0.53563 213 215 217
-4.28815 -5.13940 0.55234 207 210 210
-4.30648 -5.14324 0.53759 210 213 219
-5.47424 -5.40026 0.69988 187 190 190
-5.46047 -5.39547 0.68140 189 188 185
-5.49234 -5.40405 0.68532 207 210 204
-5.48895 -5.39542 0.70192 197 205 197
-5.50269 -5.40020 0.72037 192 198 192
-5.50486 -5.39970 0.70388 204 212 198
-5.50702 -5.39920 0.68738 209 210 205
-2.12142 -4.37795 0.27366 120 112 85
-2.10800 -4.37329 0.25564 131 112 89
-2.12353 -4.37747 0.25755 121 111 88
-2.13906 -4.38165 0.25946 123 112 93
-2.14103 -4.37637 0.27627 117 102 73
-2.19906 -4.34606 0.28475 51 38 38
-2.21467 -4.34981 0.28669 28 18 29
-2.24009 -4.33934 0.29032 13 9 15
-2.25329 -4.34393 0.30806 18 12 5
-2.25641 -4.34194 0.29238 24 11 6
-2.26961 -4.34653 0.31011 23 16 28
-2.27169 -4.34605 0.29426 20 17 34
-2.30225 -4.32753 0.29880 125 130 118
-2.30018 -4.32801 0.31456 102 107 84
-2.30432 -4.32705 0.28305 69 70 77
-2.31538 -4.33209 0.31643 96 77 52
-2.32162 -4.32538 0.30140 155 158 129
-2.33472 -4.32994 0.31900 70 61 29
-2.33679 -4.32946 0.30327 112 104 61
-3.38065 -3.85285 0.45382 41 50 52
-3.36636 -3.84986 0.46531 39 36 41
-3.36807 -3.84946 0.45227 34 40 45
-3.36978 -3.84907 0.43922 25 27 33
-3.39152 -3.85663 0.46841 49 58 58
-3.39323 -3.85623 0.45536 46 50 53
-3.48387 -3.87363 0.46673 25 21 28
-3.47302 -3.86986 0.45216 22 24 24
-3.48557 -3.87323 0.45371 20 19 21
-3.49813 -3.87661 0.45526 19 17 16
-3.57978 -4.02648 0.47485 84 100 111
-3.59983 -4.05008 0.47679 169 183 187
-3.61288 -4.05359 0.47840 150 154 150
-3.61466 -4.05318 0.46487 149 155 150
-4.10263 -5.15460 0.51057 179 187 176
-4.10486 -5.15409 0.49360 182 190 189
-4.12122 -5.15849 0.49561 190 197 188
-4.12368 -5.12925 0.51406 185 189 173
-4.14215 -5.13312 0.49920 191 195 195
-4.14409 -5.10660 0.51739 188 195 193
-4.16245 -5.11045 0.50262 194 199 200
-4.25792 -5.13145 0.53158 204 207 207
-4.24398 -5.12660 0.51285 208 213 215
-4.26012 -5.13095 0.51484 209 213 216
-4.27625 -5.13529 0.51683 212 214 218
-4.27442 -5.13291 0.53369 211 211 211
-4.29274 -5.13674 0.51895 214 216 218
-2.16441 -4.37187 0.26313 125 116 74
-2.15104 -4.36722 0.24518 128 120 93
-2.20195 -4.34444 0.26898 68 61 47
-2.21759 -4.34813 0.27092 39 25 32
-2.24373 -4.33658 0.27475 28 18 16
-2.26006 -4.33916 0.27681 34 24 16
-2.27950 -4.33714 0.27945 23 13 30
-2.32640 -4.32085 0.28617 148 160 139
-2.32847 -4.32038 0.27046 99 102 77
-2.33716 -4.33153 0.28724 151 152 123
-2.35027 -4.33609 0.30484 71 65 41
-2.35234 -4.33562 0.28911 78 64 37
-2.35440 -4.33514 0.27337 80 67 39
-3.02851 -4.03542 0.38811 81 89 75
-3.01313 -4.03220 0.40048 15 12 23
-3.01498 -4.03178 0.38645 10 10 25
-3.02666 -4.03585 0.40214 51 52 41
-3.04019 -4.03949 0.40381 54 42 38
-3.04203 -4.03906 0.38978 91 80 61
-3.56002 -3.96927 0.46040 30 36 46
-3.54546 -3.96622 0.47211 35 35 37
-3.54721 -3.96582 0.45882 37 43 43
-3.55828 -3.96967 0.47369 30 39 43
-3.57109 -3.97312 0.47526 36 43 47
-3.56763 -3.98670 0.46083 50 54 55
-3.56933 -4.02047 0.45995 91 107 121
-3.58408 -4.02356 0.44809 176 187 197
-3.57582 -4.04180 0.46011 148 163 174
-3.59064 -4.04490 0.44819 172 183 195
-3.58994 -4.04231 0.46196 170 182 195
-3.60475 -4.04541 0.45005 170 181 189
-4.03875 -5.23993 0.48207 161 164 160
-4.01976 -5.23596 0.49735 149 155 148
-4.02203 -5.23543 0.48002 156 159 150
-4.05774 -5.24391 0.46680 184 188 179
-4.05632 -5.23933 0.48441 173 176 170
-4.07529 -5.24330 0.46915 181 187 185
-5.47653 -5.38368 0.66707 195 196 201
-5.46280 -5.37891 0.64864 183 181 182
-2.17150 -4.36429 0.24800 127 117 86
-2.15816 -4.35965 0.23008 131 120 93
-2.17360 -4.36381 0.23199 127 115 88
-2.18933 -4.36503 0.25034 96 87 63
-2.21780 -4.35037 0.25466 80 66 39
-2.23960 -4.34514 0.25775 74 61 35
-2.26378 -4.33629 0.26128 57 55 45
-2.27915 -4.34023 0.26318 43 28 30
-2.30267 -4.33209 0.26660 47 38 27
-2.33784 -4.33315 0.27124 133 132 105
-2.33990 -4.33267 0.25549 107 101 65
-2.35509 -4.33676 0.25736 87 78 54
-3.01694 -4.03112 0.37244 8 9 25
-3.00157 -4.02791 0.38481 16 14 12
-3.00341 -4.02748 0.37078 17 13 9
-3.00526 -4.02706 0.35675 16 13 5
-3.03035 -4.03500 0.37408 94 99 101
-3.04229 -4.04169 0.37543 144 142 125
-3.05399 -4.04576 0.39114 55 38 32
-3.06587 -4.02578 0.37914 111 90 73
-3.07750 -4.02983 0.39476 33 21 21
-3.07934 -4.02941 0.38080 67 43 35
-3.53769 -3.95793 0.44431 31 26 33
-3.52315 -3.95489 0.45600 27 28 25
-3.52489 -3.95449 0.44273 23 31 22
-3.53595 -3.95833 0.45758 32 31 35
-3.54791 -3.96815 0.44529 36 43 44
-3.55481 -3.98738 0.44551 60 62 82
-3.56177 -4.00676 0.44573 116 127 123
-3.57331 -4.01405 0.44700 162 183 181
-3.58803 -4.01713 0.43516 178 187 198
-4.01204 -5.20556 0.46212 161 169 158
-4.03767 -5.25897 0.46359 175 179 171
-4.05674 -5.26296 0.44825 183 189 181
-5.49279 -5.37430 0.65280 191 193 201
-5.47911 -5.36954 0.63442 176 182 183
-5.49495 -5.37380 0.63637 185 187 193
-5.50864 -5.37856 0.65475 195 192 197
-5.51079 -5.37807 0.63832 191 190 193
-2.19996 -4.35232 0.23597 122 111 84
-2.18667 -4.34770 0.21813 118 110 89
-2.20205 -4.35183 0.22002 119 108 88
-2.21743 -4.35597 0.22192 124 114 95
-2.21772 -4.35302 0.23832 124 115 80
-2.23341 -4.35668 0.24028 123 109 75
-2.26382 -4.33879 0.24506 94 83 72
-2.28117 -4.34243 0.23110 127 117 81
-2.28192 -4.33874 0.24749 87 74 44
-2.29926 -4.34237 0.23354 127 111 80
-2.29966 -4.33916 0.24984 91 75 40
-2.31698 -4.34279 0.23591 118 104 81
-2.32036 -4.33511 0.25278 91 85 63
-2.33764 -4.33873 0.23888 113 102 77
-3.02928 -4.01075 0.36061 7 7 18
-3.01766 -4.00670 0.34501 15 14 7
-3.03791 -4.02360 0.36126 74 73 92
-3.03947 -4.05029 0.36040 165 172 170
-3.05490 -4.05352 0.34800 201 207 204
-3.05305 -4.05395 0.36207 180 175 158
-3.06847 -4.05718 0.34967 214 212 197
-3.19674 -3.91772 0.38674 97 95 80
-3.20795 -3.92162 0.40180 32 26 24
-3.26669 -3.83342 0.39947 71 54 36
-3.27025 -3.85580 0.39905 65 51 31
-3.28062 -3.86414 0.40011 42 30 16
-3.29161 -3.86796 0.41486 18 18 18
-3.52777 -3.95117 0.42972 24 24 20
-3.51324 -3.94813 0.44141 20 27 20
-3.51498 -3.94773 0.42815 20 21 16
-3.53737 -3.96292 0.43054 35 39 51
-3.54221 -3.98737 0.43021 73 76 80
-3.55045 -4.00324 0.43068 128 134 147
-3.56430 -4.00429 0.43250 181 198 194
-3.57564 -4.01209 0.43370 188 204 206
-3.59036 -4.01517 0.42187 176 184 196
-4.00694 -5.24632 0.44224 164 169 161
-3.99245 -5.24128 0.42278 157 168 152
-4.00922 -5.24579 0.42485 166 169 166
-4.02599 -5.25030 0.42691 174 173 171
-4.02001 -5.27201 0.44297 175 178 165
-4.03916 -5.27601 0.42757 178 181 174
-2.23836 -4.35204 0.22491 125 115 92
-2.22510 -4.34743 0.20710 126 114 100
-2.24045 -4.35156 0.20899 125 117 103
-2.25580 -4.35569 0.21088 128 117 97
-2.26106 -4.34541 0.22826 125 104 89
-2.27845 -4.34905 0.21427 129 120 97
-3.03558 -4.00183 0.34764 7 7 17
-3.02399 -3.99780 0.33207 14 15 13
-3.05322 -3.99733 0.35021 51 49 73
-3.04132 -4.04987 0.34632 150 162 174
-3.05674 -4.05310 0.33392 192 199 205
-3.20033 -3.91359 0.37369 167 162 141
-3.20210 -3.91318 0.36025 200 198 192
-3.21202 -3.91970 0.37500 151 137 103
-3.22676 -3.92279 0.36314 215 216 197
-3.22464 -3.92392 0.37652 159 153 114
-3.23852 -3.92552 0.37832 153 145 105
-3.26401 -3.93348 0.38141 80 61 43
-3.31741 -3.88074 0.39091 38 27 23
-3.32842 -3.88457 0.40569 30 32 35
-3.32686 -3.89141 0.39172 32 24 27
-3.33789 -3.89525 0.40653 31 30 37
-3.33963 -3.89485 0.39329 34 24 29
-3.49487 -3.93112 0.41265 25 18 25
-3.48039 -3.92809 0.42430 17 19 17
-3.48212 -3.92769 0.41108 20 14 17
-3.49314 -3.93152 0.42587 21 20 27
-3.50589 -3.93495 0.42744 25 19 27
-3.50504 -3.94109 0.41358 37 28 32
-3.51499 -3.95175 0.41446 43 42 38
-3.52697 -3.95731 0.41584 69 67 64
-3.54503 -3.98415 0.41710 143 153 157
-3.55967 -3.98722 0.40533 177 188 199
-3.55148 -4.00479 0.41708 176 189 193
-3.56619 -4.00787 0.40524 189 204 211
-3.56355 -4.01063 0.41845 194 207 212
-3.57614 -4.01515 0.41995 189 200 210
-3.59087 -4.01824 0.40810 175 183 193
-3.52616 -4.31965 0.39997 147 153 148
-3.51020 -4.31630 0.41282 170 181 189
-3.51211 -4.31586 0.39824 170 181 191
-3.51402 -4.31542 0.38367 170 182 192
-3.53830 -4.32387 0.41628 115 105 83
-3.54022 -4.32343 0.40170 114 101 74
-3.04391 -3.98901 0.33519 8 9 22
-3.03236 -3.98500 0.31968 14 15 18
-3.04573 -3.98859 0.32133 13 11 20
-3.04965 -4.00726 0.33511 30 31 55
-3.03847 -4.05854 0.33118 131 147 157
-3.05394 -4.06178 0.31874 184 194 201
-3.19971 -3.94829 0.35827 205 205 185
-3.18841 -3.94436 0.34309 214 214 215
-3.21458 -3.95140 0.34631 227 227 226
-3.24303 -3.91936 0.36552 209 207 189
-3.24480 -3.91895 0.35209 220 219 218
-3.25774 -3.92243 0.35368 206 207 204
-3.28142 -3.86899 0.37310 187 179 158
-3.29589 -3.87202 0.36146 199 199 194
-3.29377 -3.93558 0.37164 98 84 63
-3.46575 -3.97212 0.39328 58 47 41
-3.45107 -3.96905 0.40509 21 15 15
-3.45282 -3.96865 0.39169 51 42 37
-3.48404 -3.96218 0.39623 68 59 56
-3.51750 -3.98587 0.39966 141 155 142
-3.53218 -3.98894 0.38785 168 180 189
-3.52764 -3.99661 0.40053 166 179 181
-3.54236 -3.99969 0.38870 170 182 190
-3.54147 -3.99779 0.40236 173 186 188
-3.52093 -4.33962 0.38347 148 152 151
-3.50873 -4.33538 0.36708 171 183 190
-3.51437 -4.40322 0.37958 116 107 77
-3.52677 -4.40753 0.39624 103 94 76
-3.52873 -4.40708 0.38135 103 104 79
-3.53068 -4.40663 0.36647 102 106 91
-4.00300 -5.29318 0.40404 170 172 170
-4.01994 -5.29774 0.40613 179 178 172
-4.02225 -5.29721 0.38855 190 190 169
-3.05363 -4.00270 0.32169 13 16 39
-3.04205 -3.99867 0.30614 21 14 15
-2.99052 -4.15468 0.30535 112 130 142
-3.31187 -3.89959 0.36225 186 182 159
-3.30079 -3.89574 0.34737 202 202 209
-3.28458 -3.99127 0.35386 165 157 125
-3.44625 -3.98869 0.37611 115 119 108
-3.47955 -3.97739 0.38124 143 148 133
-3.49425 -3.98047 0.36942 160 171 178
-3.49069 -3.98542 0.38236 159 166 159
-3.50540 -3.98850 0.37052 161 173 184
-3.50309 -3.99031 0.38380 165 176 169
-3.51780 -3.99339 0.37197 163 174 183
-3.51944 -3.98501 0.38631 166 179 180
-3.53412 -3.98808 0.37450 167 179 186
-3.52833 -4.32351 0.37036 150 155 157
-3.99872 -5.32984 0.38368 184 190 174
-4.01812 -5.33390 0.36807 190 188 177
-2.56950 -4.07176 0.23707 75 62 55
-2.55349 -4.06841 0.24995 91 79 57
-2.55541 -4.06797 0.23533 102 98 81
-2.55732 -4.06753 0.22071 114 105 88
-2.56758 -4.07220 0.25168 72 64 59
-2.58168 -4.07599 0.25342 58 52 51
-3.04040 -4.03125 0.30414 10 12 30
-3.02872 -4.02719 0.28845 28 22 11
-3.04224 -4.03083 0.29012 16 15 27
-3.05576 -4.03447 0.29178 87 97 109
-2.95910 -4.21890 0.28275 98 115 125
-3.03893 -4.09436 0.30051 176 189 197
-3.05079 -4.09849 0.31645 210 212 216
-3.05267 -4.09806 0.30220 208 212 218
-3.05454 -4.09763 0.28795 206 211 215
-3.30576 -3.91631 0.34694 200 200 202
-3.29463 -3.91244 0.33199 201 203 206
-3.30751 -3.91591 0.33358 197 198 205
-3.32040 -3.91938 0.33517 193 196 201
-3.32473 -3.90639 0.35009 198 199 188
-3.33931 -3.90944 0.33836 188 194 198
-3.42391 -3.90852 0.36364 159 158 145
-3.41116 -3.90509 0.36207 161 163 145
-3.41290 -3.90469 0.34885 169 175 181
-3.42218 -3.90892 0.37686 76 59 50
-3.42565 -3.90812 0.35042 166 172 179
-3.43493 -3.91235 0.37843 77 64 57
-3.43593 -3.91369 0.36502 158 158 142
-3.45042 -3.91673 0.35336 158 168 169
-3.44867 -3.91715 0.36658 157 159 147
-3.46317 -3.92019 0.35493 156 165 173
-3.45718 -3.93092 0.36701 158 162 157
-3.47172 -3.93397 0.35531 158 164 177
-3.46107 -3.95623 0.36617 158 165 163
-3.47570 -3.95929 0.35440 158 163 175
-3.46916 -3.97158 0.36645 159 166 165
-3.48384 -3.97465 0.35464 160 164 178
-3.47872 -3.98349 0.36712 160 168 173
-3.49344 -3.98657 0.35528 160 168 181
-3.53376 -4.31300 0.35680 152 157 155
-3.52231 -4.39066 0.35101 114 111 108
-2.55888 -4.09069 0.21959 76 66 52
-2.54663 -4.08643 0.20314 125 111 90
-2.59207 -4.09072 0.22419 52 41 52
-2.60429 -4.09497 0.24060 42 37 41
-2.60621 -4.09452 0.22593 45 35 43
-2.60814 -4.09408 0.21127 46 34 41
-3.04826 -4.07931 0.28814 168 182 189
-3.06380 -4.08257 0.27564 204 208 211
-3.43767 -3.91329 0.35179 163 171 170
-3.42665 -3.90946 0.33699 166 171 178
-3.43940 -3.91289 0.33856 163 168 174
-3.45216 -3.91633 0.34013 158 165 173
-3.53766 -4.30687 0.34286 151 159 159
-3.52479 -4.38865 0.33633 114 114 113
-3.54104 -4.39205 0.32326 105 121 113
-2.55893 -4.09314 0.20445 81 74 53
-2.54668 -4.08888 0.18799 123 112 94
-2.56251 -4.11347 0.20370 69 71 50
-2.58401 -4.10594 0.20716 58 45 49
-2.60014 -4.10932 0.19418 48 37 39
-2.95293 -4.23755 0.25061 83 79 101
-2.93861 -4.23370 0.24884 28 26 38
-2.94056 -4.23325 0.23400 43 41 49
-2.95488 -4.23711 0.23576 78 66 94
-3.04187 -4.09507 0.27180 162 171 181
-3.05748 -4.09834 0.25924 202 207 210
-3.52645 -4.30011 0.32688 167 183 187
-3.51436 -4.29591 0.31064 169 183 194
-3.54236 -4.30344 0.31409 150 162 158
-3.52509 -4.39298 0.32098 116 122 120
-3.54136 -4.39639 0.30789 108 117 112
-2.56008 -4.09391 0.18955 86 77 65
-2.54782 -4.08964 0.17309 126 121 97
-2.56201 -4.09346 0.17484 96 91 84
-3.02633 -4.12880 0.25287 154 160 173
-3.01434 -4.12463 0.23677 64 56 72
-3.04210 -4.13210 0.24019 198 204 208
-2.56656 -4.11231 0.17418 80 70 51
-2.58049 -4.11665 0.17586 67 59 43
-2.59271 -4.12370 0.17710 50 36 46
-2.60503 -4.12799 0.19365 41 36 37
-2.60697 -4.12754 0.17886 41 36 43
-2.60892 -4.12709 0.16407 44 33 33
-2.53929 -4.13120 0.15384 111 109 94
-2.52495 -4.12734 0.15207 137 130 102
-2.52690 -4.12689 0.13720 143 132 109
-2.56930 -4.11062 0.15961 85 72 59
-2.58079 -4.11879 0.16066 72 64 52
-2.59363 -4.12487 0.16205 54 40 44
-2.60985 -4.12826 0.14901 48 36 36
-3.51718 -4.43179 0.27155 116 120 111
-3.50074 -4.42835 0.28478 150 157 152
-3.50271 -4.42790 0.26977 151 158 152
-3.52968 -4.43614 0.28834 105 109 106
-3.53165 -4.43568 0.27334 103 108 107
-3.53362 -4.43523 0.25833 97 99 104
-2.53397 -4.14202 0.13706 135 124 93
-2.52154 -4.13770 0.12037 143 134 121
-2.57013 -4.11191 0.14455 96 84 58
-2.57915 -4.12396 0.14493 77 65 57
-2.59320 -4.12819 0.14662 61 48 45
-2.60943 -4.13159 0.13357 45 40 43
-3.50967 -4.41304 0.25658 148 160 159
-3.49525 -4.40916 0.25480 169 182 185
-3.49722 -4.40871 0.23985 168 182 186
-3.51880 -4.43237 0.25642 107 103 113
-3.53524 -4.43582 0.24319 106 104 100
-2.38173 -4.24528 0.09158 146 138 122
-2.38376 -4.24481 0.07615 144 137 132
-2.39864 -4.24882 0.07798 129 122 107
-2.53968 -4.13576 0.12315 142 125 102
-2.52727 -4.13145 0.10648 135 119 112
-2.56400 -4.12407 0.12760 108 98 82
-2.57488 -4.13330 0.12844 79 61 51
-2.58995 -4.13598 0.13040 64 55 43
-2.98537 -4.22265 0.18067 124 128 139
-2.96918 -4.21926 0.19369 46 38 64
-2.97112 -4.21881 0.17891 82 71 74
-2.99769 -4.22693 0.19720 186 194 199
-2.99963 -4.22648 0.18242 183 191 196
-3.51489 -4.40316 0.24285 144 156 159
-3.52270 -4.42625 0.24214 110 100 108
-3.53913 -4.42969 0.22893 101 103 94
-2.54139 -4.13569 0.10819 126 116 108
-2.52898 -4.13138 0.09152 137 122 102
-2.54334 -4.13524 0.09329 124 111 103
-2.55648 -4.13842 0.11016 116 109 98
-2.56926 -4.14479 0.11148 79 70 53
-2.58597 -4.14494 0.11390 64 61 45
-2.59931 -4.15043 0.11539 40 46 35
-2.61171 -4.15474 0.13205 40 36 44
-2.61367 -4.15429 0.11716 38 37 26
-2.61562 -4.15385 0.10226 43 40 30
-2.76300 -4.27121 0.12915 54 41 45
-2.88822 -4.28704 0.14606 95 90 82
-2.87167 -4.28358 0.15937 77 69 59
-2.87366 -4.28312 0.14427 89 83 78
-2.88624 -4.28750 0.16117 83 80 69
-2.90080 -4.29142 0.16296 84 76 68
-2.93207 -4.26637 0.15417 98 84 84
-2.94849 -4.26980 0.14096 123 122 105
-2.95436 -4.25493 0.15837 115 110 96
-2.98203 -4.23262 0.16425 138 137 134
-2.99988 -4.22940 0.16712 182 187 190
-3.01220 -4.23368 0.18367 210 210 216
-3.01117 -4.23920 0.16795 210 213 214
-3.02351 -4.24349 0.18452 216 214 221
-3.02546 -4.24304 0.16971 218 218 218
-3.02740 -4.24260 0.15489 215 216 218
-3.62801 -4.60166 0.22754 99 106 101
-3.61101 -4.59810 0.24121 106 112 108
-3.61508 -4.59717 0.21018 116 121 115
-3.62597 -4.60213 0.24305 99 104 103
-3.64297 -4.60569 0.22938 102 104 104
-4.00387 -5.75343 0.18629 217 216 223
-3.98278 -5.74901 0.20325 216 217 216
-3.98531 -5.74843 0.18401 219 231 231
-4.00134 -5.75401 0.20554 220 226 234
-4.01991 -5.75901 0.20783 233 240 246
-4.02496 -5.75784 0.16933 251 252 252
-2.55410 -4.14476 0.09404 118 109 95
-2.54167 -4.14043 0.07734 125 119 105
-2.56458 -4.15479 0.09470 84 79 69
-2.57913 -4.15845 0.09651 69 65 53
-2.59319 -4.16289 0.09819 54 49 39
-2.60957 -4.16632 0.08502 44 40 33
-2.74275 -4.22125 0.11503 43 22 41
-2.72630 -4.21780 0.12826 35 30 31
-2.72827 -4.21735 0.11325 39 30 37
-2.74824 -4.24092 0.11413 54 42 39
-2.75476 -4.25903 0.11351 61 56 41
-2.76123 -4.27745 0.11285 66 57 51
-2.82480 -4.28409 0.12159 82 62 63
-2.83818 -4.29031 0.12301 85 69 62
-2.84986 -4.29977 0.12390 98 95 85
-2.86678 -4.29943 0.12641 104 94 84
-2.88854 -4.28976 0.13044 107 94 91
-2.90481 -4.29043 0.13277 110 104 92
-2.92136 -4.29389 0.11946 130 125 102
-2.93597 -4.26215 0.13979 116 108 95
-2.95238 -4.26559 0.12660 129 122 104
-2.98167 -4.23672 0.14870 132 123 121
-3.00030 -4.23196 0.15184 176 176 180
-3.00906 -4.24689 0.15183 207 210 209
-3.02533 -4.25029 0.13874 215 215 214
-3.51207 -4.37650 0.21427 166 180 182
-3.49971 -4.37220 0.19768 164 178 189
-3.52317 -4.38960 0.21476 144 151 149
-3.63418 -4.58742 0.21383 114 120 107
-3.62130 -4.58294 0.19653 114 122 113
-3.63621 -4.58695 0.19837 118 131 117
-3.64871 -4.59272 0.21550 108 114 101
-3.66362 -4.59674 0.21733 101 106 97
-2.55202 -4.15063 0.07795 133 118 91
-2.53957 -4.14630 0.06122 122 114 104
-2.56891 -4.15060 0.08044 95 95 75
-2.57680 -4.16482 0.08032 78 66 60
-2.59022 -4.17035 0.08180 62 50 37
-2.71810 -4.20900 0.09716 40 33 40
-2.70167 -4.20556 0.11038 36 33 37
-2.70364 -4.20511 0.09538 34 33 35
-2.71613 -4.20945 0.11216 38 30 35
-2.74204 -4.22548 0.09920 61 49 52
-2.74562 -4.24856 0.09764 71 65 46
-2.75192 -4.26712 0.09688 75 65 50
-2.76111 -4.28077 0.09700 76 62 60
-2.77979 -4.27750 0.10006 81 67 72
-2.82565 -4.28574 0.10607 103 94 87
-2.83843 -4.29310 0.10729 102 95 91
-2.85506 -4.29658 0.09392 130 123 106
-2.85362 -4.29600 0.10927 113 108 101
-2.87025 -4.29948 0.09590 138 135 102
-2.86901 -4.29850 0.11132 126 120 94
-2.88563 -4.30198 0.09795 134 125 102
-2.89011 -4.29009 0.11519 125 117 94
-2.90668 -4.29356 0.10187 129 115 107
-2.98171 -4.24004 0.13324 128 121 113
-2.96934 -4.23574 0.11662 123 116 102
-3.02361 -4.18893 0.14405 167 170 168
-3.00854 -4.25141 0.13617 203 204 204
-3.02483 -4.25482 0.12306 213 213 215
-3.52545 -4.38822 0.20003 139 143 151
-3.53205 -4.41479 0.19860 106 93 102
-3.54842 -4.41822 0.18542 96 86 77
-3.54308 -4.42873 0.19896 98 96 93
-3.55556 -4.43307 0.21573 100 106 109
-3.56531 -4.45685 0.19969 104 116 110
-3.57786 -4.46122 0.21655 114 124 121
-3.57984 -4.46076 0.20148 113 126 115
-3.58182 -4.46031 0.18641 103 107 107
-3.64651 -4.60654 0.19811 109 115 107
-3.63358 -4.60204 0.18075 122 126 122
-3.64855 -4.60607 0.18259 119 127 118
-3.66352 -4.61010 0.18443 115 122 127
-3.66038 -4.61433 0.19945 96 102 110
-3.67332 -4.61883 0.21683 104 110 94
-3.67740 -4.61789 0.18576 118 125 130
-2.54780 -4.15987 0.06117 129 120 96
-2.53531 -4.15553 0.04440 136 132 123
-2.56242 -4.16349 0.06300 103 99 84
-2.57005 -4.17824 0.06274 81 69 60
-2.59826 -4.18730 0.06608 48 39 39
-2.61078 -4.19166 0.08290 33 42 21
-2.61276 -4.19120 0.06786 38 40 27
-2.61473 -4.19075 0.05282 38 43 34
-2.70697 -4.20234 0.08080 47 36 42
-2.69055 -4.19890 0.09401 37 38 36
-2.69251 -4.19845 0.07902 40 36 35
-2.73344 -4.21433 0.08361 62 63 53
-2.74283 -4.22707 0.08380 72 70 60
-2.74937 -4.24498 0.08308 77 69 60
-2.75693 -4.26131 0.08267 84 69 64
-2.78804 -4.26576 0.08687 98 85 84
-2.80246 -4.27001 0.08861 107 94 93
-2.81904 -4.27348 0.07527 119 118 100
-2.81512 -4.27748 0.08978 116 110 98
-2.83172 -4.28095 0.07643 127 123 106
-2.83045 -4.28008 0.09182 126 122 95
-2.84705 -4.28355 0.07847 133 134 122
-2.84297 -4.28790 0.09294 132 127 110
-2.85958 -4.29138 0.07958 122 119 117
-2.98303 -4.24084 0.11817 115 114 111
-2.97065 -4.23653 0.10155 109 111 95
-3.02482 -4.18992 0.12917 154 161 168
-3.01214 -4.24765 0.12185 196 200 202
-3.52729 -4.38807 0.18512 135 139 147
-2.31181 -4.10658 0.01578 119 109 102
-2.29534 -4.10313 0.02902 133 116 111
-2.29732 -4.10268 0.01400 127 113 105
-2.30984 -4.10703 0.03081 140 120 111
-2.32433 -4.11093 0.03259 134 117 117
-2.32630 -4.11048 0.01756 131 122 110
-2.54331 -4.16954 0.04422 139 130 103
-2.53079 -4.16518 0.02741 142 127 124
-2.55820 -4.17282 0.04613 130 117 88
-2.56827 -4.18375 0.04656 88 79 63
-2.59623 -4.19331 0.04981 53 44 45
-2.61273 -4.19677 0.03653 46 45 40
-2.72448 -4.20390 0.06794 72 64 62
-2.74183 -4.23181 0.06781 84 74 77
-2.75371 -4.24039 0.06874 90 81 82
-2.76523 -4.24967 0.06956 100 89 88
-2.79460 -4.25706 0.07322 127 133 108
-2.80702 -4.26487 0.07431 124 112 104
-2.82358 -4.26834 0.06099 114 108 108
-2.91194 -4.28678 0.08786 128 107 100
-2.92650 -4.29069 0.08965 125 108 89
-2.97949 -4.25127 0.10143 92 98 110
-3.01747 -4.20799 0.11134 137 143 161
-3.01706 -4.24121 0.10803 189 194 200
-3.02798 -4.25195 0.10861 210 213 215
-3.04035 -4.25625 0.12523 216 216 220
-3.04230 -4.25580 0.11037 215 216 218
-3.04425 -4.25535 0.09551 215 215 213
-3.52060 -4.36741 0.17095 167 177 182
-3.50827 -4.36312 0.15439 165 178 188
-3.52943 -4.38708 0.17034 128 136 149
-3.53571 -4.41465 0.16858 103 99 99
-3.55209 -4.41808 0.15541 102 109 97
-3.54670 -4.42876 0.16885 104 100 87
-3.56313 -4.43219 0.15563 103 108 97
-2.29907 -4.10254 -0.00110 132 116 98
-2.28260 -4.09909 0.01215 132 113 110
-2.28457 -4.09863 -0.00288 137 118 111
-2.28655 -4.09818 -0.01791 149 125 115
-2.31572 -4.10341 0.00132 119 98 87
-2.33217 -4.10685 -0.01191 145 138 116
-2.54254 -4.17339 0.02834 138 134 107
-2.54452 -4.17294 0.01330 115 112 108
-2.55590 -4.17912 0.02977 128 109 88
-2.58038 -4.19424 0.03192 80 69 71
-2.66594 -4.19245 0.04498 48 28 50
-2.64951 -4.18901 0.05819 43 39 47
-2.65148 -4.18855 0.04320 44 37 48
-2.66397 -4.19290 0.05997 44 35 35
-2.69669 -4.19714 0.04913 66 65 59
-2.71927 -4.21578 0.05063 89 87 71
-2.72593 -4.23327 0.04986 101 100 66
-2.74527 -4.22880 0.05322 105 100 83
-2.76030 -4.23180 0.05518 116 103 85
-2.77679 -4.23525 0.04192 145 134 118
-2.77231 -4.24015 0.05614 125 114 97
-2.78882 -4.24360 0.04286 135 120 114
-2.78635 -4.24493 0.05777 126 120 113
-2.92262 -4.26953 0.07577 142 125 109
-2.93909 -4.27298 0.06253 137 132 115
-2.94349 -4.26101 0.07978 129 115 95
-2.96385 -4.25327 0.08363 122 112 98
-2.98021 -4.25669 0.07047 109 101 99
-2.98187 -4.24997 0.08667 101 96 104
-3.00553 -4.23526 0.09173 129 125 139
-3.02236 -4.23401 0.09438 183 187 188
-3.03621 -4.23871 0.09599 208 211 210
-3.05244 -4.24210 0.08294 215 215 212
-3.52299 -4.36568 0.15635 163 176 183
-3.51066 -4.36140 0.13980 164 178 189
-5.56242 -5.08285 0.39041 185 183 180
-5.54556 -5.07932 0.40398 196 197 180
-5.54758 -5.07885 0.38858 188 185 181
-5.54960 -5.07839 0.37319 185 188 191
-5.56040 -5.08331 0.40580 183 178 169
-5.56444 -5.08238 0.37502 192 196 198
-5.57620 -5.08027 0.39275 191 198 194
-5.58900 -5.08473 0.40994 202 200 196
-5.59102 -5.08426 0.39457 198 206 200
-2.31080 -4.11262 -0.01576 143 130 114
-2.32730 -4.11607 -0.02903 141 127 121
-2.34535 -4.11260 -0.01052 144 135 125
-2.34732 -4.11215 -0.02555 139 127 122
-2.35984 -4.11650 -0.00874 156 140 125
-2.56875 -4.18838 0.01534 135 120 87
-2.57919 -4.19888 0.01582 110 84 45
-2.59737 -4.19696 0.01877 59 52 43
-2.65056 -4.19288 0.02726 58 37 39
-2.66787 -4.19206 0.02997 69 60 60
-2.68241 -4.19581 0.03177 89 76 78
-2.68710 -4.21627 0.03033 103 100 79
-2.72917 -4.23062 0.03520 115 105 88
-2.74682 -4.22910 0.03803 108 106 96
-2.76331 -4.23255 0.02476 124 119 111
-2.76255 -4.23086 0.04023 133 127 100
-2.77904 -4.23431 0.02697 132 129 114
-2.88925 -4.27336 0.05494 128 118 95
-2.87274 -4.26991 0.06823 133 122 103
-2.87669 -4.26900 0.03808 125 115 93
-2.89123 -4.27291 0.03987 128 117 95
-2.92235 -4.27341 0.05995 135 125 108
-2.92433 -4.27296 0.04491 132 130 109
-2.93883 -4.27686 0.04669 140 128 112
-2.96254 -4.25925 0.06753 138 128 105
-2.99806 -4.25366 0.07349 111 101 107
-3.02767 -4.22677 0.08081 168 172 170
-3.04043 -4.23362 0.08202 205 210 206
-3.05664 -4.23701 0.06898 215 214 211
-3.17415 -4.22130 0.10356 210 211 211
-3.19016 -4.22466 0.09068 204 205 206
-3.52531 -4.36413 0.14173 154 169 176
-3.52879 -4.39945 0.13854 91 89 116
-3.54097 -4.40981 0.13930 78 84 94
-3.55272 -4.42162 0.13983 98 109 97
-3.56715 -4.42550 0.14161 105 110 102
-3.56912 -4.42505 0.12664 103 107 106
-5.57728 -5.07407 0.37784 184 180 197
-5.59410 -5.07759 0.36431 180 177 169
-5.59203 -5.07772 0.37969 180 188 196
-5.60482 -5.08217 0.39686 197 204 196
-2.54732 -4.17118 -0.00148 133 124 110
-2.53479 -4.16682 -0.01831 148 133 109
-2.54930 -4.17072 -0.01653 136 125 113
-2.56380 -4.17463 -0.01474 139 134 106
-2.57525 -4.18071 0.00174 146 132 103
-2.57723 -4.18026 -0.01331 140 136 117
-2.59298 -4.20682 0.00160 82 69 37
-2.61411 -4.20007 0.00555 57 32 25
-2.63364 -4.19578 0.00900 63 55 53
-2.65767 -4.18391 0.01395 106 83 62
-2.66844 -4.19394 0.01450 120 108 82
-2.67428 -4.21237 0.01339 115 103 82
-2.69078 -4.21582 0.00011 131 119 99
-2.68706 -4.21924 0.01459 122 111 92
-2.71518 -4.22873 0.01784 135 127 96
-2.73171 -4.23219 0.00454 137 131 102
-2.72949 -4.23305 0.01955 136 117 91
-2.74602 -4.23651 0.00626 137 131 105
-2.74753 -4.23086 0.02254 114 109 96
-2.76403 -4.23432 0.00926 134 124 107
-2.96890 -4.25014 0.05418 139 122 98
-2.95647 -4.24582 0.03749 143 126 119
-2.98844 -4.24379 0.05785 116 101 87
-3.00624 -4.24074 0.06090 99 84 89
-3.02460 -4.23643 0.06417 151 158 165
-3.04549 -4.22683 0.06839 200 206 206
-3.16086 -4.21948 0.08678 229 229 226
-3.14868 -4.21524 0.07041 238 237 236
-3.17104 -4.23189 0.08698 212 212 211
-3.18711 -4.23525 0.07406 203 204 206
-3.51131 -4.36465 0.12440 166 179 187
-3.49508 -4.36126 0.13745 168 179 193
-3.49703 -4.36081 0.12264 167 179 191
-3.49897 -4.36036 0.10783 167 182 189
-3.52292 -4.37621 0.12491 129 136 156
-3.53917 -4.37961 0.11184 76 76 73
-3.53680 -4.38131 0.12647 89 75 76
-3.54568 -4.40121 0.12566 88 88 75
-3.56201 -4.40463 0.11253 101 107 101
-3.55622 -4.41657 0.12560 99 107 97
-3.57260 -4.41999 0.11243 105 106 109
-3.82443 -5.47152 0.05172 218 225 223
-3.80906 -5.46618 0.03108 234 237 230
-3.82685 -5.47096 0.03328 234 239 236
-3.84464 -5.47575 0.03547 230 234 237
-5.58016 -5.07887 0.36205 183 182 170
-5.59699 -5.08239 0.34850 179 188 186
-2.59105 -4.18527 -0.01176 143 138 123
-2.60782 -4.18554 -0.00921 138 114 86
-2.62407 -4.18658 -0.00684 110 95 60
-2.63718 -4.19276 -0.00552 124 118 91
-2.65102 -4.19776 -0.00396 137 121 102
-2.66749 -4.20121 -0.01722 138 129 113
-2.67048 -4.19338 -0.00048 132 118 104
-2.68692 -4.19682 -0.01371 138 139 109
-2.67934 -4.20671 -0.00062 132 127 102
-2.70504 -4.22020 0.00180 125 124 107
-2.70702 -4.21974 -0.01327 127 130 117
-2.72155 -4.22365 -0.01148 133 131 114
-2.97202 -4.24741 0.03970 144 131 116
-2.95960 -4.24309 0.02302 131 116 110
-2.97398 -4.24696 0.02479 133 128 109
-2.98857 -4.24697 0.04229 121 111 94
-3.01058 -4.23550 0.04695 104 91 92
-3.04966 -4.22184 0.05448 187 196 204
-3.06436 -4.22467 0.05642 212 214 213
-3.07664 -4.22894 0.07291 216 216 215
-3.07857 -4.22849 0.05817 216 216 215
-3.08051 -4.22805 0.04343 216 215 215
-3.51484 -4.35966 0.11035 157 171 178
-3.52338 -4.38004 0.10937 89 91 117
-3.54916 -4.39628 0.11150 96 101 83
-3.56547 -4.39969 0.09838 100 107 111
-5.56503 -5.05994 0.34612 202 211 196
-5.55227 -5.05550 0.32898 195 199 197
-5.56704 -5.05948 0.33080 199 205 197
-5.58067 -5.06921 0.34748 193 202 186
-5.63719 -5.07016 0.35604 186 192 199
-5.62044 -5.06666 0.36951 188 192 199
-5.62245 -5.06620 0.35423 182 186 196
-5.65394 -5.07367 0.34257 208 219 209
-5.65137 -5.07102 0.35812 203 209 207
-1.91709 -3.97295 -0.10657 156 128 119
-1.90464 -3.96862 -0.12330 153 135 124
-1.91905 -3.97250 -0.12152 163 146 125
-1.93347 -3.97638 -0.11975 158 141 127
-2.59919 -4.17490 -0.02471 151 136 114
-2.61564 -4.17834 -0.03794 143 134 114
-2.61174 -4.18192 -0.02359 146 134 105
-2.62601 -4.18618 -0.02188 126 120 89
-2.64247 -4.18962 -0.03512 138 121 112
-2.65425 -4.19520 -0.01856 137 130 117
-2.67072 -4.19865 -0.03181 142 135 119
-2.69948 -4.20395 -0.01260 137 130 110
-2.68697 -4.19960 -0.02940 137 131 110
-2.70146 -4.20350 -0.02762 146 133 120
-2.99422 -4.23917 0.02882 129 120 97
-2.98184 -4.23486 0.01219 138 135 112
-3.01068 -4.23876 0.03140 122 117 103
-3.02694 -4.24217 0.01832 86 76 72
-3.02750 -4.23754 0.03414 110 106 112
-3.04823 -4.22825 0.03842 157 167 177
-3.06428 -4.22836 0.04089 204 211 214
-3.50838 -4.33880 0.09663 163 180 182
-3.49224 -4.33543 0.10961 171 185 191
-3.49418 -4.33498 0.09488 170 182 191
-3.51848 -4.35434 0.09639 115 126 137
-3.52843 -4.37062 0.09603 70 61 89
-3.54133 -4.37854 0.09710 80 81 89
-3.55759 -4.38194 0.08403 102 104 104
-3.55148 -4.39473 0.09679 99 106 100
-3.56778 -4.39815 0.08368 103 109 109
-5.58292 -5.07018 0.33201 181 180 184
-5.57014 -5.06573 0.31485 203 203 210
-5.63944 -5.07110 0.34063 197 202 199
-2.59066 -4.16420 -0.04013 121 108 99
-2.60707 -4.16763 -0.05334 133 118 107
-2.60390 -4.17002 -0.03877 138 129 109
-2.62033 -4.17346 -0.05198 137 128 111
-2.63254 -4.17827 -0.03531 122 112 113
-2.64897 -4.18171 -0.04852 143 133 113
-2.99896 -4.23317 0.01505 139 127 109
-2.98660 -4.22887 -0.00155 138 129 109
-3.00091 -4.23272 0.00021 143 130 116
-3.01446 -4.23464 0.01728 135 121 103
-3.04713 -4.23402 0.02243 110 122 136
-3.06197 -4.23668 0.02442 176 192 206
-3.07839 -4.23604 0.02705 211 214 218
-3.09070 -4.24032 0.04358 216 215 213
-3.09264 -4.23987 0.02880 216 215 215
-3.16700 -4.21735 0.04305 233 231 231
-3.15481 -4.21311 0.02669 234 235 234
-3.17670 -4.23081 0.04295 214 211 213
-3.19277 -4.23417 0.03003 203 202 206
-3.50238 -4.31699 0.08323 165 176 188
-3.48632 -4.31362 0.09615 173 186 194
-3.48824 -4.31318 0.08149 170 186 200
-3.51304 -4.33063 0.08325 129 129 146
-3.51825 -4.36012 0.08053 66 62 78
-3.53280 -4.36315 0.08243 65 56 77
-3.54275 -4.37963 0.08200 92 91 100
-3.55902 -4.38304 0.06892 107 107 107
-5.58087 -5.04508 0.31899 201 209 210
-5.56816 -5.04066 0.30192 205 207 208
-5.58287 -5.04462 0.30373 205 212 215
-5.59759 -5.04857 0.30554 204 209 217
-3.01886 -4.22925 0.00344 140 130 120
-3.00652 -4.22496 -0.01313 137 131 115
-3.03735 -4.22456 0.00691 118 105 91
-3.05700 -4.21736 0.01087 92 81 97
-3.06319 -4.23773 0.00933 126 137 159
-3.08181 -4.23252 0.01288 185 200 212
-3.10021 -4.22759 0.01637 212 216 221
-3.11248 -4.23186 0.03284 211 212 212
-3.11441 -4.23141 0.01812 210 211 216
-3.13029 -4.23165 0.02057 217 219 220
-3.14641 -4.23502 0.00760 233 231 230
-3.16619 -4.22285 0.02727 232 231 232
-3.17862 -4.23040 0.02828 213 212 214
-3.19468 -4.23376 0.01536 204 201 203
-3.48405 -4.28697 0.06905 164 175 189
-3.46808 -4.28363 0.08189 162 171 180
-3.47000 -4.28319 0.06732 163 170 180
-3.48213 -4.28741 0.08362 165 173 186
-3.49323 -4.30426 0.06836 164 183 198
-3.50080 -4.32637 0.06681 129 126 153
-3.51690 -4.32974 0.05386 48 41 67
-3.53511 -4.36162 0.06783 79 82 86
-3.54623 -4.37471 0.06795 103 104 106
-2.01864 -3.96260 -0.13522 151 136 112
-2.03099 -3.96690 -0.11864 149 138 112
-2.03293 -3.96645 -0.13346 152 135 120
-2.03488 -3.96600 -0.14829 149 137 124
-3.02503 -4.22032 -0.00962 134 129 117
-3.01272 -4.21604 -0.02616 142 137 126
-3.02697 -4.21987 -0.02440 135 120 116
-3.04122 -4.22371 -0.02265 135 123 109
-3.04160 -4.21944 -0.00691 127 115 104
-3.06020 -4.21432 -0.00333 108 92 87
-3.07524 -4.21639 -0.00123 84 77 92
-3.08372 -4.23212 -0.00189 118 132 154
-3.10129 -4.22894 0.00128 181 197 208
-3.12757 -4.24116 0.00386 215 214 220
-3.16799 -4.22267 0.01257 231 229 232
-3.17805 -4.23544 0.01253 213 211 214
-3.19414 -4.23880 -0.00041 203 201 202
-3.47537 -4.27337 0.05449 161 173 180
-3.45944 -4.27004 0.06730 161 169 181
-3.46135 -4.26960 0.05276 163 169 180
-3.48778 -4.28153 0.05541 152 170 173
-3.49353 -4.30832 0.05291 125 128 145
-3.49992 -4.33379 0.05068 74 57 96
-3.52507 -4.35080 0.05247 75 78 76
-3.53807 -4.35822 0.05358 98 108 100
-3.54952 -4.37029 0.05384 108 111 107
-3.55894 -4.38863 0.05300 109 109 108
-3.56721 -4.41076 0.05149 119 126 117
-3.57965 -4.41509 0.06820 117 122 114
-3.58161 -4.41464 0.05326 121 126 121
-3.58357 -4.41419 0.03832 139 139 134
-2.02437 -3.95759 -0.14885 156 149 135
-2.04059 -3.96099 -0.16190 148 140 122
-3.06155 -4.21506 -0.01830 132 122 95
-3.04929 -4.21079 -0.03477 143 130 113
-3.07975 -4.21063 -0.01484 100 94 77
-3.09504 -4.21209 -0.01261 80 79 83
-3.10263 -4.22974 -0.01371 114 124 133
-3.10602 -4.25658 -0.01668 161 176 197
-3.12719 -4.24571 -0.01191 199 207 226
-3.15466 -4.22087 -0.00432 229 231 235
-3.17135 -4.21909 -0.00144 229 231 234
-3.17587 -4.24408 -0.00399 213 212 215
-3.44861 -4.26707 0.03618 157 166 179
-3.43268 -4.26373 0.04900 156 163 172
-3.43459 -4.26329 0.03446 157 162 174
-3.44670 -4.26750 0.05072 158 165 176
-3.46249 -4.27122 0.03784 155 166 180
-3.47718 -4.27319 0.03990 133 138 156
-3.49078 -4.32084 0.03583 69 53 68
-3.50136 -4.33476 0.03569 61 49 58
-3.51571 -4.33817 0.03751 75 79 78
-3.53019 -4.34119 0.03941 103 110 100
-3.53934 -4.35972 0.03844 111 118 111
-3.54972 -4.37497 0.03809 123 125 120
-3.55810 -4.39649 0.03660 131 131 121
-3.57442 -4.39991 0.02348 156 159 141
-3.57144 -4.40345 0.03781 139 143 127
-3.06850 -4.20432 -0.03084 141 130 105
-3.05627 -4.20007 -0.04727 140 132 119
-3.07043 -4.20388 -0.04553 140 131 111
-3.08260 -4.20826 -0.02913 128 120 93
-3.09505 -4.21566 -0.02814 109 102 73
-3.10692 -4.22433 -0.02741 83 79 66
-3.12305 -4.22770 -0.04038 80 73 69
-3.13354 -4.23577 -0.02471 138 149 179
-3.15101 -4.23252 -0.02149 192 200 213
-3.16980 -4.22626 -0.01765 214 223 227
-3.17794 -4.24332 -0.01865 212 216 221
-3.42533 -4.25166 0.01964 151 159 171
-3.40943 -4.24834 0.03243 152 157 169
-3.41133 -4.24790 0.01791 151 160 170
-3.42342 -4.25210 0.03415 156 158 170
-3.43624 -4.26353 0.01978 149 158 169
-3.44654 -4.27723 0.01958 134 142 153
-3.45262 -4.30248 0.01716 104 105 135
-3.46778 -4.30352 0.01943 68 56 90
-3.47919 -4.31480 0.01974 41 40 64
-3.49389 -4.31711 0.02177 53 47 49
-3.50706 -4.32369 0.02298 89 90 73
-3.51779 -4.33729 0.02287 116 118 105
-3.53339 -4.33708 0.02538 130 137 121
-3.54951 -4.34045 0.01241 152 158 145
-3.54763 -4.34076 0.02715 134 142 129
-3.56375 -4.34414 0.01419 150 157 151
-3.55788 -4.35619 0.02671 143 147 141
-3.57405 -4.35958 0.01371 153 158 153
-3.56517 -4.38077 0.02457 152 155 143
-3.58143 -4.38417 0.01150 157 162 150
-3.08935 -4.19782 -0.04166 135 123 106
-3.07715 -4.19358 -0.05804 143 134 117
-3.09128 -4.19738 -0.05631 139 131 115
-3.10540 -4.20118 -0.05457 136 127 112
-3.10149 -4.20577 -0.04081 134 123 98
-3.11146 -4.21837 -0.04095 118 105 75
-3.13845 -4.22893 -0.03808 77 83 99
-3.14392 -4.25167 -0.04035 114 122 141
-3.15559 -4.26117 -0.03978 157 163 187
-3.16909 -4.26673 -0.03839 176 186 209
-3.23731 -4.25663 -0.02606 190 194 197
-3.24957 -4.26089 -0.00960 185 186 191
-3.25150 -4.26045 -0.02431 186 189 193
-3.40872 -4.21954 0.00653 146 156 160
-3.39293 -4.21623 0.01924 154 156 168
-3.39482 -4.21580 0.00482 151 158 166
-3.40683 -4.21997 0.02095 152 156 166
-3.42827 -4.28912 0.00006 101 100 113
-3.43621 -4.30939 -0.00146 66 66 78
-3.45217 -4.30841 0.00123 45 33 66
-3.46791 -4.30796 0.00382 48 35 62
-3.48633 -4.29999 0.00787 76 70 79
-3.51283 -4.31243 0.01040 128 131 117
-3.52888 -4.31579 -0.00251 154 150 154
-3.52457 -4.32304 0.01082 145 142 140
-3.54064 -4.32641 -0.00211 154 151 153
-3.53799 -4.32894 0.01216 150 152 147
-3.55408 -4.33231 -0.00078 153 152 149
-3.11485 -4.21486 -0.05498 130 123 100
-3.10261 -4.21061 -0.07141 142 130 112
-3.12357 -4.23028 -0.05576 112 106 81
-3.14095 -4.22726 -0.05253 88 84 73
-3.16222 -4.25045 -0.05238 91 90 109
-3.17633 -4.25456 -0.05069 93 96 118
-3.18645 -4.26761 -0.05091 104 109 135
-3.20267 -4.27101 -0.06395 58 49 87
-3.19182 -4.29158 -0.05343 132 132 165
-3.20812 -4.29499 -0.06655 67 61 98
-3.21298 -4.27990 -0.04837 149 151 182
-3.22922 -4.28330 -0.06143 73 71 106
-3.40402 -4.19689 -0.00580 114 116 133
-3.38831 -4.19361 0.00684 154 159 170
-3.39019 -4.19317 -0.00751 125 127 150
-3.39207 -4.19274 -0.02185 61 52 82
-3.39490 -4.25920 -0.01610 100 100 114
-3.41087 -4.26254 -0.02894 39 33 50
-3.39892 -4.28889 -0.01966 78 75 93
-3.41202 -4.29543 -0.01847 57 51 74
-3.42227 -4.30957 -0.01882 49 35 57
-3.43727 -4.31128 -0.01664 35 34 48
-3.45386 -4.30863 -0.01359 60 53 60
-3.47969 -4.28063 -0.00546 100 96 95
-3.49189 -4.28952 -0.00475 135 129 120
-3.50787 -4.29287 -0.01761 156 158 153
-3.50556 -4.29442 -0.00324 147 150 139
-3.52155 -4.29777 -0.01610 152 152 143
-3.51775 -4.30354 -0.00257 150 149 140
-3.53376 -4.30689 -0.01545 149 146 144
-3.12080 -4.20591 -0.06778 134 126 105
-3.12963 -4.22102 -0.06854 131 124 96
-3.14064 -4.23165 -0.06830 125 115 87
-3.16726 -4.24320 -0.06566 98 92 82
-3.15506 -4.30558 -0.07670 72 69 54
-3.17146 -4.30902 -0.08990 97 87 68
-3.16816 -4.31247 -0.07558 55 50 59
-3.38448 -4.25063 -0.03149 55 44 67
-3.37236 -4.24641 -0.04778 56 45 40
-3.38990 -4.27645 -0.03437 50 39 58
-3.41230 -4.29929 -0.03405 52 42 55
-3.42452 -4.30828 -0.03337 80 72 84
-3.44256 -4.30187 -0.02952 95 99 96
-3.46459 -4.28443 -0.02341 125 123 109
-3.48307 -4.27619 -0.01921 142 141 128
-3.49902 -4.27953 -0.03204 157 157 141
-3.49428 -4.28778 -0.01908 157 152 141
-3.51025 -4.29113 -0.03193 161 162 149
-1.81250 -3.79138 -0.23462 148 133 111
-1.79669 -3.78807 -0.22190 155 141 116
-1.80048 -3.78720 -0.25076 160 147 134
-1.81061 -3.79182 -0.22019 151 141 118
-1.82642 -3.79513 -0.23291 134 125 113
-3.05083 -4.12518 -0.08220 135 133 117
-3.03501 -4.12187 -0.06948 144 135 122
-3.03691 -4.12143 -0.08392 140 136 122
-3.03880 -4.12100 -0.09835 139 132 124
-3.04893 -4.12561 -0.06777 134 117 108
-3.06285 -4.12936 -0.06606 134 119 110
-3.11653 -4.18501 -0.08039 151 139 116
-3.10055 -4.18167 -0.06754 136 127 117
-3.10247 -4.18123 -0.08212 141 132 120
-3.13251 -4.18836 -0.09324 156 145 127
-3.12548 -4.19963 -0.08111 148 136 116
-3.13627 -4.21051 -0.08097 144 135 116
-3.14674 -4.22221 -0.08100 136 127 105
-3.16816 -4.24501 -0.08090 132 126 101
-3.18432 -4.24839 -0.09390 163 152 123
-3.18022 -4.25365 -0.08022 120 112 75
-3.18638 -4.31182 -0.08788 82 71 70
-3.18834 -4.31137 -0.10285 143 129 104
-3.19792 -4.35959 -0.09311 59 46 47
-3.21450 -4.36306 -0.10644 115 101 64
-3.38571 -4.25193 -0.04642 69 60 54
-3.39636 -4.26438 -0.04654 86 81 77
-3.45467 -4.27420 -0.03848 143 148 134
-3.47003 -4.27444 -0.03601 155 155 141
-3.48599 -4.27778 -0.04884 157 163 152
-3.48362 -4.27948 -0.03454 151 154 140
-1.81687 -3.78831 -0.24824 158 142 126
-1.80486 -3.78413 -0.26437 161 146 133
-1.81876 -3.78787 -0.26266 164 154 135
-1.83267 -3.79161 -0.26095 158 147 134
-1.82860 -3.79438 -0.24724 156 152 128
-1.84062 -3.79856 -0.23110 140 131 119
-1.84441 -3.79769 -0.25996 161 150 133
-3.05424 -4.12171 -0.09593 141 136 131
-3.04223 -4.11753 -0.11206 143 133 129
-3.06664 -4.12848 -0.09492 146 144 128
-3.08246 -4.13179 -0.10764 162 157 129
-3.11112 -4.16677 -0.09346 154 144 128
-3.09520 -4.16343 -0.08066 140 131 123
-3.09711 -4.16300 -0.09519 144 137 119
-3.12703 -4.17010 -0.10626 167 160 144
-3.15291 -4.21260 -0.09359 146 140 127
-3.16896 -4.21596 -0.10651 165 161 142
-3.16702 -4.21644 -0.09186 145 141 124
-3.18307 -4.21980 -0.10477 176 174 152
-3.20109 -4.31912 -0.10194 131 121 93
-3.18861 -4.31478 -0.11870 165 150 127
-3.20306 -4.31866 -0.11692 154 148 128
-3.21751 -4.32255 -0.11514 143 136 125
-3.39510 -4.27208 -0.06290 146 146 131
-3.41113 -4.27543 -0.07579 153 157 143
-3.40892 -4.27664 -0.06133 153 157 130
-3.42495 -4.27999 -0.07422 157 158 145
-3.44471 -4.26419 -0.05355 151 155 144
-3.47364 -4.26941 -0.04959 153 153 149
-3.47555 -4.26897 -0.06414 149 142 145
-3.05592 -4.12172 -0.11045 149 140 135
-3.04390 -4.11754 -0.12659 150 139 133
-3.05781 -4.12128 -0.12488 155 145 139
-3.07172 -4.12503 -0.12316 161 151 143
-3.06826 -4.12859 -0.10949 156 149 135
-3.08408 -4.13190 -0.12221 160 157 140
-3.10247 -4.15543 -0.10803 148 141 127
-3.08659 -4.15210 -0.09525 149 146 119
-3.09039 -4.15123 -0.12425 165 163 142
-3.10438 -4.15499 -0.12253 160 154 142
-3.11836 -4.15875 -0.12081 157 151 146
-3.16022 -4.20053 -0.10554 157 157 144
-3.14805 -4.19630 -0.12188 149 146 130
-3.17622 -4.20388 -0.11841 172 172 159
-5.67899 -4.86824 0.20622 196 200 193
-5.66303 -4.86490 0.21906 175 176 189
-5.66495 -4.86446 0.20449 174 170 179
-5.69113 -4.87246 0.22252 190 202 196
-5.69304 -4.87202 0.20795 198 197 200
-5.69495 -4.87158 0.19338 199 197 202
-1.76157 -3.75791 -0.28218 164 147 130
-1.74582 -3.75461 -0.26951 151 140 119
-1.74771 -3.75418 -0.28388 154 136 119
-1.76345 -3.75747 -0.29655 158 136 118
-1.77354 -3.76207 -0.26610 169 157 139
-1.78968 -3.76495 -0.27863 156 145 127
-1.80165 -3.76911 -0.26256 150 142 130
-1.80354 -3.76868 -0.27693 144 137 121
-5.48101 -4.79354 0.17031 212 213 211
-5.46513 -4.79022 0.18309 203 203 197
-5.46703 -4.78978 0.16859 203 199 198
-5.46894 -4.78934 0.15410 201 199 197
-5.51292 -4.82617 0.17040 209 210 214
-5.52889 -4.82951 0.15755 204 197 202
-5.65471 -4.87031 0.18690 184 183 178
-5.63871 -4.86696 0.19977 193 197 200
-5.64063 -4.86652 0.18517 198 201 191
-5.65279 -4.87075 0.20150 194 195 200
-5.65662 -4.86987 0.17230 186 183 181
-5.66752 -4.86749 0.18948 178 171 170
-5.68350 -4.87084 0.17663 189 193 193
-1.74790 -3.75549 -0.29883 161 145 125
-1.73214 -3.75220 -0.28615 164 147 128
-1.73403 -3.75176 -0.30053 167 149 130
-1.73592 -3.75133 -0.31491 167 150 137
-1.77654 -3.76201 -0.29510 156 138 120
-2.20668 -3.85606 -0.23858 147 133 124
-2.19290 -3.85235 -0.24028 146 132 129
-2.19477 -3.85192 -0.25458 160 147 137
-2.20481 -3.85649 -0.22428 145 131 130
-2.20856 -3.85563 -0.25288 162 149 134
-2.22235 -3.85934 -0.25118 176 157 139
-5.48285 -4.79265 0.15588 203 204 208
-5.48475 -4.79222 0.14139 200 200 194
-5.49892 -4.80995 0.15574 212 213 213
-5.51485 -4.81329 0.14292 206 206 201
-5.51450 -4.82363 0.15610 205 195 199
-5.53047 -4.82697 0.14326 201 204 202
-5.57146 -4.84315 0.16243 187 197 195
-5.55739 -4.83937 0.16070 193 187 190
-5.56955 -4.84359 0.17702 189 193 195
-5.58361 -4.84738 0.17875 196 195 192
-5.58476 -4.84248 0.16476 192 203 195
-5.59690 -4.84670 0.18107 196 193 186
-5.59881 -4.84626 0.16649 199 202 197
-5.67020 -4.87100 0.17438 187 189 187
-5.65804 -4.86677 0.15806 195 194 196
-5.67211 -4.87056 0.15979 193 196 202
-5.68618 -4.87435 0.16152 185 186 196
-1.78255 -3.75727 -0.30806 156 134 121
-1.79828 -3.76056 -0.32072 163 149 133
-1.80146 -3.75567 -0.30462 158 145 129
-1.81528 -3.75939 -0.30292 162 145 138
-1.81717 -3.75896 -0.31725 166 147 135
-1.84289 -3.76687 -0.29952 169 150 128
-1.82719 -3.76358 -0.28689 164 147 133
-1.82907 -3.76315 -0.30123 167 148 134
-1.84101 -3.76730 -0.28519 163 147 135
-1.85483 -3.77102 -0.28349 152 141 127
-1.85671 -3.77059 -0.29782 154 143 126
-5.54406 -4.82795 0.14538 196 199 202
-5.54215 -4.82839 0.15995 203 195 201
-5.56001 -4.83129 0.13255 192 185 183
-5.55791 -4.83056 0.14727 189 194 189
-5.58567 -4.83631 0.15098 166 179 167
-5.59930 -4.83780 0.15302 182 194 187
-5.61142 -4.84201 0.16930 207 211 202
-5.61333 -4.84157 0.15475 198 205 207
-5.61524 -4.84113 0.14021 199 201 195
-1.84754 -3.76348 -0.31288 179 164 143
-1.83561 -3.75933 -0.32890 178 164 144
-1.84942 -3.76304 -0.32720 176 161 147
-1.86323 -3.76676 -0.32550 167 151 133
-2.96888 -4.02975 -0.16872 158 152 144
-2.95520 -4.02606 -0.17041 165 162 148
-2.95706 -4.02564 -0.18460 165 159 151
-2.97074 -4.02932 -0.18291 161 153 146
-5.52999 -4.81177 0.13080 210 212 192
-5.51789 -4.80757 0.11456 209 209 202
-5.53190 -4.81133 0.11628 209 203 193
-5.54474 -4.82005 0.13188 199 191 182
-5.57178 -4.82174 0.13617 177 172 165
-5.58629 -4.82843 0.13748 166 175 159
-5.60220 -4.83176 0.12468 197 205 194
-2.88304 -4.01707 -0.19570 156 142 129
-2.89490 -4.02120 -0.17978 146 141 136
-2.89677 -4.02077 -0.19401 141 136 140
-5.55903 -4.81367 0.12049 200 189 184
-5.57383 -4.82216 0.12153 197 189 177
-5.58974 -4.82549 0.10873 193 189 183
-5.58770 -4.82519 0.12336 192 194 182
-5.60361 -4.82852 0.11056 198 198 196
-2.88713 -4.01274 -0.20886 148 128 111
-2.89972 -4.01841 -0.20771 141 137 132
-2.91157 -4.02253 -0.19180 154 143 144
-2.91344 -4.02210 -0.20602 157 146 140
-2.91531 -4.02167 -0.22025 154 151 131
-3.00314 -4.00411 -0.20193 167 159 149
-2.98957 -4.00046 -0.20360 161 151 147
-2.99142 -4.00003 -0.21768 157 152 140
-3.01857 -4.00734 -0.21434 151 141 131
-3.03546 -4.00777 -0.22596 156 148 139
-3.02189 -4.00412 -0.22763 143 138 135
-3.04764 -4.01408 -0.22503 164 154 148
-3.05936 -4.01816 -0.20928 170 160 146
-3.06121 -4.01773 -0.22336 174 159 151
-3.06306 -4.01731 -0.23744 176 165 154
-3.03781 -4.00638 -0.23975 161 149 141
-3.02609 -4.00231 -0.25548 166 158 149
-3.03965 -4.00596 -0.25381 170 158 147
-3.05321 -4.00961 -0.25214 172 162 150
-5.54580 -4.66713 0.05742 203 200 194
-5.53228 -4.66350 0.05576 199 196 194
-5.54396 -4.66756 0.07144 184 184 185
-5.55747 -4.67119 0.07310 185 185 185
-5.55944 -4.67153 0.05896 204 196 188
-5.57296 -4.67517 0.06062 195 194 192
-5.57480 -4.67474 0.04661 194 191 195
-5.62677 -4.65832 0.03046 193 188 200
-5.61518 -4.65429 0.01489 200 196 202
-5.62860 -4.65790 0.01654 202 204 202
-5.33205 -4.53691 -0.03964 202 194 194
-5.32058 -4.53292 -0.05505 209 208 200
-5.34714 -4.54007 -0.05178 207 208 204
-5.33417 -4.53896 -0.05391 209 206 196
-5.33598 -4.53854 -0.06769 218 221 203
-5.34895 -4.53962 -0.06554 213 214 200
-5.33747 -4.53563 -0.08095 217 220 216
-5.35075 -4.53921 -0.07932 217 219 209
-5.36177 -4.53967 -0.06320 207 202 196
-5.37323 -4.54366 -0.04780 202 195 198
-5.37504 -4.54324 -0.06156 199 192 190
-5.66456 -4.60996 -0.02337 203 196 199
-5.65133 -4.60640 -0.02500 205 209 210
-5.65313 -4.60599 -0.03872 205 209 211
-5.67779 -4.61352 -0.02174 201 198 204
-5.10835 -4.42629 -0.09821 190 189 178
-5.09702 -4.42235 -0.11342 180 173 171
