ply
format ascii 1.0
element face 0
property list uchar int vertex_indices
element vertex 1252
property float x
property float y
property float z
property uchar diffuse_red
property uchar diffuse_green
property uchar diffuse_blue
end_header
-5.11712 -4.73613 0.14939 195 193 181
-5.26609 -4.75362 0.14952 192 197 199
-5.26615 -4.75305 0.13436 192 187 194
-5.29310 -4.74648 0.15083 189 182 179
-5.30808 -4.74800 0.13568 199 198 195
-5.49119 -4.78667 0.14890 212 212 207
-5.50622 -4.78819 0.13371 201 200 198
-5.50952 -4.79968 0.14756 199 194 200
-5.55739 -4.81489 0.14641 182 184 195
-5.57089 -4.81213 0.14696 177 176 177
-5.57925 -4.79359 0.14940 172 162 170
-5.60090 -4.81620 0.14692 192 190 197
-5.61599 -4.81773 0.13168 195 193 195
-5.61981 -4.83004 0.14549 195 197 206
-5.63493 -4.83158 0.13021 197 193 194
-2.17722 -4.27002 0.14677 128 122 103
-2.16249 -4.26740 0.13183 127 115 97
-2.17727 -4.26946 0.13180 133 129 109
-2.19206 -4.27153 0.13177 130 123 106
-2.39189 -4.24950 0.15284 137 127 106
-2.37723 -4.24801 0.16765 131 117 109
-2.37728 -4.24746 0.15287 135 125 118
-2.39184 -4.25005 0.16762 130 118 107
-2.40644 -4.25209 0.16760 122 119 104
-2.40654 -4.25098 0.13803 117 111 103
-2.56187 -4.11156 0.17325 107 98 80
-2.54791 -4.10907 0.15909 119 111 104
-2.57452 -4.11661 0.17281 71 62 51
-2.58860 -4.11804 0.15858 63 60 51
-2.94692 -4.27951 0.15789 107 100 89
-2.96380 -4.27386 0.15889 111 102 106
-2.98820 -4.24430 0.16307 147 147 154
-3.00133 -4.24998 0.16255 192 196 199
-3.50660 -4.37594 0.15450 176 184 188
-3.49216 -4.37336 0.13985 183 191 200
-3.52051 -4.38145 0.15402 146 147 146
-3.53507 -4.38292 0.13930 101 82 96
-3.53205 -4.40140 0.15165 107 93 103
-3.54678 -4.40248 0.15174 118 125 125
-3.56140 -4.40396 0.13696 124 124 116
-3.55960 -4.41563 0.15026 121 123 112
-3.57426 -4.41712 0.13544 114 121 113
-4.92215 -4.70706 0.13474 202 205 197
-4.92220 -4.70649 0.11958 198 201 194
-4.93713 -4.70915 0.13472 201 200 186
-4.93718 -4.70858 0.11955 196 196 189
-5.12418 -4.70185 0.13865 191 194 189
-5.12423 -4.70129 0.12361 194 193 198
-5.13909 -4.70336 0.12358 192 193 196
-5.14270 -4.72013 0.13660 198 202 195
-5.15933 -4.72966 0.13565 193 191 186
-5.32958 -4.72119 0.13946 190 194 195
-5.32953 -4.72176 0.15447 198 199 195
-5.34435 -4.72383 0.15445 198 204 207
-5.34353 -4.72006 0.13983 189 190 195
-5.35839 -4.72157 0.12481 182 186 187
-5.37001 -4.71296 0.14117 189 192 198
-5.37006 -4.71240 0.12621 192 190 185
-5.48980 -4.78133 0.13432 203 199 199
-5.47489 -4.77867 0.11920 207 208 203
-5.48985 -4.78076 0.11918 198 197 198
-5.52487 -4.80211 0.13222 207 210 214
-5.52492 -4.80154 0.11701 209 213 210
-5.53994 -4.80364 0.11699 196 191 204
-5.55378 -4.80275 0.13260 193 189 189
-5.57011 -4.80898 0.13206 185 175 170
-5.57647 -4.78430 0.13533 173 155 163
-5.59853 -4.80820 0.13262 193 194 198
-5.61358 -4.80972 0.11740 197 203 204
-2.38916 -4.25481 0.13724 115 98 107
-2.37458 -4.25221 0.12246 134 125 114
-2.38921 -4.25425 0.12243 120 101 110
-2.40383 -4.25630 0.12240 131 117 97
-2.55752 -4.12090 0.15769 122 115 98
-2.54352 -4.11841 0.14349 117 110 101
-2.57140 -4.12326 0.15761 78 68 57
-2.58551 -4.12469 0.14335 64 62 52
-2.59739 -4.13210 0.15687 66 56 42
-2.59744 -4.13156 0.14262 62 59 48
-2.61141 -4.13460 0.17109 49 39 35
-2.61007 -4.13730 0.15639 53 39 43
-2.62411 -4.13981 0.17063 43 35 41
-2.62416 -4.13927 0.15637 42 34 44
-2.62421 -4.13874 0.14211 44 35 45
-2.92972 -4.28553 0.14213 123 119 104
-2.91521 -4.28406 0.15680 97 93 77
-2.91526 -4.28351 0.14216 108 105 99
-2.91530 -4.28296 0.12752 121 114 106
-2.92977 -4.28498 0.12749 129 121 107
-2.98443 -4.25581 0.14696 137 139 145
-2.99942 -4.25569 0.14722 187 195 198
-3.01601 -4.25033 0.14820 208 209 211
-3.03030 -4.25233 0.14818 213 213 216
-3.03035 -4.25179 0.13371 212 212 215
-3.50653 -4.37610 0.13973 176 181 188
-3.51967 -4.38617 0.13862 140 138 141
-3.54663 -4.40316 0.13683 115 127 128
-3.56126 -4.40464 0.12204 123 117 112
-5.18085 -4.75922 0.11690 211 211 201
-5.19595 -4.76075 0.10165 204 198 197
-5.31379 -4.71474 0.12497 200 195 188
-5.29902 -4.71211 0.11000 194 197 195
-5.32796 -4.71447 0.12524 183 173 176
-5.34282 -4.71597 0.11023 172 168 186
-5.34199 -4.71368 0.12558 175 175 185
-5.41359 -4.71587 0.12647 175 178 185
-5.43396 -4.73702 0.12402 198 198 198
-5.44884 -4.73853 0.10898 209 215 218
-5.50392 -4.77994 0.11952 194 194 196
-5.48902 -4.77729 0.10441 191 191 203
-5.54825 -4.78458 0.11964 195 191 197
-5.53336 -4.78192 0.10454 197 196 205
-5.54831 -4.78401 0.10451 207 207 211
-5.56539 -4.79349 0.11875 193 192 182
-5.57892 -4.79115 0.11928 179 183 178
-5.59393 -4.79268 0.10411 192 189 197
-5.59633 -4.80074 0.11830 193 204 205
-5.61136 -4.80226 0.10311 194 196 203
-2.55365 -4.12918 0.14220 131 117 91
-2.53961 -4.12667 0.12796 123 120 100
-2.60858 -4.14036 0.14162 53 44 48
-2.59453 -4.13786 0.12737 63 59 53
-2.62273 -4.14180 0.12732 46 41 45
-2.94462 -4.28581 0.12763 123 114 95
-2.93021 -4.28324 0.11302 132 122 109
-2.94467 -4.28526 0.11299 128 116 96
-2.95912 -4.28728 0.11297 114 102 96
-2.97693 -4.27910 0.12909 123 122 133
-3.00091 -4.25054 0.13337 180 191 196
-3.01635 -4.24887 0.13386 206 207 212
-3.03068 -4.25032 0.11937 211 209 215
-3.49334 -4.36641 0.12607 183 191 199
-3.47882 -4.36494 0.14074 190 200 208
-3.47887 -4.36439 0.12609 189 200 206
-3.47892 -4.36384 0.11144 191 200 207
-3.50781 -4.36843 0.12604 174 179 188
-3.51917 -4.38884 0.12347 132 132 140
-3.53454 -4.38589 0.12413 106 91 93
-3.54911 -4.38737 0.10940 122 127 120
-3.54705 -4.40032 0.12238 118 125 125
-3.56167 -4.40181 0.10761 122 115 115
-4.98557 -4.73235 0.10191 209 210 212
-4.97053 -4.73025 0.10194 216 218 213
-4.98552 -4.73292 0.11714 209 209 209
-5.00057 -4.73502 0.11711 209 212 202
-5.00067 -4.73388 0.08665 193 195 181
-5.07523 -4.67344 0.11143 210 211 201
-5.31220 -4.70804 0.11078 203 199 191
-5.29746 -4.70542 0.09583 208 208 206
-5.35621 -4.71296 0.11086 182 184 191
-5.39721 -4.70742 0.11231 188 190 185
-5.38251 -4.70480 0.09741 188 184 182
-5.43425 -4.73728 0.10890 196 205 207
-5.55979 -4.77529 0.10589 201 201 200
-5.55984 -4.77473 0.09079 209 206 205
-5.57475 -4.77681 0.09076 202 200 198
-5.57010 -4.76314 0.10771 191 193 195
-5.58501 -4.76465 0.09264 203 204 196
-2.39162 -4.24872 0.10836 127 109 105
-2.40622 -4.25076 0.10833 128 116 100
-2.40627 -4.25020 0.09355 127 107 92
-2.55051 -4.13580 0.12688 135 121 92
-2.56518 -4.13651 0.12704 98 95 72
-2.58044 -4.13586 0.12740 69 60 55
-2.59459 -4.13730 0.11310 65 59 54
-2.73052 -4.24787 0.11444 41 37 35
-2.71604 -4.24641 0.12907 27 27 31
-2.71609 -4.24586 0.11446 31 27 26
-2.73047 -4.24842 0.12905 31 25 33
-2.74490 -4.25044 0.12902 39 31 38
-2.74495 -4.24989 0.11441 51 50 44
-2.97718 -4.27792 0.11459 117 118 132
-2.96282 -4.27536 0.10002 107 99 95
-2.99998 -4.25312 0.11844 171 183 191
-3.01647 -4.24808 0.11944 203 203 210
-3.03081 -4.24953 0.10495 210 209 215
-3.49521 -4.35558 0.11288 182 191 196
-3.48082 -4.35301 0.09829 191 200 209
-3.50863 -4.36341 0.11202 170 175 187
-3.51971 -4.38542 0.10915 115 115 144
-3.53326 -4.39336 0.10828 111 111 103
-3.54786 -4.39484 0.09352 121 127 121
-5.07512 -4.67215 0.09656 192 185 185
-5.08903 -4.67018 0.09708 180 181 186
-5.10385 -4.67169 0.08210 192 202 203
-5.31010 -4.69945 0.09689 208 211 207
-5.29539 -4.69682 0.08197 200 201 199
-5.32492 -4.70095 0.08191 184 183 187
-5.32513 -4.70247 0.09673 188 186 192
-5.35665 -4.71377 0.09571 192 199 198
-5.36948 -4.70888 0.09662 193 196 193
-5.38430 -4.71038 0.08164 198 202 193
-5.39934 -4.71413 0.09641 189 187 191
-5.39939 -4.71357 0.08146 198 200 199
-5.41416 -4.71564 0.08143 206 206 205
-5.45089 -4.74469 0.09306 195 194 204
-2.37416 -4.25218 0.09268 145 133 110
-2.39166 -4.24817 0.09357 135 117 98
-2.40632 -4.24965 0.07876 130 119 99
-2.54788 -4.14128 0.11168 119 103 97
-2.53379 -4.13877 0.09740 120 109 85
-2.54793 -4.14074 0.09737 124 112 93
-2.56144 -4.14455 0.11146 106 97 88
-2.57582 -4.14600 0.11151 75 61 55
-2.59001 -4.14744 0.09717 67 58 55
-2.73004 -4.24870 0.09962 53 51 44
-2.73937 -4.26414 0.09758 63 57 52
-2.75381 -4.26672 0.11222 58 52 50
-2.75386 -4.26617 0.09755 68 59 55
-2.75391 -4.26562 0.08289 78 66 67
-2.98042 -4.26732 0.10149 108 109 129
-2.96609 -4.26477 0.08696 109 99 92
-2.99724 -4.26152 0.10262 161 169 184
-3.01657 -4.24736 0.10500 201 202 208
-3.03091 -4.24882 0.09051 210 210 214
-3.49603 -4.35063 0.09891 181 191 193
-3.50741 -4.37024 0.09631 158 166 175
-3.52093 -4.37795 0.09545 94 87 125
-3.53485 -4.38350 0.09491 109 116 115
-3.54941 -4.38498 0.08019 115 125 124
-4.97012 -4.64879 0.08295 201 201 193
-4.97017 -4.64823 0.06802 204 213 206
-5.07064 -4.65026 0.08456 195 192 185
-5.05598 -4.64765 0.06970 191 199 197
-5.07069 -4.64970 0.06967 205 214 206
-5.08539 -4.65176 0.06964 213 215 207
-5.31048 -4.70010 0.08178 196 190 192
-5.29576 -4.69747 0.06685 192 197 197
-5.32529 -4.70160 0.06680 184 186 185
-5.33834 -4.69810 0.08256 191 202 195
-5.33839 -4.69754 0.06764 192 193 189
-1.49324 -4.15553 0.07557 146 135 120
-1.47856 -4.15291 0.06069 142 130 112
-1.49329 -4.15497 0.06066 151 139 123
-1.50802 -4.15702 0.06063 150 137 126
-2.37565 -4.24862 0.07834 142 133 113
-2.36108 -4.24602 0.06357 118 117 110
-2.37570 -4.24806 0.06354 125 118 95
-2.39032 -4.25010 0.06351 132 123 106
-2.39276 -4.24542 0.07913 138 129 100
-2.40740 -4.24690 0.06432 133 128 106
-2.55948 -4.14856 0.09644 115 99 90
-2.54537 -4.14605 0.08213 133 122 95
-2.57108 -4.15640 0.09550 79 63 61
-2.71744 -4.24155 0.08574 54 48 44
-2.72967 -4.24926 0.08484 64 53 57
-2.73939 -4.26366 0.08290 72 57 66
-2.94851 -4.27261 0.08548 121 110 92
-2.93405 -4.27115 0.10010 125 116 93
-2.93410 -4.27060 0.08551 124 115 90
-2.94846 -4.27316 0.10008 123 113 92
-2.98014 -4.26781 0.08678 104 97 107
-2.98290 -4.30696 0.08109 145 144 155
-3.01629 -4.24789 0.09037 196 202 206
-3.48284 -4.34159 0.08531 193 200 210
-3.46839 -4.34013 0.09991 196 203 213
-3.46844 -4.33958 0.08534 197 203 215
-3.46849 -4.33903 0.07077 198 206 216
-3.49770 -4.34094 0.08568 176 184 190
-3.50968 -4.35685 0.08357 130 130 147
-3.52384 -4.36046 0.08331 86 69 95
-3.53640 -4.37385 0.08158 109 117 123
-3.55094 -4.37532 0.06689 115 126 125
-4.92311 -4.62636 0.07035 191 200 202
-4.93781 -4.62841 0.07032 193 194 198
-4.95315 -4.63392 0.06980 195 196 201
-4.95320 -4.63336 0.05491 208 207 204
-4.98134 -4.63166 0.07065 206 208 203
-4.99603 -4.63371 0.07063 199 193 195
-4.99608 -4.63316 0.05576 192 193 194
-5.20773 -4.62962 0.07517 201 199 199
-5.22225 -4.63221 0.08988 192 196 190
-5.22230 -4.63166 0.07514 192 190 188
-5.23932 -4.64338 0.07374 195 201 199
-5.23927 -4.64393 0.08852 196 200 194
-5.25387 -4.64597 0.08849 199 196 200
-5.25392 -4.64542 0.07371 199 203 204
-5.36526 -4.69231 0.06890 189 183 186
-5.55849 -4.68212 0.07400 188 191 199
-5.55844 -4.68267 0.08875 200 210 207
-5.57302 -4.68471 0.08873 193 193 200
-5.57307 -4.68416 0.07397 191 194 193
-5.57311 -4.68360 0.05921 200 197 190
-2.55716 -4.15339 0.08125 125 120 97
-2.54303 -4.15088 0.06692 128 118 99
-2.56781 -4.16346 0.07994 88 80 63
-2.57995 -4.17023 0.07915 71 59 60
-2.59413 -4.17276 0.09353 61 56 45
-2.59418 -4.17222 0.07913 66 58 46
-2.59423 -4.17168 0.06472 69 59 49
-2.70532 -4.23326 0.07207 59 51 40
-2.73719 -4.26903 0.06730 87 68 80
-2.74812 -4.28057 0.06578 97 83 83
-2.76262 -4.28315 0.08048 81 76 73
-2.76267 -4.28260 0.06575 99 94 90
-2.93223 -4.27588 0.07000 136 129 104
-2.91775 -4.27441 0.08465 125 116 93
-2.91780 -4.27387 0.07003 134 127 103
-2.91784 -4.27332 0.05542 129 124 104
-2.93228 -4.27533 0.05539 138 134 110
-2.94980 -4.26824 0.07149 129 122 102
-2.96581 -4.26525 0.07225 120 110 92
-2.98399 -4.25526 0.07409 100 85 85
-3.03133 -4.24706 0.07623 207 210 216
-3.04556 -4.24959 0.09067 214 213 217
-3.04561 -4.24905 0.07621 212 212 214
-3.04566 -4.24851 0.06175 212 213 215
-3.48451 -4.33204 0.07212 191 198 208
-3.49647 -4.34764 0.07001 151 158 171
-3.51093 -4.34910 0.05539 59 55 77
-3.50793 -4.36671 0.06736 84 79 106
-3.52313 -4.36439 0.06800 91 84 89
-3.56282 -4.39381 0.06433 122 130 125
-3.56277 -4.39436 0.07906 123 128 123
-3.57551 -4.40785 0.06247 141 149 137
-3.59005 -4.41044 0.07721 130 136 134
-3.59010 -4.40988 0.06244 132 130 134
-3.59015 -4.40933 0.04767 137 133 132
-4.89415 -4.62391 0.05520 186 183 177
-4.91255 -4.64708 0.05207 171 168 170
-4.93824 -4.62994 0.05514 200 202 201
-5.17460 -4.60813 0.06294 200 196 203
-5.18916 -4.60960 0.04822 206 204 202
-5.20768 -4.62866 0.06048 200 197 199
-5.22460 -4.64012 0.05908 180 182 186
-5.34611 -4.67354 0.05638 196 197 191
-5.33151 -4.67094 0.04157 197 198 202
-5.34616 -4.67298 0.04154 197 195 199
-5.37685 -4.68264 0.05560 196 197 189
-5.37690 -4.68208 0.04074 206 207 196
-5.39152 -4.68469 0.05557 214 216 203
-5.55473 -4.66993 0.06091 192 188 192
-2.55310 -4.16217 0.06538 130 118 97
-2.53893 -4.15964 0.05101 129 121 101
-2.55315 -4.16163 0.05098 131 119 101
-2.56435 -4.17093 0.06425 102 96 71
-2.57696 -4.17671 0.06360 77 63 59
-2.60309 -4.18629 0.06264 60 54 42
-2.61732 -4.18883 0.07707 46 41 37
-2.61737 -4.18828 0.06261 49 43 43
-2.61742 -4.18774 0.04816 52 47 44
-2.68247 -4.21399 0.05993 49 44 38
-2.66808 -4.21253 0.07448 38 37 30
-2.66813 -4.21198 0.05996 41 38 31
-2.69510 -4.22029 0.05921 58 53 49
-2.69921 -4.24840 0.05496 71 65 52
-2.71113 -4.25693 0.05388 84 75 63
-2.74928 -4.27706 0.05153 115 103 97
-2.76387 -4.27854 0.03679 133 125 115
-2.76733 -4.26967 0.05302 121 113 105
-2.78178 -4.27224 0.06767 120 113 99
-2.78183 -4.27169 0.05299 133 125 110
-2.96738 -4.25994 0.05845 125 116 96
-2.98523 -4.25094 0.06019 104 89 80
-2.99960 -4.25239 0.04566 92 84 76
-2.99952 -4.25304 0.06014 97 87 92
-3.03200 -4.24447 0.06210 196 206 217
-3.48505 -4.32878 0.05801 174 182 187
-3.49861 -4.33524 0.05728 107 108 124
-3.52466 -4.35513 0.05473 104 110 107
-3.53845 -4.36099 0.05410 122 126 131
-3.57635 -4.40218 0.04850 155 162 132
-3.59097 -4.40367 0.03372 155 154 145
-4.86109 -4.59680 0.04375 206 206 192
-4.84652 -4.59421 0.02897 205 210 206
-4.86115 -4.59625 0.02894 209 212 199
-4.87836 -4.61452 0.04136 197 193 186
-4.89531 -4.62982 0.03934 181 173 172
-4.91373 -4.65296 0.03613 169 166 166
-4.92325 -4.62542 0.04056 187 193 188
-5.13154 -4.60325 0.04807 206 211 205
-5.11708 -4.60067 0.03341 200 201 199
-5.13159 -4.60270 0.03338 212 220 214
-5.14610 -4.60473 0.03335 200 201 204
-5.55252 -4.66247 0.04722 210 207 206
-5.56725 -4.66514 0.04709 201 193 194
-5.58171 -4.66772 0.06176 205 209 195
-5.58181 -4.66662 0.03237 187 180 194
-1.87598 -4.13156 0.04207 148 133 113
-1.86148 -4.13008 0.05673 142 128 117
-1.86153 -4.12954 0.04210 144 124 105
-1.86158 -4.12899 0.02747 147 135 111
-1.87593 -4.13210 0.05670 153 135 119
-1.89043 -4.13357 0.04205 149 136 115
-2.56337 -4.17275 0.04943 114 108 87
-2.54917 -4.17021 0.03503 126 121 110
-2.57424 -4.18256 0.04810 81 72 66
-2.58758 -4.18675 0.04771 69 63 57
-2.59997 -4.19320 0.04694 62 58 47
-2.61433 -4.19465 0.03243 54 47 50
-2.66851 -4.21061 0.04558 52 37 41
-2.65413 -4.20915 0.06012 37 41 28
-2.65418 -4.20860 0.04561 41 40 35
-2.68345 -4.21112 0.04580 64 53 52
-2.69385 -4.22301 0.04413 78 72 64
-2.70683 -4.26757 0.03737 98 90 77
-2.71923 -4.27512 0.03643 109 99 84
-2.73517 -4.27350 0.03700 113 106 92
-2.74975 -4.27498 0.02226 128 124 110
-2.96625 -4.26308 0.04330 132 126 109
-2.95192 -4.26053 0.02878 136 128 123
-2.96630 -4.26254 0.02875 138 129 122
-2.98228 -4.25986 0.04414 119 106 88
-3.01281 -4.25800 0.04504 94 103 114
-3.03229 -4.24313 0.04778 158 177 193
-3.04570 -4.24797 0.04729 205 212 222
-3.05994 -4.25051 0.06172 217 219 217
-3.05999 -4.24997 0.04726 217 219 220
-3.47235 -4.31757 0.04491 180 194 194
-3.49608 -4.34931 0.04038 74 61 83
-3.50968 -4.35608 0.03959 79 75 86
-3.52734 -4.33904 0.04263 120 126 123
-3.53987 -4.35218 0.04081 128 131 127
-3.55432 -4.35364 0.02620 162 161 143
-3.55325 -4.36052 0.03977 134 141 125
-3.56773 -4.36199 0.02513 175 183 157
-3.56545 -4.37670 0.03746 144 158 123
-3.57998 -4.37817 0.02277 179 179 165
-4.87676 -4.60419 0.02801 205 202 194
-4.86217 -4.60159 0.01321 203 203 199
-4.87681 -4.60364 0.01318 210 205 195
-4.89457 -4.62467 0.02513 182 177 171
-4.91039 -4.63305 0.02413 181 183 178
-4.92518 -4.63455 0.00919 206 211 199
-4.92293 -4.62281 0.02600 198 210 197
-4.93767 -4.62430 0.01110 199 196 196
-4.94111 -4.64406 0.02301 200 206 199
-4.95592 -4.64556 0.00805 195 191 191
-5.28656 -4.60755 0.03574 191 193 196
-5.30106 -4.60902 0.02108 214 223 225
-5.29969 -4.60470 0.03645 210 213 213
-5.37818 -4.63679 0.03297 206 205 199
-5.37823 -4.63624 0.01828 220 222 216
-5.46803 -4.65803 0.03143 194 199 192
-5.45344 -4.65656 0.04618 194 196 187
-5.45349 -4.65600 0.03146 194 195 193
-5.46798 -4.65859 0.04615 193 195 187
-5.48253 -4.66062 0.04613 192 192 192
-5.51342 -4.66967 0.03051 192 195 204
-5.51337 -4.67022 0.04525 202 198 202
-5.52798 -4.67170 0.03048 193 191 195
-5.53753 -4.65826 0.03280 193 191 191
-5.53758 -4.65771 0.01811 184 190 189
-5.56418 -4.65516 0.03382 208 202 205
-1.95642 -4.10225 0.03375 129 118 108
-1.94207 -4.10079 0.04826 133 127 119
-1.95637 -4.10279 0.04823 133 123 114
-1.95647 -4.10170 0.01926 115 106 92
-1.97068 -4.10479 0.04821 132 125 101
-1.97073 -4.10424 0.03372 133 122 105
-2.07845 -4.15909 0.02709 128 111 92
-2.06395 -4.15762 0.04175 132 118 101
-2.06400 -4.15708 0.02712 135 121 96
-2.06405 -4.15653 0.01249 137 124 100
-2.07840 -4.15964 0.04172 127 106 94
-2.09291 -4.16111 0.02707 117 98 96
-2.49885 -4.18089 0.03227 138 126 98
-2.48449 -4.17943 0.04679 129 122 103
-2.48454 -4.17889 0.03229 129 120 99
-2.49880 -4.18143 0.04676 115 112 95
-2.49890 -4.18034 0.01777 139 129 111
-2.51317 -4.18289 0.03224 138 133 109
-2.56192 -4.17564 0.03442 122 117 94
-2.54770 -4.17311 0.02000 116 111 107
-2.56196 -4.17510 0.01997 129 123 101
-2.57162 -4.18816 0.03260 88 84 70
-2.58407 -4.19449 0.03183 77 70 62
-2.59628 -4.20144 0.03096 68 60 55
-2.65631 -4.20296 0.03196 54 50 45
-2.64195 -4.20150 0.04648 42 42 36
-2.64199 -4.20096 0.03199 45 41 42
-2.67133 -4.20323 0.03223 70 58 55
-2.67637 -4.22836 0.02827 90 79 81
-2.69292 -4.22495 0.02917 106 96 89
-2.70735 -4.22641 0.01458 125 118 101
-2.70189 -4.24073 0.02680 118 115 92
-2.70567 -4.27015 0.02213 115 109 92
-2.71788 -4.27821 0.02108 119 109 93
-2.73249 -4.27969 0.00631 129 116 103
-2.73550 -4.27222 0.02241 115 105 97
-2.75008 -4.27369 0.00768 131 119 106
-2.98270 -4.25816 0.02979 130 118 104
-2.96839 -4.25561 0.01529 137 124 124
-2.98275 -4.25762 0.01526 137 126 115
-2.99782 -4.25770 0.03018 114 105 89
-3.01574 -4.24815 0.03209 86 85 84
-3.02567 -4.26447 0.02966 97 107 129
-3.05118 -4.22940 0.03586 165 181 206
-3.06119 -4.24554 0.03345 208 215 227
-3.07541 -4.24808 0.04787 218 219 222
-3.07545 -4.24754 0.03343 217 218 223
-3.44558 -4.30356 0.03204 178 188 194
-3.43125 -4.30210 0.04652 177 183 194
-3.43130 -4.30156 0.03206 178 185 194
-3.45945 -4.30777 0.03164 169 180 182
-3.46772 -4.34237 0.02623 133 135 143
-3.48218 -4.34383 0.01161 74 66 74
-3.49768 -4.33998 0.02723 75 67 82
-3.51347 -4.33389 0.02854 109 124 111
-3.52819 -4.33379 0.02886 138 143 126
-3.54042 -4.34860 0.02672 146 144 138
-3.55486 -4.35007 0.01212 173 170 153
-4.89349 -4.61751 0.01128 207 203 184
-4.87885 -4.61490 -0.00356 206 209 198
-4.89354 -4.61695 -0.00359 211 214 195
-4.90823 -4.61900 -0.00361 202 203 195
-4.90944 -4.62675 0.01012 206 208 195
-4.92420 -4.62824 -0.00480 201 200 197
-5.28655 -4.60681 0.02114 195 204 205
-5.51959 -4.64484 0.01982 187 191 198
-5.53411 -4.64632 0.00514 181 176 176
-5.57441 -4.64375 0.02113 186 182 188
-5.58890 -4.64522 0.00648 188 189 193
-1.65027 -4.09041 0.01464 141 126 119
-1.63585 -4.08840 0.01467 140 127 115
-1.63590 -4.08785 0.00007 146 131 123
-1.65032 -4.08986 0.00004 141 127 125
-1.66474 -4.09188 0.00001 142 123 115
-1.94315 -4.09811 0.01957 124 115 99
-1.92880 -4.09666 0.03408 136 125 113
-1.92885 -4.09612 0.01960 130 123 104
-1.92889 -4.09557 0.00512 129 113 96
-1.94320 -4.09757 0.00510 127 110 98
-2.09229 -4.16173 0.01223 136 114 99
-2.07789 -4.15916 -0.00238 141 125 105
-2.09234 -4.16118 -0.00241 144 125 103
-2.10675 -4.16375 0.01220 132 119 108
-2.51507 -4.17823 0.01846 138 129 117
-2.51512 -4.17769 0.00399 126 107 100
-2.52932 -4.18077 0.03292 134 125 109
-2.52942 -4.17968 0.00396 126 112 105
-2.57248 -4.18575 0.01844 116 110 87
-2.55823 -4.18321 0.00399 133 126 102
-2.58153 -4.19996 0.01628 109 93 70
-2.59453 -4.20515 0.01570 82 66 46
-2.60823 -4.20871 0.01541 60 44 50
-2.62255 -4.21126 0.02992 45 44 43
-2.62602 -4.20251 0.01680 52 38 46
-2.63816 -4.20981 0.01586 57 53 49
-2.66713 -4.21318 0.01591 97 91 80
-2.69537 -4.21834 0.01566 118 108 105
-2.70978 -4.21980 0.00110 121 116 103
-2.99837 -4.25555 0.01594 139 126 106
-2.98408 -4.25301 0.00145 142 130 120
-3.01189 -4.26021 0.01545 114 97 77
-3.02625 -4.26216 0.01544 66 59 61
-3.04135 -4.26168 0.01584 95 107 137
-3.06601 -4.22893 0.02177 163 179 202
-3.07542 -4.24728 0.01894 204 214 223
-3.08964 -4.24981 0.03335 219 218 223
-3.09176 -4.24209 0.02014 216 217 224
-3.10596 -4.24462 0.03453 224 222 225
-3.10600 -4.24408 0.02011 224 221 225
-3.43471 -4.28391 0.02050 175 182 186
-3.42044 -4.28246 0.03492 175 181 190
-3.42049 -4.28192 0.02053 176 182 186
-3.46812 -4.33990 0.01196 78 64 78
-3.50256 -4.31215 0.01727 104 112 106
-3.51463 -4.32695 0.01509 137 151 136
-3.52901 -4.32841 0.00055 167 171 160
-3.52864 -4.33084 0.01474 159 162 138
-3.54303 -4.33230 0.00019 167 163 162
-4.82933 -4.57417 0.00212 205 205 201
-4.81471 -4.57269 0.01689 204 205 203
-4.81476 -4.57213 0.00215 201 203 203
-4.82928 -4.57472 0.01686 204 206 202
-4.84384 -4.57676 0.01684 199 202 202
-4.84394 -4.57565 -0.01265 193 188 191
-5.25624 -4.59661 0.00746 196 189 191
-5.28699 -4.60773 0.00628 195 204 203
-5.28704 -4.60718 -0.00836 201 208 209
-5.30150 -4.60920 -0.00839 206 206 207
-5.29788 -4.59657 0.00835 208 210 212
-5.31234 -4.59803 -0.00627 204 204 206
-5.47898 -4.64707 0.00385 205 207 205
-5.46453 -4.64450 -0.01081 205 209 203
-5.49371 -4.64983 0.00370 193 185 184
-5.79382 -4.68072 0.00496 186 182 195
-5.77930 -4.67925 0.01963 200 204 217
-5.77935 -4.67870 0.00499 193 197 208
-5.77940 -4.67815 -0.00965 200 203 201
-5.79377 -4.68127 0.01960 186 181 191
-5.80828 -4.68274 0.00493 175 171 198
-2.49943 -4.17874 0.00347 122 115 116
-2.48517 -4.17620 -0.01100 144 133 128
-2.57349 -4.18298 0.00436 138 120 104
-2.55925 -4.18044 -0.01008 134 125 98
-2.58783 -4.18443 -0.01014 144 135 118
-2.58537 -4.19059 0.00333 141 123 98
-2.59014 -4.21502 -0.00069 114 97 59
-2.60801 -4.20881 0.00075 90 70 59
-2.61967 -4.21731 -0.00043 88 69 70
-2.62977 -4.22970 -0.00231 100 93 78
-2.65533 -4.20451 0.00250 119 112 100
-2.66971 -4.20596 -0.01203 136 123 118
-2.67040 -4.20468 0.00280 124 111 104
-2.68477 -4.20613 -0.01173 135 126 114
-2.68425 -4.20786 0.00256 126 119 104
-2.69862 -4.20932 -0.01197 133 128 111
-3.00017 -4.24942 0.00240 145 132 112
-2.98590 -4.24687 -0.01206 136 124 118
-3.00022 -4.24887 -0.01209 144 136 119
-3.01248 -4.25793 0.00123 134 121 87
-3.02684 -4.25985 0.00122 97 83 50
-3.04771 -4.24016 0.00500 67 67 69
-3.06202 -4.24161 -0.00946 70 69 57
-3.05671 -4.25986 0.00187 89 101 115
-3.07542 -4.24691 0.00446 144 160 176
-3.08986 -4.24830 0.00454 189 200 218
-3.10531 -4.24613 0.00524 217 220 225
-3.11952 -4.24866 0.01964 228 225 228
-3.11956 -4.24812 0.00521 227 224 228
-3.41398 -4.24178 0.01268 171 179 180
-3.39986 -4.24034 0.02696 173 179 182
-3.39990 -4.23981 0.01270 175 180 182
-3.41393 -4.24231 0.02693 172 179 182
-3.42811 -4.24321 -0.00160 107 107 124
-3.42223 -4.27288 0.00761 164 170 173
-3.43647 -4.27432 -0.00678 71 58 84
-3.42460 -4.33517 -0.00286 139 144 149
-3.43906 -4.33663 -0.01748 47 40 61
-3.46519 -4.35551 -0.00542 80 71 76
-3.48486 -4.32875 -0.00047 129 128 112
-3.50413 -4.30299 0.00430 141 149 137
-3.51843 -4.30444 -0.01016 157 160 151
-3.51660 -4.31529 0.00249 149 161 154
-3.53094 -4.31675 -0.01201 160 166 155
-5.49888 -4.62175 -0.00622 188 179 169
-5.51333 -4.62321 -0.02083 195 195 199
-5.51059 -4.61537 -0.00489 191 192 189
-5.52501 -4.61683 -0.01946 197 199 194
-5.55074 -4.61243 -0.00352 200 207 210
-5.53645 -4.60988 -0.01801 187 184 186
-5.56826 -4.62396 -0.00509 199 203 199
-5.58269 -4.62542 -0.01967 209 209 200
-5.81878 -4.70925 -0.01405 177 177 200
-5.83329 -4.71184 0.00066 186 191 202
-5.83339 -4.71073 -0.02881 203 198 202
-5.83403 -4.71307 -0.01436 202 209 212
-5.84855 -4.71565 0.00035 207 208 206
-5.84865 -4.71455 -0.02913 187 180 187
-2.03277 -4.12900 -0.01291 146 139 122
-2.01835 -4.12754 0.00167 153 137 119
-2.01840 -4.12699 -0.01288 152 136 124
-2.04710 -4.13155 0.00161 136 120 101
-2.04719 -4.13046 -0.02748 143 123 113
-2.04568 -4.13351 -0.01340 139 124 101
-2.06002 -4.13606 0.00113 131 117 109
-2.06007 -4.13552 -0.01343 135 121 109
-2.06011 -4.13497 -0.02799 136 124 111
-2.50018 -4.17665 -0.01074 129 119 118
-2.48592 -4.17411 -0.02520 141 130 121
-2.50023 -4.17611 -0.02523 147 132 119
-2.51580 -4.17574 -0.01024 138 116 99
-2.53191 -4.17367 -0.00952 132 116 106
-2.54614 -4.17620 0.00491 121 116 102
-2.54619 -4.17566 -0.00955 130 124 104
-2.54624 -4.17512 -0.02401 139 133 114
-2.57589 -4.17702 -0.00912 139 125 114
-2.56167 -4.17449 -0.02354 135 123 107
-2.57594 -4.17648 -0.02357 135 125 117
-2.60052 -4.19019 -0.01085 142 127 95
-2.60057 -4.18965 -0.02533 145 130 110
-2.61263 -4.19740 -0.01182 123 109 90
-2.62638 -4.20079 -0.01210 117 104 99
-2.64076 -4.20225 -0.02664 131 114 111
-2.64016 -4.20413 -0.01237 127 114 104
-2.65572 -4.20314 -0.01186 134 123 111
-2.67009 -4.20460 -0.02638 139 129 120
-3.01531 -4.24836 -0.01167 144 138 108
-3.00105 -4.24582 -0.02612 145 140 128
-3.01536 -4.24782 -0.02615 138 135 121
-3.02889 -4.25276 -0.01212 132 119 90
-3.04233 -4.25765 -0.01267 107 101 72
-3.07538 -4.24665 -0.01004 69 75 90
-3.09008 -4.24718 -0.00980 109 123 158
-3.10469 -4.24794 -0.00961 165 176 203
-3.12089 -4.24304 -0.00840 206 210 225
-3.13507 -4.24557 0.00598 222 218 224
-3.13721 -4.23752 -0.00709 216 220 225
-3.15137 -4.24004 0.00727 225 224 223
-3.16607 -4.23979 -0.00684 219 217 219
-3.18023 -4.24232 0.00751 215 214 217
-3.18027 -4.24178 -0.00686 214 214 214
-3.39966 -4.24068 -0.00180 163 169 173
-3.38553 -4.23925 0.01249 178 179 183
-3.38558 -4.23872 -0.00177 173 177 180
-3.41379 -4.24212 -0.01608 70 70 90
-3.41051 -4.25851 -0.00463 140 150 158
-3.42470 -4.25994 -0.01898 43 41 63
-3.45193 -4.34679 -0.01895 77 72 82
-3.45198 -4.34625 -0.03357 136 137 139
-3.48943 -4.30319 -0.01059 165 164 153
-3.48948 -4.30265 -0.02503 172 176 166
-3.50374 -4.30464 -0.02506 173 172 156
-3.50446 -4.30087 -0.00985 167 171 156
-3.51876 -4.30232 -0.02431 158 153 139
-5.48534 -4.62177 -0.02120 213 212 190
-5.48539 -4.62122 -0.03579 200 201 195
-5.49980 -4.62324 -0.03581 193 188 186
-5.54227 -4.58610 -0.01378 188 188 201
-5.79318 -4.67772 -0.02401 188 181 190
-5.77878 -4.67515 -0.03862 207 200 206
-5.79323 -4.67717 -0.03865 195 192 198
-5.80769 -4.67919 -0.03867 192 192 194
-5.81466 -4.69789 -0.02702 185 183 197
-5.82923 -4.69937 -0.04174 191 188 191
-2.03440 -4.12578 -0.02695 148 138 123
-2.04880 -4.12724 -0.04152 145 126 110
-2.10091 -4.14514 -0.02885 138 122 112
-2.08647 -4.14367 -0.01425 135 110 102
-2.08652 -4.14313 -0.02882 132 109 102
-2.11531 -4.14715 -0.02888 145 136 124
-2.11536 -4.14660 -0.04345 148 137 130
-2.51904 -4.16811 -0.02339 152 133 112
-2.50482 -4.16558 -0.03781 153 138 126
-2.51909 -4.16757 -0.03783 154 136 127
-2.53335 -4.16956 -0.03786 149 138 121
-2.53402 -4.16850 -0.02312 147 130 114
-2.54833 -4.16995 -0.03758 141 135 120
-2.58889 -4.18155 -0.02417 133 123 117
-2.57465 -4.17902 -0.03860 138 129 120
-2.61650 -4.18779 -0.02464 138 129 108
-2.61655 -4.18725 -0.03911 140 132 109
-2.63084 -4.18924 -0.03913 136 122 112
-2.62937 -4.19320 -0.02530 128 115 108
-2.64372 -4.19465 -0.03981 135 120 117
-3.03287 -4.23932 -0.02425 132 123 111
-3.01865 -4.23678 -0.03867 138 133 122
-3.03292 -4.23877 -0.03870 138 133 118
-3.04719 -4.24077 -0.03872 143 137 118
-3.04704 -4.24162 -0.02434 135 129 105
-3.05946 -4.24983 -0.02550 120 111 87
-3.07377 -4.25178 -0.02552 78 72 68
-3.08961 -4.24843 -0.02457 57 55 77
-3.11082 -4.22611 -0.02015 83 80 123
-3.11754 -4.25458 -0.02502 128 133 173
-3.13400 -4.24873 -0.02361 173 182 202
-3.15036 -4.24297 -0.02223 191 195 207
-3.16453 -4.24517 -0.02229 195 198 204
-3.17894 -4.24645 -0.02219 204 210 212
-3.19311 -4.24898 -0.00782 212 210 211
-3.20499 -4.25965 -0.02392 207 210 209
-3.21920 -4.26218 -0.00952 206 207 208
-3.38387 -4.24645 -0.01753 138 142 149
-3.36971 -4.24502 -0.00321 177 181 184
-3.36981 -4.24394 -0.03179 93 78 117
-3.38392 -4.24592 -0.03182 65 50 79
-3.39804 -4.24789 -0.03184 44 34 49
-3.39403 -4.26747 -0.02100 109 110 121
-3.40827 -4.26892 -0.03539 50 43 61
-5.08513 -4.51672 -0.02647 183 177 177
-5.07085 -4.51527 -0.01203 207 212 197
-5.07090 -4.51473 -0.02644 206 206 195
-5.07094 -4.51419 -0.04085 204 205 194
-5.08508 -4.51726 -0.01206 188 185 187
-5.09931 -4.51925 -0.01209 173 172 180
-5.35549 -4.55426 -0.02694 206 207 209
-5.34126 -4.55227 -0.02691 194 188 194
-5.35544 -4.55480 -0.01253 212 214 212
-5.35554 -4.55372 -0.04135 206 202 205
-5.36972 -4.55625 -0.02697 209 205 201
-5.36977 -4.55571 -0.04137 209 209 204
-5.47032 -4.61709 -0.03540 197 200 203
-5.45592 -4.61508 -0.03537 195 191 201
-5.48477 -4.61855 -0.05001 180 180 178
-5.49681 -4.57101 -0.02668 182 179 187
-5.48264 -4.56848 -0.04105 178 176 181
-5.51103 -4.57299 -0.02670 196 199 196
-2.10279 -4.14136 -0.04280 143 120 115
-2.08846 -4.13881 -0.05734 156 134 113
-2.10284 -4.14081 -0.05736 149 129 116
-2.59117 -4.17580 -0.03764 128 109 105
-2.60548 -4.17725 -0.05210 124 113 105
-2.60527 -4.17817 -0.03774 135 123 108
-2.61959 -4.17962 -0.05220 136 129 106
-3.06639 -4.22614 -0.03564 143 129 111
-3.05224 -4.22361 -0.05000 147 137 122
-3.06644 -4.22560 -0.05002 144 131 124
-3.07879 -4.23428 -0.03682 134 119 104
-3.09451 -4.23112 -0.03589 111 101 81
-3.10507 -4.24587 -0.03829 78 61 60
-3.11598 -4.25977 -0.04054 63 54 79
-3.13599 -4.24118 -0.03673 101 93 129
-3.15048 -4.24217 -0.03657 116 117 144
-3.16232 -4.25299 -0.03824 116 125 146
-3.17017 -4.27908 -0.04276 148 159 174
-3.20309 -4.26669 -0.03976 175 182 197
-3.21627 -4.27299 -0.04059 180 189 200
-3.23175 -4.27026 -0.03974 182 191 202
-3.24598 -4.27280 -0.02531 200 200 206
-5.33931 -4.54469 -0.04010 202 193 193
-5.32505 -4.54324 -0.02569 200 195 193
-5.32515 -4.54217 -0.05446 207 200 200
-5.35356 -4.54613 -0.05451 212 207 205
-5.48788 -4.54250 -0.03625 182 180 183
-5.47381 -4.54000 -0.05052 176 171 176
-5.50206 -4.54394 -0.05058 201 203 203
-5.49971 -4.53738 -0.03505 199 199 202
-5.51386 -4.53882 -0.04935 202 205 204
-5.51032 -4.52869 -0.03324 199 200 199
-5.53002 -4.54771 -0.03621 203 207 200
-5.54419 -4.54914 -0.05053 213 221 217
-2.19820 -4.10792 -0.04905 130 116 99
-2.21237 -4.11044 -0.03469 126 116 114
-2.21242 -4.10990 -0.04908 134 111 98
-2.54263 -4.14832 -0.04828 135 116 109
-2.54268 -4.14778 -0.06265 125 104 99
-2.55687 -4.14976 -0.06268 128 112 106
-2.59461 -4.16738 -0.05055 124 112 98
-2.58043 -4.16485 -0.06493 135 124 116
-2.59466 -4.16684 -0.06496 128 123 113
-2.60889 -4.16882 -0.06498 127 117 109
-3.09488 -4.22945 -0.05005 144 133 118
-3.10914 -4.23089 -0.06446 141 124 113
-3.10876 -4.23257 -0.05030 140 124 105
-3.12249 -4.23627 -0.05065 112 103 86
-3.13433 -4.24681 -0.05230 98 78 88
-3.14623 -4.25737 -0.05396 62 53 45
-3.15924 -4.26405 -0.05488 39 42 50
-3.18499 -4.27889 -0.05699 78 67 105
-3.19123 -4.31227 -0.06297 92 83 129
-3.20574 -4.31374 -0.07764 43 30 46
-3.24586 -4.33354 -0.06558 107 104 139
-3.26031 -4.33611 -0.05092 173 181 194
-3.26036 -4.33556 -0.06561 102 100 131
-5.33732 -4.53699 -0.05322 210 207 205
-5.32318 -4.53447 -0.06755 207 200 199
-5.33737 -4.53645 -0.06758 214 211 204
-5.46771 -4.56355 -0.05499 190 188 178
-5.45354 -4.56102 -0.06936 198 197 199
-5.52010 -4.51705 -0.04521 206 210 210
-5.50613 -4.51456 -0.05937 202 201 204
-5.52015 -4.51652 -0.05940 202 197 196
-5.53417 -4.51847 -0.05943 210 211 213
-1.77103 -4.00325 -0.05431 156 142 130
-1.75693 -4.00182 -0.04006 147 126 118
-1.75703 -4.00075 -0.06852 159 146 129
-1.77098 -4.00378 -0.04009 145 126 117
-1.77108 -4.00271 -0.06854 157 144 121
-1.78504 -4.00574 -0.04011 133 121 115
-1.78397 -4.00685 -0.05468 146 132 119
-1.79799 -4.00935 -0.04047 120 111 107
-1.79808 -4.00828 -0.06894 144 131 109
-2.20410 -4.09666 -0.06130 136 125 108
-2.18997 -4.09415 -0.07562 147 134 116
-2.20414 -4.09613 -0.07565 142 138 116
-2.21832 -4.09810 -0.07567 151 153 135
-2.25511 -4.08667 -0.05819 123 105 112
-2.25507 -4.08721 -0.04390 130 115 117
-2.25516 -4.08614 -0.07247 129 113 109
-2.52839 -4.14602 -0.06267 130 116 102
-2.51416 -4.14458 -0.04827 147 134 123
-2.51420 -4.14404 -0.06264 138 124 110
-2.51425 -4.14350 -0.07701 137 124 108
-2.52844 -4.14548 -0.07703 135 120 108
-3.12492 -4.22727 -0.06340 135 129 109
-3.13769 -4.23432 -0.06441 146 131 104
-3.14954 -4.24490 -0.06610 110 104 59
-3.18488 -4.27896 -0.07163 52 42 59
-3.19873 -4.28288 -0.07202 47 35 52
-3.22534 -4.29520 -0.07368 41 29 46
-5.34993 -4.53281 -0.06659 212 206 201
-5.34998 -4.53227 -0.08093 219 218 212
-5.36405 -4.53532 -0.05228 208 201 197
-5.36409 -4.53478 -0.06661 205 198 197
-5.47319 -4.53736 -0.06445 196 186 185
-5.48736 -4.53880 -0.07876 186 184 192
-1.78283 -4.00807 -0.06928 144 129 110
-1.78288 -4.00754 -0.08352 138 125 114
-1.79695 -4.00951 -0.08355 139 125 114
-2.27282 -4.08140 -0.07113 128 102 105
-2.25879 -4.07890 -0.08536 142 126 118
-2.28696 -4.08283 -0.08542 147 134 119
-2.28692 -4.08335 -0.07115 136 120 115
-2.30096 -4.08585 -0.05692 137 120 124
-2.30100 -4.08532 -0.07118 142 126 123
-2.30105 -4.08478 -0.08544 145 134 122
-2.54706 -4.13754 -0.07505 137 128 111
-2.54711 -4.13701 -0.08938 147 142 123
-2.71637 -4.16253 -0.07563 136 122 107
-2.70221 -4.16056 -0.07560 134 116 97
-2.71642 -4.16200 -0.08996 144 125 106
-2.73048 -4.16505 -0.06132 144 137 123
-2.73052 -4.16451 -0.07565 140 132 115
-2.73057 -4.16397 -0.08998 141 129 109
-3.09925 -4.21361 -0.07589 141 130 122
-3.14176 -4.21930 -0.07592 157 141 125
-3.15559 -4.22245 -0.07618 150 131 110
-3.16384 -4.24628 -0.08053 127 106 92
-3.19377 -4.30172 -0.09038 124 116 88
-3.20824 -4.30318 -0.10500 155 155 126
-3.20100 -4.33202 -0.09599 118 107 80
-3.21558 -4.33350 -0.11072 160 158 129
-3.21375 -4.34116 -0.09742 116 102 80
-3.22835 -4.34264 -0.11218 151 149 134
-3.22860 -4.34198 -0.09720 114 108 79
-3.24320 -4.34346 -0.11196 158 152 135
-5.25234 -4.47309 -0.07204 191 195 196
-5.26629 -4.47557 -0.05790 194 197 197
-5.26634 -4.47504 -0.07207 203 202 199
-5.36133 -4.52459 -0.07918 213 214 214
-5.34725 -4.52208 -0.09346 217 219 217
-5.37541 -4.52710 -0.06490 205 200 200
-5.37649 -4.53007 -0.07985 208 205 208
-5.39059 -4.53258 -0.06556 202 200 202
-5.39063 -4.53205 -0.07987 200 191 196
-5.39068 -4.53151 -0.09419 196 187 197
-5.46385 -4.50728 -0.07332 205 204 197
-5.44988 -4.50479 -0.08749 203 202 205
-5.46390 -4.50675 -0.08751 208 208 205
-3.10289 -4.20068 -0.08770 148 146 128
-3.10294 -4.20014 -0.10198 155 153 140
-3.11704 -4.20211 -0.10200 163 161 148
-3.11737 -4.20131 -0.08746 154 146 132
-3.13151 -4.20275 -0.10176 163 154 146
-3.13201 -4.20135 -0.08710 157 156 148
-3.14615 -4.20278 -0.10139 168 154 145
-3.14382 -4.21152 -0.08878 165 148 138
-3.15799 -4.21295 -0.10310 166 158 150
-3.15854 -4.21131 -0.08836 151 141 133
-3.17269 -4.21275 -0.10268 170 168 140
-3.16722 -4.23338 -0.09244 141 129 106
-3.19412 -4.24300 -0.09364 146 142 127
-3.20837 -4.24444 -0.10805 158 156 144
-5.15357 -4.45544 -0.08538 190 187 182
-5.13954 -4.45402 -0.07120 199 197 197
-5.13963 -4.45296 -0.09951 200 197 198
-5.15352 -4.45597 -0.07122 191 189 195
-5.16756 -4.45739 -0.08541 185 186 175
-5.32913 -4.50609 -0.09080 212 213 208
-5.31501 -4.50466 -0.07652 205 200 193
-5.31505 -4.50412 -0.09077 204 200 194
-5.31510 -4.50359 -0.10503 205 208 203
-5.35561 -4.50423 -0.08977 213 212 211
-5.35566 -4.50370 -0.10400 200 205 203
-5.36972 -4.50566 -0.10403 201 202 200
-2.05916 -4.02938 -0.09506 155 146 129
-2.04510 -4.02796 -0.08085 150 138 115
-2.04515 -4.02743 -0.09504 147 133 114
-2.05921 -4.02885 -0.10925 158 147 127
-2.07321 -4.03081 -0.10927 153 138 129
-2.70240 -4.15926 -0.10422 152 144 125
-2.68829 -4.15675 -0.11852 145 131 131
-2.70244 -4.15873 -0.11855 150 138 126
-2.71381 -4.16815 -0.10569 149 137 121
-2.72799 -4.17013 -0.10571 144 132 114
-2.72804 -4.16959 -0.12007 137 127 112
-3.09504 -4.17704 -0.09760 153 147 134
-3.08102 -4.17508 -0.09757 158 150 140
-3.10911 -4.17846 -0.11182 155 144 137
-3.18591 -4.21810 -0.10340 165 154 142
-3.17183 -4.21559 -0.11767 177 172 156
-3.18596 -4.21756 -0.11770 174 167 153
-3.20008 -4.21953 -0.11772 172 149 137
-5.15407 -4.45678 -0.09990 201 197 186
-5.14013 -4.45430 -0.11404 194 196 192
-5.16831 -4.45971 -0.10011 199 197 176
-5.18225 -4.46219 -0.08597 191 191 180
-5.18230 -4.46166 -0.10014 192 194 181
-5.39177 -4.48944 -0.10024 205 210 209
-5.39182 -4.48891 -0.11440 209 215 210
-5.40571 -4.49193 -0.08610 205 206 203
-5.40576 -4.49139 -0.10026 205 207 204
-5.50202 -4.45973 -0.09149 200 199 212
-5.48815 -4.45832 -0.07747 201 198 208
-5.48819 -4.45780 -0.09146 204 201 213
-5.50197 -4.46026 -0.07749 206 210 211
-5.51580 -4.46219 -0.07752 213 215 215
-5.51585 -4.46166 -0.09152 215 218 217
-3.05838 -4.15310 -0.10803 160 152 145
-3.07238 -4.15452 -0.12218 168 160 141
-5.15292 -4.45131 -0.11310 213 212 204
-5.13899 -4.44883 -0.12722 201 201 195
-5.15296 -4.45078 -0.12725 210 211 210
-5.16694 -4.45273 -0.12727 209 210 206
-5.16668 -4.45241 -0.11296 213 210 195
-5.17870 -4.44658 -0.11146 201 199 191
-5.19260 -4.44906 -0.09737 197 199 193
-5.19265 -4.44853 -0.11149 202 201 195
-5.19269 -4.44800 -0.12560 206 202 185
-5.22717 -4.42671 -0.10617 201 202 206
-5.31129 -4.48932 -0.11661 206 205 196
-5.29721 -4.48790 -0.10238 206 206 200
-5.29726 -4.48736 -0.11658 207 208 198
-5.29730 -4.48683 -0.13079 211 212 201
-5.34226 -4.50336 -0.11863 194 192 191
-5.48854 -4.45819 -0.10564 194 190 201
-5.47466 -4.45678 -0.09161 198 196 205
-5.47471 -4.45625 -0.10561 199 196 205
-5.47476 -4.45573 -0.11961 191 186 188
-5.48859 -4.45766 -0.11964 188 186 195
-5.50006 -4.45315 -0.10432 190 185 201
-1.93083 -3.96693 -0.11424 158 137 119
-1.91698 -3.96500 -0.11422 148 132 120
-1.93078 -3.96746 -0.10022 143 124 109
-1.93087 -3.96641 -0.12827 159 142 126
-1.94468 -3.96887 -0.11427 157 136 122
-1.94473 -3.96834 -0.12829 159 139 131
-5.22479 -4.41703 -0.11836 213 212 211
-5.23875 -4.41947 -0.11849 216 211 211
-5.25256 -4.42140 -0.11852 206 196 200
-5.25261 -4.42088 -0.13251 202 197 197
-5.30971 -4.48301 -0.12967 206 204 192
-5.30976 -4.48248 -0.14385 202 199 194
-5.32561 -4.49160 -0.13101 197 187 179
-5.35063 -4.48505 -0.12899 192 196 196
-5.36458 -4.48754 -0.11484 199 196 194
-5.36463 -4.48701 -0.12901 202 203 196
-5.36468 -4.48647 -0.14319 207 209 202
-5.49949 -4.45077 -0.11793 190 187 202
-5.48574 -4.44832 -0.13187 192 188 195
-5.51105 -4.44598 -0.11663 202 205 214
-5.53920 -4.45160 -0.11703 216 212 212
-5.55294 -4.45405 -0.10310 199 195 198
-5.55298 -4.45353 -0.11706 197 194 201
-1.88866 -3.93874 -0.12362 152 139 117
-1.87484 -3.93733 -0.10965 145 121 107
-1.87488 -3.93681 -0.12360 146 125 114
-1.88870 -3.93821 -0.13757 163 152 128
-1.90238 -3.94118 -0.10971 151 136 119
-1.90243 -3.94066 -0.12365 148 132 114
-2.07178 -3.98178 -0.12763 154 139 123
-2.05790 -3.98038 -0.11360 143 127 107
-2.05794 -3.97985 -0.12760 140 122 106
-2.07183 -3.98126 -0.14164 148 139 125
-2.08557 -3.98424 -0.11365 165 146 123
-2.08561 -3.98372 -0.12765 160 144 122
-5.20928 -4.40790 -0.13097 195 188 185
-5.22312 -4.40931 -0.14496 208 204 203
-5.22121 -4.40279 -0.12957 210 209 211
-5.23503 -4.40419 -0.14354 190 187 184
-5.23444 -4.40268 -0.12919 205 198 203
-5.32247 -4.47987 -0.14296 200 194 189
-5.30852 -4.47738 -0.15710 199 198 197
-5.32252 -4.47934 -0.15713 205 207 201
-5.33651 -4.48129 -0.15715 203 203 200
-5.33625 -4.48105 -0.14283 193 187 189
-5.35029 -4.48248 -0.15702 203 203 201
-5.49852 -4.44716 -0.13128 197 196 205
-5.48478 -4.44471 -0.14521 197 186 189
-5.49857 -4.44664 -0.14524 204 206 198
-5.51236 -4.44857 -0.14526 206 203 195
-5.51086 -4.44475 -0.13043 204 207 209
-5.52415 -4.44526 -0.13018 217 219 211
-5.53797 -4.44666 -0.14414 200 192 185
-5.53809 -4.44768 -0.13030 212 201 197
-2.00860 -3.96204 -0.13930 142 128 122
-1.99476 -3.96063 -0.12531 137 122 105
-1.99480 -3.96011 -0.13928 137 122 113
-2.00855 -3.96256 -0.12533 134 121 114
-2.02245 -3.96344 -0.15330 163 152 126
-2.02270 -3.96347 -0.13921 149 134 120
-2.03645 -3.96592 -0.12527 147 132 114
-2.03650 -3.96540 -0.13924 147 134 119
-5.52380 -4.44357 -0.14388 212 205 197
-5.51009 -4.44112 -0.15778 201 201 195
-5.52385 -4.44305 -0.15781 210 205 199
-5.53761 -4.44497 -0.15784 199 199 193
-1.99440 -3.96031 -0.15341 145 130 120
-1.98055 -3.95890 -0.13942 140 121 114
-1.98060 -3.95838 -0.15339 142 125 119
-1.98064 -3.95786 -0.16736 157 138 116
-2.00824 -3.96171 -0.16741 164 152 133
-2.00840 -3.96192 -0.15336 158 147 126
-2.03972 -3.95971 -0.15200 151 142 124
-2.03976 -3.95919 -0.16594 154 141 122
-2.07612 -3.97367 -0.15399 147 138 129
-2.08993 -3.97560 -0.15402 134 117 110
-2.08998 -3.97507 -0.16799 127 111 116
-5.06143 -4.34345 -0.14934 209 209 203
-5.06138 -4.34396 -0.13554 214 217 208
-5.07502 -4.34587 -0.13556 211 209 203
-5.19751 -4.41242 -0.16044 199 199 195
-5.18374 -4.40996 -0.17441 188 186 185
-5.21138 -4.41382 -0.17446 216 217 215
-5.23288 -4.39549 -0.15577 199 196 184
-5.24662 -4.39741 -0.15579 195 198 189
-5.24667 -4.39689 -0.16970 199 195 197
-5.37590 -4.43334 -0.15991 209 207 200
-5.36204 -4.43193 -0.14591 204 199 193
-5.36209 -4.43141 -0.15989 213 213 202
-5.37585 -4.43386 -0.14594 203 199 198
-5.38965 -4.43579 -0.14596 195 192 193
-5.38970 -4.43527 -0.15994 191 188 186
-5.40031 -4.42682 -0.15780 197 200 203
-5.41403 -4.42927 -0.14389 209 215 213
-5.41407 -4.42874 -0.15783 203 207 208
-5.41412 -4.42822 -0.17177 206 205 205
-5.45281 -4.42654 -0.15625 208 213 208
-5.46660 -4.42794 -0.17018 218 215 210
-1.76783 -3.89418 -0.15946 146 133 118
-1.78147 -3.89661 -0.14564 156 144 136
-1.78151 -3.89609 -0.15949 163 148 134
-1.78156 -3.89557 -0.17334 166 148 132
-2.73665 -4.03545 -0.16260 146 139 122
-2.72291 -4.03405 -0.14870 135 128 108
-2.72295 -4.03354 -0.16257 142 132 110
-2.73660 -4.03597 -0.14873 135 126 114
-2.75035 -4.03736 -0.16262 154 148 126
-5.06220 -4.34613 -0.16384 198 195 188
-5.06225 -4.34561 -0.17765 190 186 185
-5.07589 -4.34752 -0.17768 171 170 172
-5.23239 -4.39297 -0.16925 209 203 200
-5.24617 -4.39436 -0.18317 199 191 199
-5.39670 -4.41443 -0.16923 194 189 190
-5.41047 -4.41583 -0.18315 208 204 204
-1.75035 -3.89717 -0.17462 159 140 126
-1.73670 -3.89474 -0.18846 157 137 134
-1.75040 -3.89665 -0.18849 163 146 131
-1.76410 -3.89856 -0.18851 167 153 134
-1.76770 -3.89392 -0.17338 162 145 127
-1.78142 -3.89531 -0.18725 167 153 134
-1.82237 -3.87996 -0.16863 157 144 117
-1.80877 -3.87806 -0.16860 163 150 130
-1.80882 -3.87754 -0.18237 165 150 127
-1.83593 -3.88237 -0.15489 149 129 110
-1.83597 -3.88186 -0.16866 147 129 110
-1.83602 -3.88134 -0.18242 145 129 113
-2.55522 -4.01744 -0.17789 140 130 123
-2.54145 -4.01604 -0.16396 159 148 135
-2.54149 -4.01552 -0.17786 154 142 125
-2.54154 -4.01500 -0.19176 152 136 121
-2.56890 -4.01987 -0.16402 133 128 119
-2.56895 -4.01935 -0.17791 120 117 117
-2.72621 -4.02519 -0.17459 148 136 116
-2.71249 -4.02380 -0.16072 139 127 111
-2.71254 -4.02328 -0.17456 142 131 112
-2.71258 -4.02276 -0.18840 145 140 121
-2.72625 -4.02467 -0.18843 148 139 129
-2.75134 -4.03449 -0.17593 153 149 133
-2.76499 -4.03692 -0.16210 142 135 124
-2.76503 -4.03640 -0.17596 136 129 114
-2.76508 -4.03588 -0.18982 146 140 122
-2.74210 -4.02122 -0.18716 154 147 139
-2.72850 -4.01879 -0.20095 150 140 129
-2.74214 -4.02070 -0.20098 147 129 129
-2.75579 -4.02260 -0.20101 146 126 123
-2.75391 -4.02770 -0.18829 149 144 133
-2.76762 -4.02909 -0.20215 144 131 123
-1.85364 -3.87691 -0.19475 141 132 121
-1.84006 -3.87502 -0.19472 144 130 112
-1.84011 -3.87450 -0.20847 145 136 120
-1.86726 -3.87829 -0.20852 164 150 135
-2.53586 -3.99544 -0.20142 154 136 124
-2.52215 -3.99405 -0.18756 152 141 125
-2.52219 -3.99354 -0.20139 148 137 121
-2.53581 -3.99596 -0.18759 155 145 125
-2.53590 -3.99493 -0.21525 144 116 115
-2.87123 -4.02094 -0.19710 156 142 141
-2.85760 -4.01956 -0.18332 165 153 139
-2.85765 -4.01904 -0.19707 165 155 145
-2.85769 -4.01853 -0.21082 166 157 143
-2.87118 -4.02145 -0.18334 156 142 140
-2.88481 -4.02284 -0.19712 151 136 134
-4.67046 -4.32011 -0.21157 193 194 192
-4.65675 -4.31767 -0.22547 207 199 187
-4.67051 -4.31959 -0.22550 200 190 186
-4.68427 -4.32151 -0.22553 203 200 196
-5.41643 -4.39174 -0.20542 202 200 195
-5.40274 -4.39035 -0.19158 205 208 209
-5.40279 -4.38983 -0.20539 206 208 205
-5.41638 -4.39225 -0.19161 211 207 206
-5.43002 -4.39416 -0.19163 209 209 205
-5.43011 -4.39312 -0.21925 187 187 187
-5.42944 -4.39167 -0.20501 198 202 201
-5.44302 -4.39409 -0.19123 206 208 201
-5.44097 -4.38706 -0.20358 196 195 191
-5.45454 -4.38948 -0.18983 211 216 206
-2.17022 -3.91270 -0.20722 143 133 118
-2.18373 -3.91511 -0.19353 148 129 115
-2.18377 -3.91460 -0.20725 143 133 118
-2.18382 -3.91408 -0.22097 140 125 115
-2.39364 -3.93013 -0.20440 141 117 106
-2.41166 -3.95154 -0.20888 161 156 134
-2.42518 -3.95395 -0.19517 148 131 120
-2.87130 -4.02037 -0.21084 165 157 139
-2.85776 -4.01796 -0.22456 161 152 148
-2.91038 -4.03072 -0.21206 148 145 136
-2.91043 -4.03021 -0.22583 147 148 142
-2.92403 -4.03211 -0.22586 146 141 133
-5.40021 -4.38088 -0.21730 203 200 196
-5.38655 -4.37950 -0.20349 194 189 189
-5.38660 -4.37898 -0.21727 198 195 184
-5.38664 -4.37847 -0.23105 206 205 193
-5.43763 -4.37601 -0.21499 183 178 182
-5.43768 -4.37550 -0.22873 181 177 177
-5.45125 -4.37740 -0.22875 187 187 187
-5.45172 -4.37949 -0.21537 194 192 184
-5.46534 -4.38087 -0.22914 196 191 187
-2.11885 -3.90002 -0.21965 153 139 118
-2.10527 -3.89865 -0.20593 155 142 131
-2.10532 -3.89813 -0.21963 158 148 137
-2.11880 -3.90054 -0.20595 152 134 120
-2.13233 -3.90243 -0.20598 146 137 119
-2.13238 -3.90191 -0.21968 146 138 110
-2.14954 -3.89767 -0.21812 152 141 124
-2.14959 -3.89716 -0.23179 148 134 125
-2.16310 -3.89904 -0.23182 158 150 124
-2.17549 -3.90327 -0.21864 146 130 109
-2.18905 -3.90464 -0.23235 143 123 116
-2.39431 -3.92841 -0.21775 148 122 119
-2.40785 -3.92978 -0.23144 151 149 118
-2.52405 -3.95817 -0.22078 154 144 126
-2.51047 -3.95679 -0.20705 139 130 128
-2.51051 -3.95628 -0.22076 146 130 113
-2.76368 -4.00217 -0.22375 146 135 128
-2.75015 -3.99976 -0.23747 152 147 141
-2.88303 -4.02694 -0.22591 153 143 126
-2.89668 -4.02832 -0.23971 158 152 140
-5.27794 -4.31805 -0.22002 195 192 191
-5.29143 -4.31941 -0.23365 213 217 207
-5.28792 -4.30791 -0.21728 195 193 188
-5.30128 -4.31029 -0.20373 187 182 185
-5.39910 -4.37669 -0.23023 198 195 201
-5.39915 -4.37617 -0.24400 193 185 198
-5.41282 -4.37898 -0.23035 190 185 187
-5.42624 -4.38030 -0.23024 193 189 184
-1.83272 -3.82041 -0.22330 152 130 126
-1.84606 -3.82278 -0.20977 157 146 125
-1.84610 -3.82228 -0.22333 153 135 124
-1.84615 -3.82177 -0.23688 148 131 125
-2.10641 -3.89590 -0.23287 162 150 143
-2.09284 -3.89452 -0.21915 153 139 133
-2.09288 -3.89401 -0.23285 151 130 130
-2.09293 -3.89349 -0.24654 148 124 123
-2.20628 -3.90007 -0.23068 152 125 115
-2.21977 -3.90195 -0.23071 161 147 123
-2.21982 -3.90144 -0.24436 167 146 129
-2.77527 -4.00866 -0.23883 161 153 132
-5.27791 -4.31726 -0.23356 201 202 200
-5.38013 -4.35670 -0.23987 209 205 201
-5.36655 -4.35533 -0.22614 202 202 199
-5.36660 -4.35481 -0.23985 207 203 207
-5.38018 -4.35619 -0.25358 199 195 200
-5.40957 -4.36799 -0.24167 196 195 201
-5.42318 -4.36937 -0.25543 208 205 203
-5.42267 -4.36844 -0.24136 204 202 198
-5.43408 -4.36366 -0.23984 192 187 188
-5.44762 -4.36555 -0.23986 183 185 189
-1.81213 -3.80751 -0.23447 140 128 115
-1.79873 -3.80615 -0.22093 152 143 128
-1.79878 -3.80565 -0.23444 152 142 126
-1.79882 -3.80514 -0.24796 158 146 123
-2.05983 -3.85250 -0.23750 146 136 125
-2.04640 -3.85114 -0.22392 157 147 141
-2.05979 -3.85301 -0.22394 157 146 133
-2.05988 -3.85199 -0.25105 133 122 125
-2.07322 -3.85437 -0.23752 149 133 121
-2.12602 -3.88723 -0.24391 159 148 135
-2.13955 -3.88861 -0.25759 158 147 132
-2.20002 -3.88531 -0.24103 139 131 125
