ply
format ascii 1.0
element face 0
property list uchar int vertex_indices
element vertex 1341
property float x
property float y
property float z
property uchar diffuse_red
property uchar diffuse_green
property uchar diffuse_blue
end_header
-3.33016 -3.98776 1.43289 98 97 77
-3.34210 -3.99532 1.43487 116 107 81
-3.50825 -3.88584 1.41831 119 112 61
-3.49867 -3.87932 1.40291 127 117 90
-3.53830 -3.86222 1.41453 92 83 50
-3.57057 -3.86018 1.41526 82 74 65
-3.58455 -3.86261 1.41626 126 132 103
-3.59753 -3.87037 1.40482 131 137 152
-3.59478 -3.87136 1.41842 142 152 124
-3.60279 -3.88395 1.42129 131 136 120
-3.60978 -3.89841 1.42451 128 133 141
-3.62281 -3.90621 1.41302 138 156 149
-3.62957 -3.91744 1.42912 137 147 154
-3.64992 -3.93564 1.43359 142 152 150
-3.65876 -3.94721 1.43628 136 141 138
-3.66546 -3.96275 1.43971 130 127 108
-3.67859 -3.97059 1.42814 115 108 73
-3.67281 -3.97726 1.44295 118 114 103
-3.68596 -3.98512 1.43135 118 107 86
-3.68247 -3.98758 1.44541 115 106 87
-3.69564 -3.99545 1.43381 121 110 87
-3.68938 -4.00313 1.44885 117 105 87
-3.70258 -4.01102 1.43722 121 112 94
-3.95050 -4.57475 1.57555 118 118 93
-3.99173 -4.71419 1.60565 122 125 98
-3.98100 -4.70690 1.58842 126 125 98
-3.99374 -4.71496 1.59053 129 126 100
-4.00649 -4.72302 1.59264 129 124 107
1.00724 -4.02556 1.26297 72 70 80
1.02943 -4.01230 1.28253 55 57 65
1.02639 -4.01345 1.25980 58 57 68
1.02336 -4.01460 1.23707 50 49 55
1.01027 -4.02442 1.28570 67 66 77
0.99112 -4.03653 1.28888 85 85 84
0.95684 -4.06562 1.27297 80 83 86
0.95988 -4.06447 1.29573 84 84 87
0.93003 -4.07372 1.27562 76 83 84
0.93848 -4.10047 1.28071 75 79 83
0.92670 -4.11662 1.28442 77 78 91
0.90246 -4.12613 1.28725 85 85 98
0.88017 -4.13946 1.26760 89 95 93
0.84862 -4.16478 1.29709 89 98 86
0.82281 -4.19620 1.30442 77 68 80
0.81649 -4.21566 1.30859 79 70 86
0.79409 -4.22905 1.28885 78 73 73
0.81540 -4.23816 1.31318 81 80 92
0.79294 -4.25159 1.29338 73 71 71
0.80828 -4.25737 1.31734 79 80 86
0.78577 -4.27083 1.29749 70 69 76
0.80402 -4.27831 1.32173 74 68 74
0.78145 -4.29180 1.30184 70 65 73
0.81376 -4.30741 1.32725 71 61 62
0.80041 -4.37109 1.34063 69 62 61
0.81700 -4.35981 1.31397 93 82 69
0.81171 -4.40184 1.34642 55 54 46
0.84126 -4.46820 1.35873 72 54 48
0.86443 -4.50683 1.36567 86 65 57
0.72298 -4.59596 1.38902 67 78 90
0.73995 -4.58441 1.36175 63 54 86
0.69961 -4.60993 1.36842 104 109 117
0.87357 -4.98818 1.46268 65 68 68
0.89840 -4.97334 1.48456 60 71 67
0.89500 -4.97463 1.45913 61 69 71
0.89160 -4.97591 1.43369 62 66 74
0.87017 -4.98947 1.43724 61 72 70
0.85831 -5.00594 1.46684 73 77 83
0.80624 -5.02676 1.47301 82 79 85
0.80285 -5.02805 1.44759 79 81 90
0.76459 -5.02626 1.47448 75 68 78
0.73149 -5.03156 1.47679 88 94 101
0.69146 -5.03187 1.47836 99 107 110
0.55047 -4.96050 1.46923 51 39 58
0.52103 -4.96754 1.47176 57 56 62
-0.37098 -4.50242 1.41126 124 106 69
-0.35572 -4.49203 1.38674 165 147 124
-0.37100 -4.52749 1.41633 105 87 54
-0.39230 -4.53666 1.41898 52 34 25
-0.40734 -4.55055 1.42236 25 17 22
-0.42266 -4.56097 1.44697 27 15 25
-0.42554 -4.56206 1.42537 26 16 24
-0.42842 -4.56316 1.40378 21 19 23
-2.67196 -3.14329 1.22296 181 179 173
-2.75423 -3.10320 1.21795 141 122 122
-2.77336 -3.10227 1.21848 133 116 109
-2.78560 -3.10959 1.20769 135 126 101
-2.81880 -3.14251 1.22832 131 127 107
-2.80820 -3.13581 1.22657 137 126 102
-2.82464 -3.15363 1.23079 123 121 106
-2.82769 -3.16743 1.23370 109 103 92
-2.83203 -3.18011 1.23643 82 80 81
-2.84658 -3.18317 1.23759 58 61 74
-2.85892 -3.19055 1.22671 30 35 48
-2.85871 -3.18849 1.23912 43 45 60
-2.87105 -3.19586 1.22825 34 37 46
-2.86750 -3.19702 1.24118 33 35 49
-2.87984 -3.20440 1.23030 33 40 49
-3.19296 -4.04285 1.42448 16 18 24
-3.18259 -4.03580 1.40783 21 19 27
-3.19491 -4.04359 1.40987 20 19 29
-3.20583 -4.04980 1.42637 35 30 39
-3.22453 -4.04800 1.42671 66 67 44
-3.23875 -4.05650 1.41417 78 72 51
-3.31252 -4.01876 1.42411 71 75 67
-3.30238 -4.01186 1.40780 61 56 33
-3.34430 -3.99556 1.42061 102 100 69
-3.35435 -4.00240 1.43676 123 109 82
-3.35624 -4.00312 1.42259 122 111 71
-3.50357 -3.89717 1.40670 134 124 94
-3.49396 -3.89062 1.39125 127 116 88
-3.50538 -3.89785 1.39314 130 123 96
-3.53001 -3.87958 1.40414 120 106 79
-3.54314 -3.88743 1.39256 92 84 70
-3.55632 -3.86178 1.40153 92 77 68
-3.57043 -3.86408 1.40253 104 105 106
-3.58605 -3.86374 1.40305 132 149 151
-3.59903 -3.87150 1.39160 139 150 149
-3.60464 -3.88450 1.40795 126 137 148
-3.60642 -3.88518 1.39462 138 150 151
-3.61333 -3.89601 1.41060 134 151 147
-3.63979 -3.93031 1.41853 137 136 135
-3.65287 -3.93813 1.40700 114 107 100
-3.65432 -3.93163 1.41934 121 121 119
-3.66737 -3.93943 1.40784 117 108 90
-3.66345 -3.94263 1.42191 111 110 99
-3.67652 -3.95044 1.41039 119 110 84
-3.66873 -3.96074 1.42577 115 106 81
-3.68185 -3.96858 1.41421 121 112 84
-3.94896 -4.62513 1.57068 117 108 76
-3.95096 -4.62588 1.55575 124 118 91
-3.96354 -4.63384 1.55783 120 117 97
-3.95081 -4.66148 1.57810 114 106 80
-3.95953 -4.68005 1.58218 121 122 90
-3.97425 -4.68886 1.56921 122 121 97
-4.90772 -6.88407 2.06359 199 220 236
-4.89353 -6.87441 2.04078 189 205 228
-4.90505 -6.88306 2.08360 200 216 229
-4.92459 -6.89474 2.06638 199 215 232
0.97638 -4.01243 1.23850 67 63 62
0.99243 -4.00151 1.21270 52 51 54
0.95429 -4.02564 1.21902 74 71 72
0.98073 -4.03660 1.24314 77 73 85
0.95856 -4.04986 1.22359 62 63 78
0.97151 -4.05387 1.24694 72 71 92
0.94930 -4.06715 1.22736 68 69 74
0.96373 -4.07197 1.25085 72 72 81
0.94148 -4.08527 1.23124 65 66 75
0.93320 -4.07814 1.25329 64 68 76
0.91099 -4.09142 1.23371 64 65 73
0.95317 -4.11105 1.25905 60 67 74
0.94070 -4.12689 1.26270 73 74 81
0.91447 -4.13539 1.26543 84 88 87
0.90467 -4.17547 1.27380 84 85 93
0.90160 -4.17664 1.25080 83 84 88
0.88222 -4.18889 1.25401 86 86 84
0.85988 -4.17379 1.27524 82 84 80
0.85593 -4.19448 1.27951 74 68 66
0.83542 -4.22913 1.28722 77 71 68
0.83235 -4.23029 1.26420 82 80 81
0.81294 -4.24256 1.26741 79 76 82
0.80479 -4.32888 1.30830 79 71 68
0.82129 -4.31765 1.28178 69 69 80
0.77933 -4.36176 1.31585 82 67 73
0.80811 -4.40275 1.32288 65 57 62
0.83988 -4.44590 1.33021 49 34 51
0.86592 -4.51086 1.34211 76 65 49
0.89730 -4.55485 1.34963 86 69 57
0.91243 -4.58934 1.35590 84 73 64
0.68440 -4.62585 1.37220 79 77 98
0.65020 -4.62961 1.37430 73 76 83
0.83998 -4.99706 1.43995 67 68 79
0.83659 -4.99834 1.41455 56 52 69
0.82164 -5.01269 1.44379 73 72 94
0.75197 -5.02112 1.44822 86 79 87
0.71955 -5.02685 1.45065 92 84 100
0.68507 -5.03101 1.45284 104 104 105
0.56124 -4.97173 1.44594 75 51 47
0.52046 -4.97073 1.44736 32 24 51
0.56042 -5.02754 1.45709 94 94 105
0.54273 -5.03957 1.48551 153 142 120
0.53939 -5.04083 1.46057 143 139 121
-0.34637 -4.52404 1.39274 136 117 88
-0.33103 -4.51360 1.36809 166 151 135
-0.34926 -4.52513 1.37111 151 135 118
-0.36274 -4.53697 1.39596 117 101 59
-0.35943 -4.56482 1.40138 72 58 44
-0.37106 -4.58150 1.40516 29 23 36
-0.39231 -4.59420 1.38643 24 21 21
-2.61050 -3.16614 1.21202 20 18 46
-2.70280 -3.13465 1.20940 168 165 156
-2.75339 -3.10608 1.20572 154 137 124
-2.77454 -3.10335 1.20601 139 123 107
-2.80799 -3.12180 1.21101 133 125 104
-2.79743 -3.11512 1.20926 133 127 102
-2.81555 -3.13123 1.21319 126 119 100
-2.82779 -3.13855 1.20239 67 62 61
-2.81592 -3.14735 1.21641 104 104 90
-2.82822 -3.15470 1.20557 42 36 41
-2.80531 -3.17385 1.22127 78 77 76
-2.81770 -3.18125 1.21034 31 30 42
-2.81768 -3.17904 1.22279 57 52 65
-2.83007 -3.18644 1.21187 29 34 49
-2.83464 -3.17988 1.22363 37 39 56
-2.84699 -3.18727 1.21274 31 37 54
-2.84852 -3.18357 1.22491 28 34 53
-2.86086 -3.19095 1.21404 31 39 54
-3.20455 -4.05537 1.41259 23 24 41
-3.19417 -4.04831 1.39592 17 22 15
-3.21524 -4.06562 1.41506 61 65 45
-3.22953 -4.07417 1.40246 77 71 54
-3.30682 -4.03129 1.41185 52 55 51
-3.29664 -4.02436 1.39549 73 62 42
-3.30874 -4.03202 1.39749 67 55 45
-3.32084 -4.03967 1.39950 63 54 42
-3.32945 -4.02247 1.41099 68 73 69
-3.34340 -4.03080 1.39870 66 63 54
-3.53377 -3.87700 1.39012 118 112 81
-3.52424 -3.87052 1.37480 129 117 89
-3.57197 -3.86516 1.38927 100 100 113
-3.58801 -3.86410 1.38969 132 146 154
-3.63084 -3.89594 1.39773 129 140 133
-3.64383 -3.90371 1.38628 115 107 89
-3.64338 -3.90068 1.39917 120 121 108
-3.65636 -3.90844 1.38773 116 109 87
-3.65071 -3.91469 1.40225 114 105 103
-3.66372 -3.92246 1.39078 118 112 94
-3.95540 -4.69725 1.57013 106 109 97
-4.46441 -6.12916 1.87540 209 229 234
-4.47757 -6.13811 1.89654 207 221 230
-4.48005 -6.13905 1.87799 207 219 231
-4.48252 -6.13999 1.85943 219 233 240
-4.92737 -6.89443 2.04610 184 205 220
-4.94156 -6.90409 2.06891 195 214 224
-4.94424 -6.90510 2.04889 193 210 219
-4.94691 -6.90611 2.02888 191 203 223
0.97682 -4.01535 1.21607 70 62 56
0.99288 -4.00443 1.19026 52 53 56
0.95470 -4.13718 1.24086 72 71 75
0.97099 -4.12609 1.21468 65 66 81
0.95163 -4.13834 1.21788 69 68 74
0.92633 -4.14457 1.24349 80 82 80
0.86105 -4.20016 1.25710 81 80 80
0.87736 -4.18907 1.23090 86 86 80
0.84533 -4.21444 1.26055 66 67 75
0.81105 -4.33548 1.28570 76 72 81
0.82758 -4.32423 1.25914 63 64 78
0.78830 -4.34908 1.26564 86 90 95
0.79868 -4.35214 1.28948 86 81 78
0.77590 -4.36576 1.26940 91 92 92
0.78623 -4.36881 1.29326 86 83 77
0.80404 -4.40340 1.29930 79 74 62
0.83993 -4.44901 1.30675 57 47 31
0.82161 -4.46265 1.31018 33 27 29
0.79846 -4.47649 1.28977 56 34 46
0.86454 -4.51317 1.31830 64 54 57
0.75025 -4.61960 1.34391 60 66 91
0.76731 -4.60799 1.31649 54 59 79
0.71591 -4.62351 1.34610 97 98 95
0.69978 -4.63893 1.34980 72 65 95
0.67633 -4.65295 1.32912 62 54 74
0.66863 -4.64472 1.35223 64 65 82
0.88949 -4.92247 1.39748 51 57 67
0.87157 -4.93466 1.42627 63 69 77
0.86482 -4.93721 1.37574 48 49 57
0.86956 -4.93684 1.40113 53 59 70
0.85627 -4.95570 1.40537 54 58 66
0.84088 -4.97321 1.40945 53 57 62
0.82229 -5.01675 1.41875 66 53 82
0.78273 -5.01778 1.42060 80 72 89
0.74771 -5.02179 1.42284 89 92 86
0.70798 -5.02238 1.42461 99 97 99
0.65426 -5.04132 1.43055 84 95 99
0.56873 -5.00881 1.42774 40 39 58
0.50867 -4.99400 1.42733 58 62 60
0.55949 -5.05904 1.43797 119 118 121
0.54173 -5.07113 1.46651 154 143 123
0.53838 -5.07239 1.44146 150 138 124
0.53504 -5.07366 1.41641 132 129 128
-0.36063 -4.54183 1.37485 124 103 73
-0.34526 -4.53138 1.35016 170 152 129
-0.36053 -4.56728 1.37983 96 83 64
-0.36075 -4.59268 1.38482 43 33 37
-2.74522 -3.11548 1.19444 150 144 140
-2.77237 -3.10743 1.19399 138 129 116
-2.78766 -3.10987 1.19510 129 123 106
-2.79667 -3.11796 1.19706 115 110 102
-2.80310 -3.12843 1.19938 103 101 95
-2.81536 -3.13576 1.18857 59 61 71
-2.80539 -3.14276 1.20228 90 88 85
-2.81769 -3.15011 1.19144 56 52 56
-3.19593 -4.07190 1.40062 13 18 25
-3.18550 -4.06481 1.38387 17 24 17
-3.20155 -4.08991 1.40438 56 63 48
-3.21594 -4.09852 1.39170 75 72 54
-3.38273 -3.99498 1.39331 89 89 79
-3.37273 -3.98818 1.37724 76 63 46
-3.39273 -4.00178 1.40938 123 113 85
-3.39461 -4.00249 1.39528 113 110 82
-3.53620 -3.87662 1.37649 117 101 82
-3.52668 -3.87014 1.36118 128 117 90
-3.54932 -3.88446 1.36493 91 71 59
-3.55098 -3.87801 1.37738 90 71 74
-3.56899 -3.87386 1.37732 101 101 112
-3.58965 -3.86500 1.37644 141 161 165
-3.59993 -3.87368 1.37857 140 152 152
-3.61246 -3.87848 1.38003 127 132 125
-3.62544 -3.88624 1.36859 109 107 75
-3.63837 -3.88650 1.38268 113 107 98
-3.65132 -3.89424 1.37126 117 112 89
-3.85824 -4.47327 1.50682 114 112 93
-3.86863 -4.48033 1.52350 123 121 106
-3.87254 -4.48181 1.49421 95 99 78
-3.87511 -4.47024 1.50692 106 105 95
-3.88936 -4.47876 1.49436 96 97 83
-3.94441 -4.69064 1.55300 108 104 91
-3.93164 -4.68256 1.55089 121 112 92
-3.93367 -4.68333 1.53574 117 112 94
-3.94643 -4.69140 1.53785 108 98 87
-4.46361 -6.14830 1.86027 215 227 242
0.97745 -4.01838 1.19362 64 59 59
0.99351 -4.00744 1.16780 57 55 65
0.97442 -4.01952 1.17096 59 53 59
0.95631 -4.02939 1.19667 72 70 72
0.93722 -4.04147 1.19983 76 76 78
0.93420 -4.04261 1.17718 74 75 76
0.91181 -4.13956 1.21985 73 73 74
0.92805 -4.12851 1.19375 66 68 77
0.90875 -4.14072 1.19695 68 68 73
0.88945 -4.15293 1.20014 71 67 67
0.91014 -4.16133 1.22412 76 76 76
0.91478 -4.18667 1.22881 78 79 81
0.88233 -4.21479 1.23565 95 92 80
0.86911 -4.23056 1.23926 89 79 85
0.81769 -4.34231 1.26305 75 76 89
0.81457 -4.34349 1.23971 79 74 81
0.81543 -4.41317 1.27682 103 101 92
0.78640 -4.42027 1.27945 90 87 71
0.82231 -4.46616 1.28674 52 53 62
0.79914 -4.48001 1.26631 48 33 50
0.86996 -4.54462 1.29980 74 60 42
0.73782 -4.61500 1.31913 49 57 81
0.75486 -4.60341 1.29174 51 51 66
0.84432 -4.95121 1.37933 46 46 57
0.82296 -4.96464 1.38285 47 50 59
0.82330 -4.99287 1.38828 55 57 64
0.80469 -5.00828 1.39206 69 66 77
0.76766 -5.01098 1.39419 81 91 87
0.72251 -5.00788 1.39556 88 105 96
0.69539 -5.01720 1.39854 94 107 94
0.67234 -5.02933 1.40189 85 81 87
0.64777 -5.04402 1.38022 37 35 32
0.58837 -4.99820 1.39954 49 54 73
0.56975 -5.01318 1.40324 44 40 56
0.54597 -5.02446 1.40645 24 23 45
0.52728 -5.03941 1.41015 70 73 90
-0.35260 -4.57660 1.35920 116 97 72
-0.34400 -4.60879 1.36504 60 49 38
-0.36253 -4.62042 1.36809 28 23 13
-0.37806 -4.63098 1.39305 22 21 24
-0.38098 -4.63209 1.37114 20 21 17
-0.38391 -4.63320 1.34924 22 19 17
-2.67589 -3.14632 1.18453 14 18 36
-2.66677 -3.14011 1.16987 20 19 16
-2.67761 -3.14697 1.17167 15 18 14
-2.70752 -3.13479 1.18369 57 68 89
-2.74791 -3.11522 1.18167 107 115 129
-2.77054 -3.11120 1.18188 112 112 119
-2.77403 -3.15719 1.19090 51 49 71
-2.78643 -3.16460 1.17997 52 57 61
-3.17823 -4.10204 1.39073 13 18 29
-3.16771 -4.09489 1.37384 18 22 23
-3.19322 -4.10618 1.39218 54 60 41
-3.36832 -4.02165 1.38351 78 68 59
-3.35824 -4.01479 1.36731 87 76 65
-3.38219 -4.02994 1.37128 74 64 58
-3.39508 -4.00548 1.38155 91 82 70
-3.40508 -4.01228 1.39763 123 114 78
-3.40697 -4.01300 1.38352 109 102 82
-3.52971 -3.89106 1.36535 118 103 82
-3.52014 -3.88454 1.34997 126 117 89
-3.56510 -3.88411 1.36555 93 89 82
-3.59056 -3.86716 1.36339 126 140 128
-3.60354 -3.87492 1.35194 117 110 90
-3.59996 -3.87735 1.36576 119 119 106
-3.61296 -3.88512 1.35431 116 110 84
-3.61253 -3.88210 1.36723 110 107 87
-3.62552 -3.88987 1.35578 117 113 80
-3.84057 -4.44663 1.48604 111 109 88
-3.85482 -4.45515 1.47347 95 98 77
-3.86009 -4.47426 1.49222 97 98 72
-3.95192 -4.71901 1.54342 99 96 87
-3.96677 -4.72789 1.53032 127 125 99
-4.42428 -6.18537 1.84679 145 146 150
-4.42237 -6.29248 1.86737 183 203 213
-4.46351 -6.16359 1.84430 207 229 239
-4.47910 -6.17438 1.84706 209 221 242
-4.49234 -6.18339 1.86834 211 226 238
-4.49483 -6.18433 1.84967 208 217 239
-4.49733 -6.18528 1.83099 184 201 228
0.99783 -4.05362 1.17637 67 64 66
1.01400 -4.04262 1.15038 62 56 55
0.97556 -4.06693 1.15674 74 75 71
0.93098 -4.19837 1.20687 72 71 77
0.94738 -4.18722 1.18052 68 67 70
0.92789 -4.19954 1.18375 71 71 78
0.91868 -4.21465 1.21052 85 83 81
0.90909 -4.23248 1.21434 107 105 83
0.88928 -4.24469 1.21756 105 103 92
0.86790 -4.25601 1.22068 97 95 89
0.84485 -4.26638 1.22370 87 84 79
0.82842 -4.27756 1.25010 70 64 72
0.83161 -4.28230 1.22732 81 71 67
0.81517 -4.29349 1.25375 65 62 73
0.81397 -4.29575 1.23068 74 55 64
0.79132 -4.30928 1.21072 82 77 76
0.81810 -4.32175 1.23542 74 67 77
0.79537 -4.33534 1.21539 84 78 83
0.81906 -4.44276 1.25834 82 79 79
0.83460 -4.47662 1.26406 63 54 67
0.86325 -4.54372 1.27548 61 53 44
0.74376 -4.62200 1.29578 44 46 57
0.76083 -4.61039 1.26835 56 53 62
0.72027 -4.63604 1.27507 81 80 69
0.73233 -4.64044 1.29980 85 92 60
0.68697 -4.63726 1.30126 60 57 84
0.69673 -4.66936 1.30690 62 56 67
0.85793 -4.93613 1.35018 52 56 51
0.87921 -4.92267 1.34666 51 56 44
0.83328 -4.95087 1.32845 27 26 25
0.83680 -4.94970 1.35372 36 37 43
0.81215 -4.96443 1.33198 32 33 38
0.81758 -4.96455 1.35741 35 38 47
0.81381 -4.98998 1.36241 36 46 53
0.78908 -5.00477 1.34061 42 44 58
0.80431 -5.01163 1.36695 44 45 60
0.78320 -5.02536 1.37051 46 43 50
0.75608 -5.03489 1.37356 46 50 43
0.73902 -5.05143 1.37747 59 54 57
0.67361 -5.03388 1.37712 50 53 55
0.56370 -5.01249 1.37806 57 60 47
0.58061 -5.05306 1.38499 44 37 26
0.54483 -5.05580 1.38714 16 20 37
0.52233 -5.06810 1.39050 85 93 101
0.50460 -5.08016 1.41899 157 144 131
0.50126 -5.08142 1.39399 145 141 138
-0.32552 -4.60046 1.34037 120 104 68
-0.30998 -4.58989 1.31540 169 158 136
-0.33359 -4.62009 1.34446 81 78 45
-0.35210 -4.63180 1.34752 41 30 16
-2.71668 -3.12884 1.17001 16 21 33
-2.70766 -3.12269 1.15550 17 23 14
-2.71839 -3.12948 1.15727 17 20 16
-2.76044 -3.12241 1.17078 51 50 83
-2.75969 -3.13942 1.17397 29 28 48
-2.77207 -3.14682 1.16306 19 19 24
-2.76944 -3.14704 1.17586 14 16 30
-2.78062 -3.15336 1.17757 23 24 45
-2.79300 -3.16076 1.16666 46 53 50
-3.17356 -4.11274 1.37749 16 20 33
-3.16301 -4.10556 1.36054 20 19 18
-3.18441 -4.12321 1.37997 52 51 42
-3.19594 -4.13267 1.38229 72 71 54
-3.20649 -4.13986 1.39926 78 71 57
-3.20848 -4.14061 1.38437 80 73 58
-3.21047 -4.14136 1.36948 81 73 57
-3.36497 -4.03073 1.37065 85 68 64
-3.35487 -4.02386 1.35441 98 94 68
-3.37888 -4.03905 1.35839 85 76 68
-3.53100 -3.89259 1.35199 122 109 83
-3.52143 -3.88608 1.33661 126 114 93
-3.55781 -3.87392 1.34967 97 78 52
-3.56909 -3.88106 1.35154 81 71 56
-3.58513 -3.88010 1.35209 107 112 97
-3.59817 -3.88789 1.34059 121 114 87
-3.83318 -4.43276 1.46824 104 101 79
-3.84740 -4.44126 1.45570 96 93 75
-3.89331 -4.62991 1.50838 112 111 82
-3.90399 -4.63718 1.52555 118 113 88
-3.90600 -4.63794 1.51049 109 103 86
-3.95474 -4.71766 1.52783 117 116 92
-3.94395 -4.71032 1.51050 123 121 96
-3.95677 -4.71843 1.51262 126 126 96
-3.96959 -4.72654 1.51474 129 127 100
-4.40561 -6.20450 1.83047 141 131 110
-4.39220 -6.19538 1.80892 141 134 107
-4.45033 -6.25193 1.84150 194 211 227
-4.46885 -6.26300 1.82518 185 200 217
-4.46654 -6.26081 1.84392 187 199 226
-4.48505 -6.27188 1.82760 192 207 227
-4.88778 -6.83265 1.97160 196 207 219
-4.90721 -6.84427 1.95447 201 212 234
1.04427 -4.08044 1.15600 69 65 64
1.02183 -4.09386 1.13622 76 76 77
0.93852 -4.22844 1.18864 79 80 81
0.95500 -4.21723 1.16216 75 74 79
0.93542 -4.22962 1.16540 76 78 77
0.91584 -4.24200 1.16864 74 82 72
0.91674 -4.23961 1.19176 89 94 87
0.89429 -4.25038 1.19483 98 102 105
0.87538 -4.26312 1.19811 100 100 113
0.85271 -4.27667 1.17813 106 109 115
0.84657 -4.27027 1.20081 99 89 98
0.82558 -4.28181 1.20396 102 97 89
0.81438 -4.29893 1.20769 91 90 81
0.81445 -4.46765 1.23917 85 86 90
0.85075 -4.51427 1.24615 42 47 56
0.82738 -4.52825 1.22554 50 35 28
0.84535 -4.53601 1.25046 47 43 48
0.83486 -4.55476 1.25446 67 63 49
0.74142 -4.62376 1.27177 49 52 66
0.69751 -4.64728 1.27825 50 53 68
0.72682 -4.69205 1.28521 40 37 49
0.73464 -4.72331 1.29067 40 38 23
0.73652 -4.75092 1.29573 50 42 54
0.71918 -4.76271 1.32359 63 52 71
0.75941 -4.79254 1.30241 53 47 66
0.74195 -4.80441 1.33047 58 55 53
0.73537 -4.80690 1.28122 45 37 32
0.80623 -4.85036 1.31098 50 50 60
0.78193 -4.86488 1.28956 50 38 49
0.83600 -4.92497 1.32349 44 41 43
0.79835 -4.98301 1.33611 28 36 48
0.78221 -5.02830 1.34532 51 49 51
0.75815 -5.03998 1.34865 47 54 53
0.72325 -5.04402 1.35106 67 71 61
0.68622 -5.04644 1.35327 76 70 65
0.64550 -5.04608 1.35514 86 76 57
0.62135 -5.05740 1.35840 109 109 81
0.58785 -5.06196 1.36084 71 76 65
0.55490 -5.06680 1.36331 25 23 27
0.55057 -5.09242 1.36829 31 28 46
0.53075 -5.10682 1.37192 105 105 123
0.51292 -5.11895 1.40058 165 151 135
0.50956 -5.12022 1.37543 161 147 143
-0.30263 -4.62119 1.32089 128 113 89
-0.28701 -4.61056 1.29579 178 157 136
-0.32119 -4.63293 1.32396 112 96 64
-0.34463 -4.64091 1.32656 59 43 28
-0.36989 -4.64744 1.32898 29 19 21
-0.38547 -4.65804 1.35402 20 21 24
-0.38841 -4.65915 1.33205 22 19 19
-0.39134 -4.66026 1.31007 24 20 12
-2.74235 -3.12447 1.15748 14 15 27
-2.73336 -3.11835 1.14304 16 20 16
-2.74404 -3.12511 1.14481 20 17 20
-2.75472 -3.13186 1.14657 20 16 22
-2.75046 -3.13352 1.15955 11 12 30
-2.76285 -3.14092 1.14864 21 16 24
-2.75704 -3.14400 1.16182 15 14 25
-2.76944 -3.15141 1.15089 20 17 24
-2.77367 -3.16191 1.16595 19 23 37
-2.78609 -3.16934 1.15500 34 41 44
-3.16726 -4.12591 1.36454 23 20 29
-3.15667 -4.11871 1.34753 19 21 17
-3.17694 -4.13823 1.36730 46 46 40
-3.18607 -4.15148 1.37021 68 68 50
-3.20068 -4.16021 1.35733 77 72 53
-3.52775 -3.90168 1.33982 125 111 84
-3.51815 -3.89515 1.32440 125 114 89
-3.55471 -3.88279 1.33758 101 82 62
-3.56884 -3.88518 1.33870 80 71 53
-3.57854 -3.89505 1.34100 107 111 79
-3.59164 -3.90288 1.32945 117 119 93
-3.81864 -4.39964 1.44657 123 118 99
-3.83280 -4.40810 1.43409 108 106 82
-3.82566 -4.41927 1.45056 114 109 83
-3.88510 -4.57703 1.48283 108 107 77
-3.87054 -4.56833 1.49566 111 119 101
-3.87253 -4.56908 1.48075 114 113 94
-3.87452 -4.56983 1.46583 113 108 94
-3.88709 -4.57779 1.46791 104 96 77
-3.89077 -4.60224 1.48780 105 103 71
-3.92632 -4.67322 1.50273 114 116 99
-3.93705 -4.68052 1.51998 112 113 100
-3.93907 -4.68129 1.50485 116 117 99
-3.94109 -4.68205 1.48971 127 125 94
-4.40633 -6.21504 1.81326 138 131 115
-4.42291 -6.22179 1.81530 144 148 161
0.86788 -4.26183 1.17465 98 105 118
0.82367 -4.28365 1.18085 108 114 104
0.80103 -4.29718 1.16090 98 94 94
0.81863 -4.30431 1.18489 95 82 73
0.82978 -4.33443 1.18986 82 68 61
0.82118 -4.35331 1.19375 89 90 86
0.82073 -4.37703 1.19813 78 74 69
0.79782 -4.39072 1.17793 80 70 73
0.82078 -4.44995 1.21150 81 73 89
0.83758 -4.43852 1.18451 78 70 79
0.81762 -4.45114 1.18781 73 60 65
0.81209 -4.46934 1.21549 84 89 92
0.82650 -4.50277 1.22091 58 65 61
0.82166 -4.54986 1.22979 59 52 42
0.81012 -4.56800 1.23369 76 68 42
0.79308 -4.57959 1.26107 84 67 47
0.78987 -4.58080 1.23704 83 65 57
0.78666 -4.58202 1.21301 79 64 55
0.75074 -4.60729 1.24384 61 48 58
0.77420 -4.59326 1.26452 72 59 51
0.77099 -4.59447 1.24048 78 61 65
0.76778 -4.59569 1.21645 83 61 57
0.72760 -4.61828 1.24700 46 45 65
0.72685 -4.64349 1.25166 89 83 78
0.67398 -4.63547 1.25281 55 67 67
0.74807 -4.76183 1.27233 48 45 46
0.72414 -4.77614 1.25124 34 30 51
0.76665 -4.80071 1.27854 46 43 49
0.81125 -4.93955 1.30181 41 35 31
0.79313 -4.95508 1.30555 43 38 44
0.79051 -4.98123 1.31048 44 37 51
0.79676 -5.01367 1.31612 54 44 66
0.78629 -5.03476 1.32051 63 57 72
0.75826 -5.04370 1.32354 78 71 76
0.73100 -5.05312 1.32662 89 83 80
0.70923 -5.06637 1.33012 107 101 103
0.67768 -5.07265 1.33284 119 114 107
0.65296 -5.08743 1.31104 126 125 129
0.65006 -5.08165 1.33586 126 128 108
0.60705 -5.07949 1.33759 111 102 92
0.57398 -5.08435 1.34012 51 33 29
0.54266 -5.09036 1.34277 23 17 15
0.54944 -5.12432 1.34866 61 44 51
0.47601 -5.09914 1.34768 132 125 114
0.45828 -5.11121 1.37618 170 156 146
0.45493 -5.11247 1.35117 164 155 144
-0.28323 -4.63929 1.30087 143 130 88
-0.26754 -4.62861 1.27566 175 160 139
-0.28619 -4.64041 1.27875 166 149 118
-0.32753 -4.63144 1.30162 120 99 63
-0.34457 -4.64434 1.30483 82 68 49
-0.36962 -4.65104 1.30730 40 22 22
-0.39108 -4.66387 1.28838 23 20 16
-3.16395 -4.13461 1.35081 22 21 25
-3.15335 -4.12739 1.33376 18 23 14
-3.16595 -4.13537 1.33585 22 22 21
-3.17595 -4.14351 1.35304 41 43 37
-3.18591 -4.15552 1.35574 64 66 42
-3.20053 -4.16427 1.34284 75 72 51
-3.52336 -3.91268 1.32788 127 115 84
-3.51373 -3.90613 1.31240 127 116 88
-3.52517 -3.91337 1.31430 129 117 89
-3.53661 -3.92061 1.31619 114 102 79
-3.54941 -3.89540 1.32599 106 95 70
-3.56256 -3.90326 1.31440 91 81 67
-3.56538 -3.89475 1.32666 82 77 62
-3.57524 -3.90442 1.32893 103 105 82
-3.58837 -3.91227 1.31735 117 119 94
-3.80396 -4.36750 1.42521 113 111 91
-3.81075 -4.38727 1.42918 107 101 91
-3.81910 -4.40373 1.43261 106 101 88
-3.83245 -4.44493 1.44083 102 100 83
-3.83440 -4.44567 1.42621 116 114 92
-3.84672 -4.45346 1.42825 119 114 94
-3.91837 -4.65872 1.48431 123 120 100
-3.93311 -4.66754 1.47131 126 124 101
-4.39436 -6.19825 1.79034 134 126 108
-4.37590 -6.18721 1.80662 140 134 103
-4.37842 -6.18817 1.78770 142 133 103
-4.42358 -6.23284 1.79813 144 155 169
0.97098 -4.22886 1.13983 79 80 78
0.99373 -4.21526 1.15988 69 68 75
0.99062 -4.21644 1.13658 71 70 72
0.95463 -4.24309 1.14324 86 84 81
0.93187 -4.25670 1.12317 101 100 94
0.92887 -4.25213 1.14619 89 90 87
0.90613 -4.26572 1.12615 98 100 104
0.84524 -4.29888 1.15893 99 99 98
0.82602 -4.33524 1.16647 101 103 98
0.82277 -4.35723 1.17061 94 99 99
0.81575 -4.37714 1.17456 83 75 72
0.79285 -4.39083 1.15437 85 79 81
0.82934 -4.48280 1.19292 74 70 75
0.82616 -4.48401 1.16911 72 61 78
0.83214 -4.50931 1.19755 64 67 63
0.83825 -4.53802 1.20242 51 40 41
0.81482 -4.55202 1.18177 38 41 44
0.82426 -4.55463 1.20613 47 44 41
0.81429 -4.57376 1.21010 67 58 44
0.75431 -4.61277 1.22022 66 50 43
0.77138 -4.60116 1.19280 80 61 54
0.73082 -4.62681 1.19951 57 43 44
0.73062 -4.62343 1.22336 41 37 42
0.69754 -4.62809 1.22590 87 70 64
0.66313 -4.63179 1.22834 68 68 70
0.74352 -4.70946 1.23821 32 21 13
0.80063 -4.90829 1.27113 52 47 48
0.82175 -4.89493 1.26764 50 43 54
0.81840 -4.89619 1.24257 55 50 59
0.79473 -4.93193 1.27570 51 48 47
0.79217 -4.95799 1.28053 53 49 55
0.78968 -4.98425 1.28540 57 52 67
0.79959 -5.01924 1.29120 66 69 75
0.79783 -5.04641 1.29619 80 76 83
0.75447 -5.04471 1.29811 94 91 96
0.76264 -5.07904 1.30388 108 102 105
0.71926 -5.07715 1.30578 119 118 121
0.69444 -5.09198 1.28390 124 124 126
0.68935 -5.08466 1.30867 122 121 129
0.60570 -5.08223 1.31254 126 115 109
0.60234 -5.08350 1.28732 122 123 114
0.54725 -5.06864 1.31309 82 81 86
0.53457 -5.08817 1.31727 68 56 66
0.51412 -5.10206 1.32083 81 73 70
-0.30910 -4.64893 1.28146 130 106 73
-0.29342 -4.63826 1.25627 178 163 135
-0.31205 -4.65005 1.25936 138 121 95
-0.33598 -4.65435 1.28382 103 86 63
-0.36257 -4.65990 1.28619 47 32 29
-3.17921 -4.14235 1.33779 35 29 35
-3.16861 -4.13513 1.32075 20 22 14
-3.18347 -4.16306 1.34175 61 64 43
-3.19812 -4.17182 1.32883 73 71 56
-3.23111 -4.17192 1.34580 80 67 42
-3.21652 -4.16319 1.35866 81 75 55
-3.21852 -4.16395 1.34371 80 72 47
-3.22051 -4.16471 1.32876 77 71 48
-3.22911 -4.17116 1.36074 82 75 59
-3.24171 -4.17913 1.36283 88 80 72
-3.27748 -4.12669 1.34002 90 86 71
-3.28791 -4.13379 1.35679 98 94 78
-3.28988 -4.13453 1.34208 101 104 87
-3.57112 -3.91521 1.31699 100 96 80
-3.56156 -3.90870 1.30162 94 84 67
-3.77749 -4.32762 1.40199 122 117 86
-3.76347 -4.31924 1.41435 125 117 94
-3.76539 -4.31996 1.39999 122 119 89
-3.80449 -4.37134 1.41127 96 90 74
-3.80738 -4.39996 1.41658 92 84 71
-3.81914 -4.40879 1.41878 96 95 81
-3.83333 -4.41726 1.40627 109 113 81
-3.83097 -4.41748 1.42095 111 114 82
-3.84516 -4.42597 1.40845 113 113 85
-3.90124 -4.62739 1.46243 126 117 89
-3.91592 -4.63617 1.44948 128 123 99
-3.91004 -4.64532 1.46612 125 122 95
-3.92477 -4.65413 1.45314 127 124 100
-4.38312 -6.17795 1.76688 142 133 100
-4.36469 -6.16693 1.78312 139 133 99
-4.36721 -6.16789 1.76425 138 133 104
-4.36973 -6.16884 1.74537 142 134 106
-4.39683 -6.19952 1.77148 107 104 111
-4.41238 -6.21170 1.77447 106 108 129
-4.42704 -6.22878 1.77831 142 153 170
-4.43752 -6.26916 1.78613 162 176 192
-4.45590 -6.26626 1.78655 175 194 212
-4.47445 -6.27735 1.77019 195 203 223
0.98855 -4.21819 1.11332 70 69 66
1.01130 -4.20459 1.13338 69 67 70
1.00819 -4.20577 1.11007 68 67 66
1.00508 -4.20694 1.08676 64 62 64
0.98544 -4.21937 1.09001 67 62 68
0.97016 -4.23130 1.11662 86 88 83
0.95617 -4.24684 1.12013 100 99 89
0.88456 -4.27704 1.12931 96 95 98
0.88145 -4.27822 1.10602 118 124 117
0.87084 -4.29280 1.13283 101 95 85
0.83103 -4.31734 1.13931 93 84 95
0.82906 -4.33998 1.14343 98 93 105
0.82868 -4.36367 1.14764 93 95 104
0.81292 -4.37850 1.15112 86 81 85
0.79002 -4.39219 1.13093 70 71 82
0.83090 -4.51170 1.17376 65 64 67
0.84785 -4.50017 1.14652 78 77 81
0.82167 -4.53108 1.17769 52 52 48
0.80526 -4.57139 1.18571 56 49 44
0.80035 -4.59373 1.18993 74 60 53
0.77682 -4.60780 1.16920 74 59 57
0.70906 -4.66453 1.20736 82 83 78
0.74531 -4.71395 1.21418 53 26 13
0.74453 -4.73977 1.21880 46 39 30
0.74010 -4.76338 1.22322 47 41 46
0.71618 -4.77768 1.20213 58 54 62
0.74165 -4.79107 1.22804 49 47 55
0.72093 -4.80418 1.23147 51 53 58
0.71765 -4.80542 1.20688 58 52 64
0.76983 -4.89111 1.24427 63 52 60
0.76949 -4.91840 1.24912 63 50 53
0.77823 -4.95206 1.25462 67 60 71
0.78571 -4.98513 1.26008 76 75 73
0.80303 -5.02524 1.26626 96 91 88
0.81089 -5.05913 1.27185 113 112 106
0.78366 -5.06877 1.27501 114 116 116
0.75108 -5.07459 1.27779 115 112 123
0.72621 -5.08946 1.25586 138 132 132
0.63228 -5.07630 1.28444 122 124 125
0.62891 -5.07758 1.25918 123 114 108
0.60763 -5.09104 1.26271 121 117 121
0.55476 -5.07780 1.28885 121 116 108
0.55140 -5.07907 1.26374 123 118 120
0.53025 -5.09245 1.26724 118 116 119
0.51970 -5.08101 1.29129 117 113 105
0.48413 -5.08370 1.29367 109 106 101
0.42594 -5.06948 1.29426 93 93 104
0.40169 -5.08397 1.27289 106 111 114
-0.33714 -4.65684 1.26190 118 98 67
-0.32148 -4.64619 1.23675 159 144 120
-0.33753 -4.68275 1.26652 67 57 32
-0.37801 -4.67750 1.26775 31 22 19
-0.39366 -4.68815 1.29289 22 22 20
-0.39660 -4.68926 1.27083 22 21 29
-0.39955 -4.69038 1.24876 22 22 22
-3.18419 -4.13859 1.32219 27 22 28
-3.17360 -4.13138 1.30517 20 20 14
-3.18312 -4.16742 1.32725 59 61 56
-3.23430 -4.17081 1.33058 76 65 47
-3.22370 -4.16360 1.31356 70 66 53
-3.23629 -4.17157 1.31564 71 62 55
-3.29620 -4.10102 1.32152 93 95 84
-3.32926 -4.07581 1.31882 109 115 102
-3.33951 -4.08278 1.33530 111 108 90
-3.35244 -4.06590 1.31830 117 118 98
-3.36264 -4.07283 1.33469 119 109 88
-3.36456 -4.07356 1.32031 125 117 91
-3.36648 -4.07429 1.30592 132 133 113
-3.57048 -3.92007 1.30411 97 89 77
-3.58568 -3.92069 1.30503 120 119 92
-3.59524 -3.92720 1.32040 120 118 88
-3.59704 -3.92788 1.30691 123 117 89
-3.59884 -3.92856 1.29343 122 117 87
-3.73632 -4.28660 1.37793 118 117 89
-3.72234 -4.27825 1.39025 124 118 96
-3.72426 -4.27897 1.37594 122 119 90
-3.73441 -4.28588 1.39225 124 119 101
-3.74647 -4.29351 1.39425 122 120 100
-3.74449 -4.30246 1.38118 114 114 90
-3.75467 -4.30938 1.39753 121 120 95
-3.77930 -4.32858 1.38767 99 99 79
-3.78526 -4.34971 1.39173 83 83 75
-3.80097 -4.38425 1.39869 90 86 75
-3.81512 -4.39271 1.38622 111 107 78
-3.81190 -4.39488 1.40116 97 91 72
-3.82605 -4.40334 1.38868 110 105 86
-3.81935 -4.41346 1.40485 102 101 83
-3.83355 -4.42195 1.39234 107 105 83
-4.38573 -6.17843 1.74792 136 127 105
-4.40045 -6.19470 1.75159 94 85 100
-4.41556 -6.20918 1.75496 102 104 119
-4.42944 -6.23042 1.75947 141 155 169
-4.44619 -6.23622 1.76139 167 191 203
0.98246 -4.24093 1.09393 78 72 83
0.95965 -4.25457 1.07382 89 84 88
0.94731 -4.24485 1.09656 91 88 90
0.92456 -4.25846 1.07650 87 88 86
0.93653 -4.26221 1.10018 99 101 94
0.90886 -4.27017 1.10310 107 112 106
0.85740 -4.31172 1.11318 97 94 88
0.84565 -4.32871 1.11679 81 74 85
0.84036 -4.34950 1.12071 75 73 88
0.84397 -4.37558 1.12505 79 81 87
0.81689 -4.38385 1.12799 76 76 84
0.82059 -4.50860 1.14950 74 72 75
0.83753 -4.49708 1.12229 81 81 78
0.81035 -4.52735 1.15333 60 56 54
0.80712 -4.55048 1.15754 49 40 39
0.80242 -4.57284 1.16169 47 41 30
0.79503 -4.59365 1.16572 64 55 48
0.78234 -4.71489 1.18754 86 100 93
0.72277 -4.70271 1.18872 66 43 33
0.74968 -4.74649 1.19485 55 49 50
0.72579 -4.76077 1.17379 61 58 66
0.75254 -4.77491 1.19964 56 51 57
0.72856 -4.78925 1.17850 62 60 64
0.74685 -4.87915 1.21810 73 79 81
0.77897 -4.95613 1.22972 86 81 91
0.77502 -4.98139 1.23434 100 96 102
0.76319 -5.00136 1.23847 122 126 116
0.73851 -5.01611 1.21671 136 134 136
0.76707 -5.03234 1.24365 130 125 117
0.74228 -5.04715 1.22180 132 130 134
0.75958 -5.05560 1.24811 127 131 125
0.73474 -5.07045 1.22622 129 128 133
0.46307 -5.07190 1.26738 115 114 113
0.45974 -5.07316 1.24247 121 118 115
0.43874 -5.08644 1.24594 116 113 112
-0.30691 -4.68358 1.24245 124 102 62
-0.29115 -4.67286 1.21713 178 162 139
-0.32998 -4.69205 1.24520 101 79 48
-0.37230 -4.68540 1.24639 46 30 25
-3.17648 -4.15407 1.30928 26 17 17
-3.16584 -4.14683 1.29219 19 19 21
-3.18003 -4.17596 1.31329 56 57 42
-3.19473 -4.18475 1.30033 57 56 45
-3.19995 -4.17285 1.31385 66 63 53
-3.21460 -4.18161 1.30094 62 56 38
-3.29209 -4.11131 1.30825 89 85 90
-3.32480 -4.08671 1.30578 105 113 119
-3.34825 -4.07643 1.30529 117 125 123
-3.39573 -4.05403 1.30402 138 131 99
-3.39383 -4.05331 1.31828 128 116 90
-3.40585 -4.06091 1.32027 127 117 90
-3.42809 -4.02820 1.30131 131 122 91
-3.43811 -4.03501 1.31741 128 117 87
-3.43999 -4.03573 1.30328 128 118 87
-3.52658 -3.94499 1.29228 121 110 77
-3.51324 -3.93701 1.30405 131 118 86
-3.51506 -3.93770 1.29038 130 119 84
-3.51689 -3.93839 1.27670 133 119 86
-3.55282 -3.92728 1.29066 97 83 61
-3.56426 -3.93451 1.29255 92 82 62
-3.58137 -3.93193 1.29305 117 119 91
-3.59458 -3.93983 1.28141 121 117 82
-3.71832 -4.26340 1.35835 125 119 92
-3.70438 -4.25507 1.37064 122 118 93
-3.70628 -4.25579 1.35635 123 118 96
-3.71641 -4.26268 1.37263 123 118 94
-3.72761 -4.27670 1.36118 111 108 88
-3.74158 -4.28505 1.34887 94 94 87
-3.74867 -4.29840 1.36612 91 93 79
-3.76808 -4.32390 1.37164 86 85 65
-3.78444 -4.35646 1.37821 86 88 75
-3.79854 -4.36489 1.36579 112 112 89
-3.79209 -4.37417 1.38172 99 98 85
-3.80622 -4.38262 1.36926 111 111 89
-3.80032 -4.39077 1.38506 109 107 85
-3.81449 -4.39924 1.37257 109 108 83
-3.84437 -4.54445 1.41426 109 106 83
-3.82983 -4.53576 1.42709 107 102 82
-3.83182 -4.53651 1.41218 111 102 85
-3.84238 -4.54370 1.42916 98 97 83
-3.85494 -4.55164 1.43124 99 97 93
-3.85892 -4.55315 1.40144 127 124 98
-3.85635 -4.55379 1.41655 116 114 95
-3.86693 -4.56098 1.43354 111 108 89
-3.87091 -4.56249 1.40372 128 123 101
-4.34570 -6.03694 1.70189 130 128 107
-4.35883 -6.04588 1.72299 141 131 108
-4.35580 -6.07394 1.70889 139 133 115
-4.36900 -6.08292 1.73010 141 133 108
-4.36855 -6.09858 1.71388 135 132 112
-4.38285 -6.11583 1.71768 130 123 102
-4.40109 -6.12674 1.70159 94 96 69
-4.38916 -6.17468 1.72827 105 95 72
-4.40452 -6.18752 1.73136 69 64 62
-4.41934 -6.20337 1.73494 101 111 100
-4.43190 -6.23180 1.74059 146 166 168
-4.46493 -6.24581 1.74486 175 195 219
0.97382 -4.12460 1.05079 56 63 71
0.97689 -4.12344 1.07378 69 67 70
0.95751 -4.13570 1.07699 75 70 72
0.95444 -4.13686 1.05399 65 73 80
0.99356 -4.22667 1.06710 72 64 72
1.01324 -4.21423 1.06385 62 57 71
0.97077 -4.24030 1.04701 90 92 97
0.98246 -4.24383 1.07067 82 71 81
0.95964 -4.25747 1.05056 90 89 97
0.91435 -4.27617 1.08011 81 83 87
0.89303 -4.28768 1.08331 87 97 97
0.88819 -4.30854 1.08715 91 103 100
0.87320 -4.32370 1.09060 85 85 88
0.85927 -4.33952 1.09411 72 71 81
0.83640 -4.35320 1.07394 59 52 65
0.85657 -4.36187 1.09808 64 62 78
0.83363 -4.37559 1.07786 56 56 59
0.85563 -4.38539 1.10216 65 64 75
0.83262 -4.39914 1.08188 58 60 66
0.83496 -4.39748 1.10541 67 66 78
0.83398 -4.42118 1.10952 70 71 79
0.81722 -4.43258 1.13645 79 79 76
0.81406 -4.43378 1.11282 82 80 80
0.81090 -4.43497 1.08918 75 76 83
0.81913 -4.51085 1.12570 79 76 79
0.83606 -4.49933 1.09849 76 73 80
0.80582 -4.52774 1.12935 72 67 67
0.80446 -4.55202 1.13358 60 57 46
0.80221 -4.57590 1.13780 38 38 38
0.79496 -4.59683 1.14179 50 48 42
0.78751 -4.61772 1.14579 59 57 44
0.77039 -4.62938 1.17331 73 58 61
0.77158 -4.63338 1.14938 60 54 53
0.73382 -4.66104 1.15628 87 64 51
0.72182 -4.70542 1.16455 70 52 48
0.74457 -4.74653 1.17028 61 56 61
0.72069 -4.76080 1.14922 65 65 69
0.74831 -4.88363 1.19350 70 70 78
0.75648 -4.94435 1.20341 111 101 88
0.75833 -4.97352 1.20829 105 112 114
0.73965 -4.98870 1.21196 125 134 139
-0.29010 -4.72652 1.22624 116 95 45
-0.32902 -4.72273 1.22783 59 52 33
-0.37618 -4.71225 1.22874 29 25 31
-0.39191 -4.72294 1.25401 23 25 15
-0.39487 -4.72407 1.23184 24 22 21
-0.39783 -4.72519 1.20966 28 22 13
-3.16977 -4.16806 1.29604 19 19 21
-3.15909 -4.16080 1.27889 18 19 26
-3.18173 -4.17721 1.29829 49 53 33
-3.19643 -4.18600 1.28533 60 58 52
-3.24307 -4.16483 1.29970 63 55 44
-3.23250 -4.15764 1.28271 64 59 43
-3.27437 -4.14316 1.29779 80 77 83
-3.31897 -4.09981 1.29294 99 107 118
-3.34418 -4.08678 1.29216 111 122 131
-3.35831 -4.09523 1.27971 129 136 137
-3.36592 -4.07904 1.29208 132 139 130
-3.37998 -4.08745 1.27969 136 133 123
-3.39176 -4.06434 1.29105 143 141 113
-3.40573 -4.07269 1.27874 135 126 105
-3.41979 -4.04568 1.28947 138 128 97
-3.43365 -4.05396 1.27726 137 127 96
-3.45642 -4.01231 1.28587 134 122 90
-3.51629 -3.96613 1.28141 127 110 82
-3.55108 -3.93401 1.27792 105 84 59
-3.56398 -3.93879 1.27947 87 77 56
-3.57800 -3.94158 1.28075 114 119 94
-3.59124 -3.94950 1.26908 120 118 88
-3.73031 -4.27579 1.34664 99 96 86
-3.75187 -4.29641 1.35140 89 88 82
-3.76956 -4.32557 1.35740 89 86 69
-3.77599 -4.34561 1.36119 92 93 66
-3.79007 -4.35402 1.34878 110 113 80
-3.78393 -4.36256 1.36455 104 106 77
-3.85248 -4.53055 1.39720 125 121 95
-3.84195 -4.52339 1.38029 126 123 99
-3.85446 -4.53130 1.38236 127 123 100
-3.86697 -4.53921 1.38443 127 123 99
-4.31657 -6.01999 1.67849 130 124 99
-4.29848 -6.00918 1.69444 137 128 103
-4.30096 -6.01012 1.67591 136 130 110
-4.33399 -6.02121 1.67970 102 91 85
-4.35205 -6.03200 1.66378 87 81 75
-4.34882 -6.03477 1.68287 89 87 90
-4.35943 -6.06928 1.68938 104 108 111
-4.37840 -6.15225 1.70465 90 92 80
-4.39676 -6.16323 1.68846 90 94 72
-4.40567 -6.19572 1.71365 85 86 70
-4.42147 -6.20647 1.71640 117 130 127
-4.43365 -6.23699 1.72231 155 177 191
-4.44937 -6.24861 1.72520 171 189 209
-4.46789 -6.25968 1.70887 169 179 207
-4.47916 -6.28143 1.73252 174 190 216
-4.49264 -6.29061 1.75419 186 203 217
-4.49490 -6.29323 1.73544 186 200 221
-4.50839 -6.30241 1.75712 189 203 220
-4.51014 -6.30807 1.73886 198 214 230
-4.52364 -6.31725 1.76055 194 207 228
-4.52619 -6.31822 1.74151 199 219 231
-4.52873 -6.31918 1.72247 193 208 229
0.97822 -4.10722 1.02423 59 53 67
0.95581 -4.12061 1.00448 53 54 55
0.97349 -4.12723 1.02787 53 56 66
0.95104 -4.14065 1.00807 49 53 61
0.98787 -4.15756 1.03211 56 63 73
0.97147 -4.16871 1.05846 64 66 80
0.99673 -4.18515 1.03621 59 64 78
0.99691 -4.20825 1.04008 70 73 76
1.00538 -4.23601 1.04424 88 92 84
0.94351 -4.27192 1.05394 87 86 91
0.92661 -4.28597 1.05730 76 70 75
0.90376 -4.29962 1.03716 70 66 65
0.90196 -4.29566 1.06039 75 73 77
0.87913 -4.30931 1.04027 72 68 77
0.88750 -4.33485 1.06783 74 74 81
0.86458 -4.34855 1.04762 67 64 59
0.84457 -4.43049 1.08643 62 65 69
0.82020 -4.51464 1.10200 87 84 83
0.80120 -4.52808 1.10538 88 90 81
0.79895 -4.55182 1.10950 77 72 68
0.79795 -4.57647 1.11370 61 58 57
0.80215 -4.60452 1.11816 44 32 50
0.77859 -4.61861 1.09738 22 28 32
0.79628 -4.62646 1.12219 33 30 41
0.77266 -4.64058 1.10136 34 32 33
0.78361 -4.64423 1.12592 39 29 46
0.76369 -4.65746 1.12932 41 34 51
0.74254 -4.66991 1.13267 95 71 71
0.72725 -4.68612 1.13630 92 104 103
0.72905 -4.71344 1.14078 72 53 47
0.73576 -4.74415 1.14553 66 62 55
0.74630 -4.83133 1.15954 74 64 67
0.76714 -4.81814 1.15609 66 63 68
0.71914 -4.84028 1.16265 90 76 76
0.70565 -4.85839 1.16649 93 106 93
0.71680 -4.92082 1.17631 135 137 116
0.73679 -4.96230 1.18209 113 118 113
0.71227 -4.97696 1.16047 118 98 100
0.72112 -4.97949 1.18590 114 109 122
0.72674 -5.01155 1.19095 125 121 137
0.70547 -5.02501 1.19447 130 129 136
0.70210 -5.02629 1.16922 133 136 137
0.40596 -5.03714 1.21429 126 123 118
0.42678 -5.02398 1.21085 128 125 125
0.42348 -5.02523 1.18614 126 121 129
0.40266 -5.03839 1.18959 128 124 125
0.00463 -4.84852 1.20646 65 56 94
-0.01192 -4.85978 1.23306 160 158 154
-0.01504 -4.86096 1.20972 114 121 139
-0.25989 -4.75351 1.20622 124 105 61
-0.28720 -4.75899 1.20876 81 79 51
-0.34858 -4.73750 1.20880 43 29 20
-3.16022 -4.18640 1.28325 21 19 31
-3.14949 -4.17910 1.26600 16 18 21
-3.16627 -4.20474 1.28669 44 46 43
-3.18109 -4.21360 1.27362 61 60 61
-3.23802 -4.17662 1.28623 55 53 49
-3.22742 -4.16941 1.26919 67 61 40
-3.24002 -4.17738 1.27127 62 55 49
-3.26977 -4.15430 1.28437 69 72 79
-3.31471 -4.11044 1.27967 94 107 117
-3.34065 -4.09630 1.27884 112 125 135
-3.35482 -4.10476 1.26636 127 137 139
-3.48244 -3.99983 1.27107 138 125 91
-3.47256 -3.99311 1.25519 135 126 104
-3.48430 -4.00054 1.25714 141 132 102
-3.50522 -3.98863 1.27054 135 114 86
-3.51874 -3.99671 1.25862 118 94 85
-3.54759 -3.94374 1.26552 111 87 64
-3.56479 -3.94119 1.26612 84 72 58
-3.57045 -3.95847 1.26935 112 119 96
-3.64570 -4.07650 1.29363 118 121 102
-3.63218 -4.06842 1.30555 125 122 100
-3.63403 -4.06912 1.29170 121 120 95
-3.64385 -4.07580 1.30748 125 122 108
-3.65552 -4.08318 1.30941 123 120 103
-3.65358 -4.09103 1.29654 114 119 101
-3.66342 -4.09772 1.31235 124 118 101
-3.66079 -4.10697 1.29964 119 118 95
-3.67065 -4.11368 1.31550 122 117 94
-3.66672 -4.12551 1.30310 120 118 91
-3.67662 -4.13224 1.31901 122 117 91
-3.67848 -4.13295 1.30505 122 118 90
-3.69687 -4.18889 1.31553 113 108 94
-3.68311 -4.18067 1.32766 122 119 95
-3.68499 -4.18138 1.31357 119 119 94
-3.69499 -4.18818 1.32963 122 120 94
-3.70220 -4.20956 1.31932 105 99 82
-3.71601 -4.21782 1.30714 89 86 67
-3.71002 -4.22540 1.32244 98 99 77
-3.72029 -4.23641 1.32490 87 84 70
-3.74267 -4.28749 1.33480 89 90 82
-3.75664 -4.29585 1.32249 115 114 96
-3.75130 -4.30239 1.33781 103 101 86
-3.76530 -4.31076 1.32547 115 115 94
-3.76088 -4.31539 1.34056 110 104 89
-3.77490 -4.32377 1.32821 109 111 93
-3.76765 -4.33457 1.34419 111 109 90
-3.78171 -4.34298 1.33179 110 110 91
-3.77461 -4.35354 1.34778 110 110 84
-3.78872 -4.36197 1.33535 111 113 83
-3.81723 -4.47007 1.36987 113 110 92
-3.80286 -4.46147 1.38255 107 104 88
-3.80482 -4.46222 1.36782 103 103 90
-3.81527 -4.46932 1.38460 109 103 89
-3.83161 -4.47866 1.35720 124 124 93
-4.29540 -5.96648 1.64942 127 127 101
-4.27744 -5.95573 1.66526 134 126 105
-4.27989 -5.95667 1.64685 129 127 105
-4.29295 -5.96554 1.66783 134 127 104
-4.30666 -5.99606 1.65506 134 132 101
-4.32021 -6.01540 1.65911 106 105 92
-4.33828 -6.02620 1.64318 84 85 84
-4.33563 -6.02614 1.66182 88 83 81
-4.35873 -6.08598 1.67324 84 83 75
-4.36122 -6.08692 1.65459 89 78 63
-4.37693 -6.09686 1.65719 83 80 52
-4.36901 -6.12324 1.68010 80 80 71
-4.37818 -6.16717 1.68802 83 88 73
-4.40801 -6.19766 1.69491 90 92 79
-4.41927 -6.23288 1.70149 121 136 140
-4.43429 -6.24833 1.70497 150 171 190
-4.45054 -6.25716 1.70742 167 188 202
-4.46909 -6.26825 1.69107 167 184 195
-4.48101 -6.28635 1.71413 173 185 208
-4.48356 -6.28731 1.69510 162 182 191
-4.49542 -6.30614 1.71831 184 202 215
-4.51011 -6.32453 1.72227 191 206 225
-4.52874 -6.33567 1.70584 186 205 223
-4.76199 -6.53434 1.77244 205 216 234
-4.74320 -6.52310 1.78900 207 218 231
-4.74577 -6.52408 1.76975 210 222 237
-4.75942 -6.53336 1.79168 204 213 233
-4.77821 -6.54459 1.77512 193 201 228
-4.78078 -6.54557 1.75587 202 210 227
0.99295 -4.07302 0.99436 72 68 78
1.01223 -4.06082 0.99117 70 67 75
0.98989 -4.07417 0.97148 63 57 67
0.97061 -4.08637 0.97468 68 57 64
0.98814 -4.09281 0.99792 69 61 71
0.96575 -4.10619 0.97819 69 59 61
0.99873 -4.18908 1.01313 55 57 68
1.01522 -4.17787 0.98663 55 54 55
0.99563 -4.19026 0.98988 55 52 51
0.98914 -4.20690 1.01665 61 66 71
0.98936 -4.23015 1.02046 72 81 82
0.98360 -4.25025 1.02413 76 86 90
0.95216 -4.25624 1.02704 74 79 88
0.94346 -4.27482 1.03064 74 79 81
0.92061 -4.28848 1.01050 60 59 65
0.91529 -4.28255 1.03364 70 66 64
0.89247 -4.29619 1.01353 63 62 68
0.84953 -4.41212 1.05902 63 64 71
0.86946 -4.39952 1.05572 58 58 65
0.86630 -4.40071 1.03207 62 66 70
0.85707 -4.44095 1.06330 68 63 79
0.83389 -4.45481 1.04287 86 85 87
0.85182 -4.46240 1.06716 77 74 87
0.83494 -4.47388 1.09428 77 78 88
0.83176 -4.47509 1.07048 79 75 82
0.83165 -4.49980 1.07456 77 66 75
0.80834 -4.51374 1.05401 115 115 101
0.82393 -4.52006 1.07837 107 98 87
0.80157 -4.53146 1.08162 104 102 87
0.78742 -4.54791 1.08519 84 87 79
0.78080 -4.56906 1.08908 73 75 63
0.80161 -4.60741 1.09412 41 33 56
0.77786 -4.66975 1.10585 37 32 51
0.79509 -4.65803 1.07816 39 32 31
0.75363 -4.68029 1.10907 111 94 60
0.73138 -4.69209 1.11238 84 83 98
0.74325 -4.72598 1.11723 66 56 54
0.73139 -4.74467 1.12104 69 64 63
0.73317 -4.77239 1.12550 71 66 69
0.72678 -4.79490 1.12959 81 75 77
0.69037 -4.79756 1.13227 90 94 110
0.71938 -4.84390 1.13812 120 113 114
0.71067 -4.86525 1.14217 128 128 116
0.68649 -4.87970 1.12086 145 145 135
0.69930 -4.88490 1.14611 144 136 127
0.70020 -4.91302 1.15068 132 138 131
0.70388 -4.94325 1.15543 114 122 116
0.67309 -4.97779 1.16301 130 130 134
0.64864 -4.99241 1.14146 137 133 133
-0.02552 -4.82918 1.18140 70 65 94
-0.01816 -4.86214 1.18638 58 45 105
-0.26185 -4.75547 1.18376 131 105 82
-0.28110 -4.76728 1.18689 112 91 65
-0.33458 -4.75204 1.18766 56 42 17
-0.34490 -4.77076 1.19137 26 22 20
-0.36080 -4.78158 1.21692 23 22 21
-0.36380 -4.78271 1.19450 21 24 21
-0.36679 -4.78385 1.17208 22 22 16
-3.15106 -4.20418 1.27023 20 18 26
-3.14028 -4.19684 1.25290 13 19 21
-3.15980 -4.21853 1.27313 41 39 49
-3.25743 -4.17773 1.27240 67 64 73
-3.24685 -4.17054 1.25540 69 56 52
-3.31002 -4.12179 1.26641 87 95 116
-3.33969 -4.10169 1.26492 110 121 138
-3.38243 -4.08730 1.26518 133 133 127
-3.39457 -4.09498 1.26718 132 123 110
-3.49722 -4.00598 1.25882 143 127 98
-3.48734 -3.99926 1.24296 137 128 102
-3.49908 -4.00669 1.24490 142 129 102
-3.56281 -3.94841 1.25337 87 70 73
-3.56427 -3.97304 1.25751 114 120 92
-3.57763 -3.98103 1.24573 124 127 96
-3.57572 -3.98047 1.25944 124 126 97
-3.58726 -3.98777 1.26135 126 126 110
-3.58909 -3.98846 1.24766 125 126 104
-3.63757 -4.09589 1.28224 92 86 80
-3.64387 -4.11358 1.28554 76 76 77
-3.65009 -4.13160 1.28889 74 76 81
-3.66631 -4.13058 1.28972 93 96 90
-3.67423 -4.14552 1.29267 112 115 99
-3.68416 -4.15228 1.30863 123 118 95
-3.68603 -4.15299 1.29462 122 120 94
-3.68790 -4.15370 1.28061 119 119 93
-3.68907 -4.17777 1.29889 111 112 85
-3.70281 -4.18598 1.28677 95 84 81
-3.69728 -4.19255 1.30183 101 90 85
-3.71105 -4.20078 1.28969 94 86 74
-3.70376 -4.21093 1.30525 93 85 72
-3.72843 -4.25651 1.31427 73 68 64
-3.73240 -4.28084 1.31853 89 86 80
-3.74637 -4.28920 1.30621 113 107 97
-3.74185 -4.29395 1.32127 105 102 92
-3.81711 -4.47565 1.35581 121 120 94
-3.83151 -4.48425 1.34312 125 123 97
-4.32183 -6.02040 1.64121 95 93 89
-4.38152 -6.16392 1.66852 78 84 63
-4.36815 -6.15483 1.64704 88 77 65
-4.38404 -6.16488 1.64967 72 81 72
-4.40719 -6.21638 1.67873 94 99 84
-4.42029 -6.24199 1.68375 128 138 138
-4.43410 -6.26430 1.68828 148 160 170
-4.45152 -6.26684 1.68976 164 179 188
-4.47010 -6.27795 1.67339 170 187 197
-4.49546 -6.32190 1.70153 170 194 208
-4.48191 -6.31268 1.67975 169 192 197
-4.49801 -6.32286 1.68241 173 191 205
-4.51094 -6.33584 1.70477 179 203 223
-4.74654 -6.54009 1.75287 211 222 238
-4.76467 -6.53434 1.75304 201 208 233
0.99214 -4.21139 0.99351 51 51 53
1.00866 -4.20015 0.96696 56 58 59
0.98902 -4.21257 0.97021 53 52 51
0.96939 -4.22499 0.97346 59 56 59
0.98964 -4.23319 0.99719 55 58 67
0.96683 -4.24683 0.97708 67 61 64
0.98125 -4.25186 1.00074 66 67 72
0.95840 -4.26553 0.98060 66 60 65
0.95782 -4.26229 1.00391 65 67 69
0.93498 -4.27594 0.98378 64 57 63
0.94296 -4.27746 1.00730 62 64 65
0.92010 -4.29113 0.98716 59 56 64
0.86138 -4.42213 1.03585 78 79 76
0.87819 -4.41070 1.00884 69 65 67
0.83824 -4.43596 1.01545 99 86 103
0.86416 -4.44823 1.03989 86 80 86
0.84094 -4.46211 1.01942 90 85 90
0.84286 -4.48485 1.04715 91 92 86
0.82948 -4.50162 1.05071 100 94 94
0.80753 -4.53828 1.05802 103 102 92
0.79410 -4.55520 1.06161 86 86 84
0.78646 -4.57577 1.06541 74 72 63
0.79921 -4.60915 1.07000 53 47 44
0.80647 -4.63936 1.07442 35 31 34
0.77815 -4.67322 1.08169 49 36 54
0.75442 -4.68741 1.06077 111 129 114
0.74426 -4.67760 1.08454 115 123 81
0.74729 -4.70566 1.08888 71 70 86
0.73315 -4.72278 1.09255 60 62 71
0.72965 -4.74690 1.09666 78 75 66
0.70535 -4.75749 1.09992 95 91 99
0.73095 -4.80108 1.10534 121 114 111
0.70693 -4.81544 1.08415 132 127 136
0.73336 -4.82961 1.10979 127 126 130
0.70924 -4.84403 1.08853 130 125 138
0.71887 -4.84702 1.11352 129 126 132
0.69473 -4.86146 1.09224 132 133 138
0.70989 -4.86821 1.11752 132 137 129
0.68570 -4.88267 1.09619 138 140 142
0.67474 -4.89914 1.12474 131 133 135
0.65052 -4.91362 1.10339 114 100 102
0.68020 -4.93051 1.12946 110 109 119
0.65603 -4.94159 1.13278 123 114 117
0.63172 -4.95612 1.11136 138 136 132
0.63174 -4.95255 1.13610 138 135 128
0.60745 -4.96708 1.11468 135 133 137
-0.04819 -4.84273 1.16142 86 75 62
-0.07086 -4.85629 1.14143 101 96 88
-0.22153 -4.79042 1.16394 146 134 104
-0.24543 -4.79880 1.16681 123 99 59
-0.30967 -4.77523 1.16707 76 74 24
-0.33403 -4.78293 1.16986 31 27 30
-0.35598 -4.79605 1.15051 26 20 28
-3.14940 -4.23840 1.26019 37 34 43
-3.17830 -4.22182 1.25934 62 57 50
-3.19112 -4.22993 1.26147 70 57 42
-3.19315 -4.23069 1.24625 67 55 46
-3.25951 -4.17834 1.25746 73 66 70
-3.24893 -4.17115 1.24046 68 57 53
-3.26150 -4.17910 1.24254 72 67 68
-3.30608 -4.13195 1.25292 83 88 109
