ply
format ascii 1.0
element face 0
property list uchar int vertex_indices
element vertex 1265
property float x
property float y
property float z
property uchar diffuse_red
property uchar diffuse_green
property uchar diffuse_blue
end_header
-3.19295 -4.29651 -0.03971 254 254 254
-3.18835 -4.29849 -0.05039 242 252 253
-3.19989 -4.30147 -0.05574 232 247 245
-3.24775 -4.31988 -0.07801 73 54 73
-3.25515 -4.30312 -0.08127 26 11 81
-3.26940 -4.31762 -0.08798 32 23 59
-3.28511 -4.33809 -0.09543 62 60 49
-3.30368 -4.32188 -0.10384 156 158 160
-3.30977 -4.32222 -0.11960 203 207 193
-3.30227 -4.26877 -0.10268 198 203 187
-3.31281 -4.26703 -0.10753 201 201 171
-3.30826 -4.26911 -0.11819 205 203 188
-3.41165 -4.22550 -0.15275 203 197 192
-3.46228 -4.21104 -0.17597 201 192 187
-3.47273 -4.20931 -0.18078 202 190 187
-3.46821 -4.21137 -0.19133 211 212 196
-1.87362 -4.23052 0.54537 108 93 91
-1.85979 -4.23403 0.54005 112 98 92
-1.88235 -4.23321 0.54130 77 66 63
-1.88438 -4.26750 0.53990 45 28 24
-1.89145 -4.27879 0.53648 32 18 22
-1.90552 -4.27523 0.54189 18 13 12
-1.90127 -4.27717 0.53196 17 14 13
-2.57848 -4.09819 0.22140 36 27 49
-2.56472 -4.10168 0.21611 30 32 28
-2.58846 -4.13173 0.21634 71 72 64
-2.59398 -4.13204 0.20204 81 83 69
-2.74126 -4.40685 0.14200 81 80 69
-2.79506 -4.40323 0.11718 106 102 90
-2.77974 -4.40712 0.11128 99 93 93
-2.80576 -4.40140 0.11226 120 116 99
-2.81184 -4.40174 0.09652 130 123 115
-2.82706 -4.39657 0.10248 133 126 112
-2.83855 -4.40395 0.09707 141 129 123
-2.84985 -4.40866 0.09178 154 147 136
-2.85596 -4.40900 0.07598 163 154 128
-2.87161 -4.40784 0.08174 163 157 144
-2.86696 -4.40996 0.07086 162 153 135
-2.89072 -4.38077 0.07327 162 156 138
-2.88611 -4.38288 0.06247 151 139 129
-2.89945 -4.36051 0.06951 148 140 131
-2.91941 -4.34556 0.06049 147 138 116
-2.93269 -4.36713 0.05406 130 115 92
-2.94374 -4.36865 0.04893 87 82 53
-2.95354 -4.35975 0.04452 62 43 18
-2.96325 -4.35048 0.04016 38 28 44
-2.97443 -4.35307 0.03496 35 37 79
-2.98471 -4.34863 0.03027 68 64 101
-2.99430 -4.33922 0.02596 116 110 162
-3.01072 -4.37926 0.01783 159 161 214
-3.00874 -4.28819 0.01998 188 200 235
-3.02474 -4.32452 0.01210 208 225 241
-3.03551 -4.32410 0.00712 222 240 250
-3.05066 -4.32026 0.01295 254 254 254
-3.04609 -4.32236 0.00226 232 248 254
-3.06123 -4.31852 0.00808 254 254 254
-3.05681 -4.32153 -0.00269 241 251 254
-3.07196 -4.31769 0.00314 254 254 254
-3.06697 -4.31717 -0.00732 247 252 254
-3.08211 -4.31333 -0.00150 254 254 254
-3.07687 -4.31127 -0.01182 247 253 254
-3.09199 -4.30744 -0.00600 254 254 254
-3.08748 -4.30983 -0.01670 245 252 254
-3.10260 -4.30599 -0.01089 254 254 254
-3.09885 -4.31286 -0.02200 244 252 254
-3.11399 -4.30902 -0.01617 254 254 254
-3.10896 -4.30844 -0.02661 243 252 254
-3.12409 -4.30460 -0.02079 254 254 254
-3.12090 -4.31449 -0.03221 239 251 254
-3.13607 -4.31065 -0.02638 254 254 254
-3.14225 -4.31188 -0.04204 230 247 252
-3.15125 -4.30158 -0.04606 222 237 242
-3.17476 -4.31040 -0.05705 184 185 207
-3.17550 -4.25851 -0.05669 165 145 204
-3.19844 -4.31920 -0.06811 141 108 158
-3.20449 -4.31954 -0.08377 66 48 54
-3.20065 -4.27602 -0.06855 102 70 110
-3.21347 -4.28543 -0.07460 44 39 65
-3.23980 -4.30640 -0.08706 35 24 21
-3.25212 -4.31241 -0.09283 48 47 61
-3.26001 -4.29813 -0.09628 103 105 98
-3.27773 -4.32806 -0.10488 146 140 118
-3.28490 -4.31068 -0.10795 176 167 151
-3.29095 -4.31102 -0.12364 196 188 186
-3.45336 -4.19795 -0.18429 213 210 202
-1.87655 -4.24261 0.53215 100 86 75
-1.87775 -4.28066 0.53093 58 45 38
-1.88452 -4.29346 0.52757 39 23 23
-1.89012 -4.29377 0.51307 32 21 24
-2.57453 -4.13357 0.21102 38 28 48
-2.56061 -4.13710 0.20566 28 34 22
-2.73634 -4.40358 0.13143 81 77 73
-2.74240 -4.40392 0.11574 93 92 81
-2.74696 -4.40093 0.12656 92 91 79
-2.76223 -4.39706 0.13243 99 94 84
-2.75763 -4.39916 0.12165 101 100 85
-2.75302 -4.40127 0.11087 95 94 84
-2.78981 -4.39645 0.10681 104 105 96
-2.77452 -4.40032 0.10093 95 95 90
-2.80048 -4.39466 0.10190 118 119 104
-2.82198 -4.39304 0.09198 137 126 122
-2.83376 -4.40430 0.08633 145 134 133
-2.83985 -4.40464 0.07056 161 159 154
-2.84469 -4.40490 0.08126 156 152 141
-2.90432 -4.35005 0.05462 160 146 120
-2.91451 -4.34471 0.04999 158 149 123
-2.92441 -4.33700 0.04555 148 135 124
-2.93725 -4.35473 0.03930 131 127 94
-2.94789 -4.35314 0.03440 121 104 53
-2.95961 -4.36028 0.02885 83 68 32
-2.96983 -4.35517 0.02421 62 49 21
-2.98112 -4.35840 0.01893 46 32 29
-2.99166 -4.35573 0.01410 39 28 57
-3.00180 -4.35029 0.00950 39 42 92
-3.01180 -4.34403 0.00498 41 55 104
-3.01784 -4.34436 -0.01065 45 36 45
-3.02302 -4.34638 -0.00026 71 74 119
-3.03691 -4.36665 -0.00704 106 98 146
-3.03854 -4.30474 -0.00671 138 120 177
-3.04425 -4.27188 -0.00878 166 149 204
-3.05509 -4.27289 -0.01382 181 170 212
-3.06605 -4.27458 -0.01892 182 175 209
-3.07756 -4.27942 -0.02433 175 166 204
-3.08875 -4.28203 -0.02955 170 152 200
-3.10002 -4.28503 -0.03482 165 139 195
-3.12454 -4.30151 -0.04646 140 114 175
-3.16115 -4.26544 -0.06277 43 48 97
-3.18415 -4.27252 -0.07354 53 42 60
-3.20864 -4.28618 -0.08511 67 57 48
-3.23597 -4.31206 -0.09821 94 88 68
-3.24934 -4.32297 -0.10459 141 145 112
-3.25541 -4.32331 -0.12030 191 192 170
-3.25431 -4.29516 -0.10641 170 169 133
-3.26289 -4.28435 -0.11019 176 173 158
-3.26889 -4.28468 -0.12573 182 179 183
-3.44613 -4.19052 -0.19336 190 181 187
-3.44165 -4.19256 -0.20383 179 171 184
-3.62961 -4.12035 -0.27706 209 200 202
-3.62380 -4.12002 -0.26200 214 207 207
-3.61937 -4.12204 -0.27235 210 207 201
-3.66353 -4.12402 -0.29282 212 204 200
-3.66936 -4.12434 -0.30791 237 240 233
-3.93025 -4.03246 -0.41466 245 245 238
-1.87882 -4.30217 0.51813 46 29 29
-2.58014 -4.14657 0.19641 57 50 60
-2.58992 -4.14691 0.19187 78 82 67
-2.60390 -4.14336 0.19725 85 84 63
-2.59968 -4.14529 0.18738 86 87 73
-2.59546 -4.14722 0.17752 87 87 76
-2.72093 -4.40484 0.12567 76 74 64
-2.70567 -4.40871 0.11980 69 68 62
-2.72699 -4.40518 0.10999 88 89 74
-2.73149 -4.40122 0.12085 86 83 76
-2.73754 -4.40156 0.10518 93 93 71
-2.78505 -4.39656 0.09613 95 97 97
-2.79579 -4.39578 0.09117 114 111 102
-2.80619 -4.39045 0.08646 134 127 115
-2.81776 -4.40016 0.08089 148 142 131
-2.82384 -4.40050 0.06516 160 152 144
-2.82867 -4.40086 0.07582 156 150 141
-2.83474 -4.40120 0.06008 161 158 147
-2.86044 -4.39191 0.06129 156 149 133
-2.84513 -4.39579 0.05540 164 158 143
-2.85582 -4.39402 0.05048 176 167 141
-2.88100 -4.38008 0.05201 163 146 139
-2.87640 -4.38219 0.04123 167 153 146
-2.88966 -4.35870 0.04845 167 161 143
-2.90975 -4.34507 0.03943 166 159 149
-2.92023 -4.34255 0.03463 176 167 140
-2.92623 -4.34288 0.01909 163 159 144
-2.93064 -4.33941 0.02987 162 158 122
-2.94272 -4.35038 0.02404 154 139 105
-2.95265 -4.34313 0.01959 144 124 85
-2.96303 -4.33978 0.01485 138 122 76
-2.97238 -4.32854 0.01076 116 99 73
-2.98472 -4.34026 0.00479 87 81 66
-2.99820 -4.35969 -0.00187 62 51 36
-3.00740 -4.34749 -0.00588 44 28 37
-3.02816 -4.34052 -0.01535 47 41 56
-3.03993 -4.34648 -0.02093 47 35 69
-3.04993 -4.34052 -0.02544 50 46 83
-3.05982 -4.33405 -0.02988 59 65 103
-3.07846 -4.31464 -0.03811 54 57 88
-3.09759 -4.29944 -0.04665 38 35 83
-3.11019 -4.30970 -0.05271 37 32 69
-3.11851 -4.29524 -0.05626 38 31 65
-3.14255 -4.30812 -0.06767 33 27 49
-3.15722 -4.27056 -0.07367 47 33 52
-3.16766 -4.26875 -0.07847 59 52 65
-3.19502 -4.29740 -0.09176 94 88 64
-3.22064 -4.26329 -0.10291 170 173 142
-3.23163 -4.26397 -0.10802 180 180 155
-3.23758 -4.26430 -0.12343 211 203 191
-3.26116 -4.29923 -0.12245 169 160 152
-3.41673 -4.18104 -0.19204 203 204 187
-3.42859 -4.18476 -0.19761 187 182 177
-3.45019 -4.18456 -0.20762 193 188 190
-3.50262 -4.14349 -0.23104 193 183 187
-3.51154 -4.13762 -0.23505 194 195 205
-3.62418 -4.11954 -0.28687 206 191 196
-3.63516 -4.11995 -0.29197 212 213 208
-1.86284 -4.27072 0.51442 137 119 100
-1.87281 -4.26814 0.50985 104 91 76
-1.88002 -4.32343 0.50512 37 23 31
-1.88859 -4.32841 0.50101 27 15 18
-1.90287 -4.32479 0.50650 20 15 5
-1.89856 -4.32676 0.49643 16 14 8
-1.89425 -4.32873 0.48635 18 17 12
-2.33783 -4.39166 0.29094 36 21 12
-2.35273 -4.38788 0.29667 29 22 18
-2.57600 -4.15966 0.18624 52 45 58
-2.56198 -4.16322 0.18084 42 34 36
-2.58577 -4.15608 0.18179 80 81 63
-2.71610 -4.40220 0.11512 78 77 72
-2.70085 -4.40606 0.10926 71 67 65
-2.72214 -4.40253 0.09946 89 86 80
-2.76909 -4.38987 0.09083 103 96 88
-2.76305 -4.38953 0.10647 98 95 87
-2.75846 -4.39163 0.09573 95 93 86
-2.77991 -4.39085 0.08579 105 97 91
-2.80054 -4.37852 0.07653 132 133 123
-2.80656 -4.37885 0.06092 165 159 140
-2.81175 -4.38448 0.07117 154 151 138
-2.81779 -4.38482 0.05553 166 160 149
-2.86634 -4.39035 0.04569 164 151 144
-2.85103 -4.39424 0.03981 174 164 142
-2.87240 -4.39069 0.02998 158 143 144
-2.90658 -4.36005 0.02778 188 181 167
-2.91260 -4.36039 0.01217 174 158 148
-2.91616 -4.34909 0.02361 174 169 145
-2.92217 -4.34942 0.00804 167 169 147
-2.93796 -4.35097 0.01344 170 167 136
-2.93338 -4.35307 0.00273 182 179 147
-2.94882 -4.35134 0.00840 168 162 127
-2.95956 -4.35073 0.00342 154 142 107
-2.97010 -4.34841 -0.00141 159 141 124
-2.97844 -4.32936 -0.00480 165 155 133
-2.98570 -4.30321 -0.00751 144 131 92
-3.00232 -4.34605 -0.01630 115 85 64
-3.01382 -4.35049 -0.02175 110 99 64
-3.02486 -4.35151 -0.02690 99 96 61
-3.03477 -4.34479 -0.03133 84 74 56
-3.04595 -4.34670 -0.03657 78 66 54
-3.05535 -4.33689 -0.04068 81 73 61
-3.06596 -4.33513 -0.04557 82 76 58
-3.07389 -4.31673 -0.04878 75 70 45
-3.08269 -4.30431 -0.05255 66 60 38
-3.10563 -4.31179 -0.06339 62 57 44
-3.14462 -4.28725 -0.08087 92 81 53
-3.15313 -4.27491 -0.08450 115 110 86
-3.16606 -4.28601 -0.09078 124 117 110
-3.17604 -4.28155 -0.09530 147 134 113
-3.18243 -4.25915 -0.09771 164 152 123
-3.18836 -4.25948 -0.11305 192 180 156
-3.19273 -4.25677 -0.10243 174 165 146
-3.19866 -4.25710 -0.11777 193 197 184
-3.20229 -4.25080 -0.10671 190 196 157
-3.20821 -4.25113 -0.12203 191 194 171
-3.22646 -4.26301 -0.11824 175 179 161
-3.23240 -4.26334 -0.13363 211 206 194
-3.42092 -4.17544 -0.20628 211 203 189
-3.41647 -4.17748 -0.21668 223 216 216
-3.44228 -4.17472 -0.21618 193 183 188
-3.46538 -4.17974 -0.22702 204 201 187
-3.47125 -4.18007 -0.24221 209 205 197
-3.50985 -4.14833 -0.24687 192 188 197
-3.52354 -4.15745 -0.25345 225 221 219
-3.60850 -4.12030 -0.29195 217 208 201
-3.59388 -4.12401 -0.29758 207 208 209
-3.61802 -4.11662 -0.29627 207 180 181
-1.85504 -4.28887 0.50574 135 117 106
-1.84097 -4.29243 0.50033 121 100 89
-1.85079 -4.29081 0.49581 124 104 96
-1.87571 -4.32546 0.49507 47 24 33
-1.88373 -4.33305 0.49112 33 17 20
-1.88939 -4.33336 0.47645 25 19 12
-2.28336 -4.37746 0.30411 30 15 26
-2.27749 -4.37714 0.31930 23 17 18
-2.27303 -4.37918 0.30886 23 17 22
-2.28782 -4.37542 0.31455 18 16 21
-2.31632 -4.34584 0.28971 73 41 45
-2.32374 -4.38391 0.28516 81 66 61
-2.57185 -4.17686 0.17586 49 37 33
-2.55775 -4.18043 0.17044 38 40 37
-2.56759 -4.17880 0.16592 42 39 33
-2.58153 -4.15595 0.17197 76 78 52
-2.71117 -4.39731 0.10472 79 76 76
-2.69595 -4.40117 0.09887 71 68 69
-2.74295 -4.39056 0.09014 94 90 81
-2.73233 -4.39232 0.09503 95 91 76
-2.72774 -4.39441 0.08429 98 93 85
-2.74754 -4.38846 0.10087 90 89 77
-2.76364 -4.37848 0.08088 123 119 109
-2.76965 -4.37881 0.06530 139 131 125
-2.78477 -4.37427 0.07118 139 129 115
-2.79078 -4.37461 0.05561 158 155 134
-2.89265 -4.37622 0.02099 153 138 136
-2.87740 -4.38009 0.01512 157 150 136
-2.90210 -4.36313 0.01698 182 178 163
-2.90812 -4.36347 0.00137 176 164 142
-2.94532 -4.36255 -0.00310 181 176 145
-2.95575 -4.35910 -0.00784 169 157 133
-2.96498 -4.34628 -0.01176 169 154 139
-2.97100 -4.34662 -0.02734 182 177 157
-2.97457 -4.33680 -0.01594 174 163 158
-2.98058 -4.33714 -0.03148 177 173 149
-2.98272 -4.31688 -0.01915 170 159 141
-2.99196 -4.30585 -0.02313 164 152 123
-3.00196 -4.30067 -0.02762 162 154 120
-3.02157 -4.28819 -0.03637 155 141 111
-3.03260 -4.29039 -0.04156 159 145 118
-3.04234 -4.28405 -0.04591 160 151 121
-3.05134 -4.27314 -0.04977 159 152 115
-3.07209 -4.26934 -0.05930 155 144 111
-3.09216 -4.26157 -0.06841 153 144 116
-3.10501 -4.27402 -0.07474 152 137 109
-3.16564 -4.25341 -0.10232 156 151 132
-3.17155 -4.25374 -0.11762 200 200 194
-3.17115 -4.22692 -0.10411 177 169 152
-3.17701 -4.22725 -0.11929 209 209 190
-3.36120 -4.21264 -0.19202 214 207 196
-3.36709 -4.21297 -0.20727 220 217 204
-3.40395 -4.17115 -0.21068 205 205 204
-3.42601 -4.17311 -0.22099 228 215 214
-3.43185 -4.17344 -0.23611 214 209 206
-3.44044 -4.18584 -0.22807 222 214 210
-3.48426 -4.15161 -0.24744 214 209 193
-3.49651 -4.15641 -0.25327 204 197 196
-1.87290 -4.27612 0.48601 98 80 68
-1.86965 -4.33568 0.48556 57 27 43
-2.27965 -4.37065 0.29361 59 56 73
-2.29032 -4.36439 0.28885 154 145 136
-2.30884 -4.38827 0.27944 229 213 162
-2.31881 -4.39206 0.27468 244 230 178
-2.33932 -4.39281 0.26511 129 110 85
-2.34711 -4.43257 0.26018 39 23 26
-2.36220 -4.42874 0.26598 39 30 34
-2.35765 -4.43082 0.25533 36 32 36
-2.35310 -4.43291 0.24468 36 34 26
-2.57736 -4.16657 0.16177 73 72 49
-2.56332 -4.17013 0.15637 42 41 46
-2.57312 -4.16851 0.15186 66 61 62
-2.58293 -4.16688 0.14735 84 83 74
-2.70621 -4.39140 0.09441 80 76 77
-2.69104 -4.39525 0.08858 74 74 74
-2.71679 -4.38926 0.08956 91 85 84
-2.72280 -4.38959 0.07398 103 95 92
-2.78008 -4.37475 0.06058 147 141 125
-2.78609 -4.37508 0.04502 155 143 129
-2.81078 -4.35616 0.04691 163 155 149
-2.82588 -4.35233 0.05271 163 158 152
-2.82132 -4.35441 0.04206 169 160 155
-2.88845 -4.38232 0.00990 156 147 139
-2.87318 -4.38619 0.00403 161 152 143
-2.89451 -4.38266 -0.00578 181 174 146
-2.92922 -4.35879 -0.00830 167 161 143
-2.91861 -4.36054 -0.00342 170 160 136
-2.91402 -4.36264 -0.01414 172 165 139
-2.92463 -4.36088 -0.01902 167 155 145
-2.93999 -4.35845 -0.01330 158 150 139
-2.95838 -4.33217 -0.02099 188 182 159
-2.96437 -4.33250 -0.03649 184 180 155
-2.98554 -4.29385 -0.03237 178 171 149
-2.97060 -4.29764 -0.03812 175 165 135
-2.99425 -4.27965 -0.03596 182 172 145
-3.00541 -4.28339 -0.04127 169 157 132
-3.01132 -4.28372 -0.05658 174 165 152
-3.03132 -4.24318 -0.05201 190 182 162
-3.04278 -4.24897 -0.05753 185 175 154
-3.05239 -4.24282 -0.06180 175 168 153
-3.06410 -4.24982 -0.06748 169 163 151
-3.07468 -4.24959 -0.07240 167 160 144
-3.08634 -4.25570 -0.07802 168 155 135
-3.09222 -4.25603 -0.09326 173 159 138
-3.09915 -4.26821 -0.08440 167 152 130
-3.10859 -4.26096 -0.08855 167 161 143
-3.11449 -4.26129 -0.10384 181 173 154
-3.12147 -4.27317 -0.09495 166 149 140
-3.13360 -4.28073 -0.10084 169 155 138
-3.15031 -4.25487 -0.10777 169 161 142
-3.15914 -4.24505 -0.11156 174 168 157
-3.16503 -4.24538 -0.12680 220 214 213
-3.38217 -4.18844 -0.21349 206 198 188
-3.41278 -4.18222 -0.22753 205 205 205
-3.42387 -4.18332 -0.23273 215 212 209
-3.44602 -4.18516 -0.24309 214 211 207
-3.44155 -4.18720 -0.25353 202 202 200
-3.45188 -4.18549 -0.25828 207 203 197
-3.45528 -4.17983 -0.24723 212 208 200
-3.46114 -4.18016 -0.26240 202 199 190
-3.47076 -4.15924 -0.25375 216 214 197
-3.49546 -4.16947 -0.26559 235 226 213
-3.65968 -4.05292 -0.33817 222 217 212
-3.67402 -4.04928 -0.33266 205 202 209
-3.66537 -4.05324 -0.35291 222 215 219
-3.67286 -4.05962 -0.34453 229 232 226
-3.68725 -4.05597 -0.33900 222 219 214
-3.68384 -4.06040 -0.34967 230 233 222
-3.72174 -4.07507 -0.36779 234 232 227
-3.73624 -4.07139 -0.36221 225 223 220
-3.73186 -4.07339 -0.37244 221 220 218
-3.72749 -4.07539 -0.38267 210 208 211
-1.85336 -4.30478 0.48227 125 110 96
-1.83924 -4.30836 0.47684 125 111 103
-1.84910 -4.30672 0.47230 129 114 99
-1.86961 -4.36299 0.47256 45 22 32
-2.26419 -4.38227 0.28797 17 22 21
-2.24940 -4.38602 0.28228 18 17 9
-2.27493 -4.37570 0.28321 57 64 78
-2.28619 -4.36268 0.27844 158 165 157
-2.29283 -4.40644 0.27374 222 223 194
-2.30393 -4.39583 0.26895 227 219 198
-2.31432 -4.39411 0.26417 228 225 201
-2.32433 -4.39777 0.25937 227 218 188
-2.33536 -4.38696 0.25463 149 130 113
-2.34201 -4.44322 0.24947 52 36 35
-2.34801 -4.44356 0.23393 49 30 17
-2.70106 -4.38053 0.08445 88 82 82
-2.68594 -4.38436 0.07863 85 79 77
-2.70705 -4.38086 0.06893 106 99 88
-2.71161 -4.37873 0.07960 98 91 91
-2.71760 -4.37907 0.06408 108 98 93
-2.75402 -4.37499 0.05997 119 116 110
-2.76435 -4.36959 0.05535 138 127 118
-2.77487 -4.36727 0.05054 149 135 124
-2.98050 -4.29194 -0.04252 179 171 153
-2.98642 -4.29227 -0.05784 203 197 180
-2.98890 -4.27543 -0.04583 196 189 163
-2.99990 -4.27820 -0.05106 186 178 156
-3.01776 -4.25494 -0.05852 184 177 169
-3.02362 -4.25527 -0.07370 200 193 179
-3.02572 -4.23754 -0.06160 196 187 171
-3.03155 -4.23787 -0.07670 208 202 184
-3.03650 -4.23917 -0.06668 193 186 169
-3.04234 -4.23949 -0.08180 200 190 175
-3.04535 -4.22837 -0.07041 184 181 172
-3.05117 -4.22869 -0.08548 195 181 165
-3.05635 -4.23137 -0.07564 186 177 166
-3.06711 -4.23265 -0.08070 185 176 160
-3.07294 -4.23297 -0.09581 178 163 145
-3.12305 -4.24944 -0.10739 185 181 167
-3.11858 -4.25149 -0.11786 199 194 174
-3.12893 -4.24977 -0.12262 195 186 167
-3.14361 -4.24514 -0.11681 194 192 171
-3.14949 -4.24547 -0.13204 206 204 194
-3.15777 -4.26337 -0.12408 198 197 185
-3.16368 -4.26370 -0.13941 221 219 208
-3.35017 -4.20872 -0.21174 200 202 196
-3.35696 -4.19329 -0.21433 201 201 200
-3.38626 -4.18224 -0.22758 199 191 184
-3.39210 -4.18257 -0.24270 215 214 192
-3.42987 -4.18414 -0.24797 194 196 201
-3.46799 -4.16682 -0.26510 209 206 193
-3.45327 -4.17055 -0.27076 189 189 177
-3.47912 -4.16796 -0.27033 220 217 202
-3.61321 -4.05578 -0.32870 222 218 219
-3.61889 -4.05610 -0.34340 223 220 221
-3.65630 -4.05744 -0.34883 220 214 218
-3.64194 -4.06108 -0.35436 221 211 219
-3.71811 -4.07896 -0.37843 234 228 227
-3.72386 -4.07929 -0.39333 216 209 207
-1.85300 -4.33237 0.46944 125 108 95
-1.83876 -4.33598 0.46396 127 108 93
-1.86560 -4.36343 0.46230 51 30 31
-1.87302 -4.37429 0.45840 33 21 29
-1.87875 -4.37461 0.44356 26 22 18
-2.26037 -4.37719 0.27752 19 21 17
-2.24561 -4.38093 0.27185 20 15 12
-2.25592 -4.37923 0.26711 28 22 14
-2.27055 -4.37689 0.27278 32 34 42
-2.28152 -4.36735 0.26805 103 102 105
-2.29222 -4.36054 0.26333 178 167 153
-2.30202 -4.36481 0.25859 190 173 151
-2.31180 -4.36997 0.25382 191 176 147
-2.32143 -4.37761 0.24901 202 183 141
-2.33087 -4.38901 0.24414 154 136 100
-2.69615 -4.37449 0.07427 97 93 81
-2.69160 -4.37657 0.06363 99 95 80
-2.70213 -4.37483 0.05879 103 103 86
-2.73838 -4.36974 0.05476 109 112 100
-2.72330 -4.37356 0.04895 110 105 99
-2.74854 -4.36159 0.05035 123 122 108
-2.76956 -4.35798 0.04068 161 152 132
-2.77553 -4.35831 0.02522 168 158 148
-2.77952 -4.34818 0.03644 160 144 130
-2.78548 -4.34852 0.02101 162 151 131
-2.79985 -4.33619 0.02743 161 150 123
-2.79533 -4.33826 0.01686 173 160 130
-2.80579 -4.33652 0.01205 175 159 147
-2.80933 -4.32202 0.02359 161 150 134
-2.81525 -4.32235 0.00826 170 154 137
-2.86704 -4.37217 -0.00538 165 166 145
-2.87306 -4.37251 -0.02098 173 162 152
-2.94779 -4.32419 -0.04111 190 182 167
-2.95718 -4.31360 -0.04507 189 180 159
-2.96313 -4.31393 -0.06047 183 175 162
-2.97587 -4.29300 -0.05295 186 175 159
-2.99463 -4.27464 -0.06096 195 186 173
-2.99015 -4.27669 -0.07144 193 187 182
-3.00052 -4.27497 -0.07621 190 182 166
-3.31747 -4.22743 -0.20970 211 203 194
-3.32337 -4.22776 -0.22497 197 190 186
-3.32535 -4.21558 -0.21289 198 193 180
-3.33123 -4.21591 -0.22812 198 189 187
-3.42169 -4.17302 -0.25612 202 199 190
-3.40699 -4.17675 -0.26178 204 198 180
-3.46260 -4.16567 -0.27492 199 201 195
-3.44790 -4.16940 -0.28057 193 190 176
-3.45817 -4.16770 -0.28529 194 188 186
-3.47551 -4.17277 -0.28123 204 207 204
-3.48877 -4.18081 -0.28774 218 215 206
-3.49463 -4.18114 -0.30293 227 225 216
-3.58858 -4.03025 -0.32820 209 201 191
-3.57440 -4.03384 -0.33365 228 227 224
-3.58430 -4.03220 -0.33821 228 228 217
-3.59420 -4.03056 -0.34276 227 226 218
-3.60464 -4.04585 -0.33633 204 195 194
-3.61029 -4.04617 -0.35098 233 236 235
-3.64868 -4.05058 -0.35708 234 234 230
-3.64436 -4.05256 -0.36718 242 247 228
-3.65436 -4.05090 -0.37178 233 225 225
-3.71482 -4.08376 -0.38929 230 218 224
-3.72058 -4.08409 -0.40420 231 232 230
-1.84807 -4.33722 0.45956 124 105 90
-1.83382 -4.34083 0.45407 124 106 92
-1.84377 -4.33918 0.44950 121 103 87
-1.86398 -4.35266 0.45144 59 40 40
-1.87187 -4.36108 0.44738 38 28 28
-2.26556 -4.38500 0.26234 22 23 19
-2.25076 -4.38875 0.25665 26 26 15
-2.26109 -4.38704 0.25190 25 30 15
-2.27689 -4.37160 0.25764 62 69 46
-2.28725 -4.36904 0.25292 136 135 81
-2.29711 -4.37273 0.24814 157 142 98
-2.30665 -4.38102 0.24332 156 132 108
-2.31678 -4.38215 0.23853 156 129 102
-2.32654 -4.38888 0.23368 126 99 65
-2.33451 -4.42296 0.22843 63 45 28
-2.34445 -4.42980 0.22348 40 30 33
-2.35951 -4.42598 0.22928 44 40 24
-2.35420 -4.44065 0.21845 36 33 21
-2.36932 -4.43682 0.22426 41 39 26
-2.36377 -4.45605 0.21329 37 32 9
-2.37896 -4.45220 0.21913 42 37 34
-2.39334 -4.49758 0.19762 46 23 14
-2.40875 -4.49367 0.20355 44 39 33
-2.40302 -4.51978 0.19211 48 27 19
-2.41854 -4.51585 0.19808 40 40 28
-2.41467 -4.49848 0.18762 43 32 19
-2.43010 -4.49457 0.19355 35 39 30
-2.43732 -4.46385 0.17858 44 41 34
-2.45260 -4.45997 0.18445 38 39 46
-2.47055 -4.41165 0.16537 47 40 35
-2.48107 -4.40991 0.16053 55 56 47
-2.74380 -4.36027 0.03996 137 132 112
-2.76439 -4.35025 0.03079 169 156 147
-2.93274 -4.32788 -0.04689 174 166 149
-2.91770 -4.33169 -0.05267 161 161 145
-2.95174 -4.30826 -0.05489 180 173 157
-2.94723 -4.31032 -0.06545 174 166 160
-2.95767 -4.30859 -0.07026 178 172 162
-3.33563 -4.19069 -0.22905 186 182 184
-3.42512 -4.16491 -0.26973 186 177 173
-3.48344 -4.18000 -0.29765 211 202 200
-3.48930 -4.18032 -0.31283 207 201 194
-3.55366 -4.09681 -0.32676 221 216 207
-3.53921 -4.10048 -0.33232 222 223 212
-1.85253 -4.34302 0.44521 116 100 75
-1.83825 -4.34664 0.43972 124 104 88
-1.86351 -4.38204 0.43819 46 30 31
-1.86972 -4.39896 0.43446 32 30 20
-1.88427 -4.39527 0.44006 21 24 9
-1.87988 -4.39728 0.42979 27 24 12
-1.87549 -4.39928 0.41952 39 26 20
-2.28286 -4.37043 0.24252 39 27 20
-2.29313 -4.36892 0.23779 30 21 24
-2.30342 -4.36724 0.23306 24 13 29
-2.31285 -4.37695 0.22817 26 17 36
-2.32116 -4.40349 0.22300 28 25 40
-2.33032 -4.42012 0.21791 37 38 42
-2.34004 -4.42993 0.21289 48 51 44
-2.34965 -4.44253 0.20778 52 52 42
-2.35907 -4.46018 0.20253 61 66 48
-2.36509 -4.46052 0.18691 148 133 108
-2.36914 -4.46820 0.19743 70 73 42
-2.37518 -4.46854 0.18177 145 132 112
-2.37947 -4.47230 0.19239 72 70 50
-2.38553 -4.47264 0.17671 132 122 97
-2.38965 -4.48031 0.18724 76 73 52
-2.44538 -4.40463 0.16482 117 109 82
-2.47879 -4.31820 0.15336 117 116 81
-2.48934 -4.30127 0.14925 120 110 77
-2.50004 -4.27008 0.14575 119 113 75
-2.50977 -4.29211 0.14013 119 110 84
-2.68499 -4.32715 0.05644 98 97 83
-2.69535 -4.32543 0.05168 103 103 86
-2.69087 -4.32748 0.04121 107 101 91
-2.71754 -4.35154 0.04003 115 106 100
-2.71161 -4.35120 0.05541 106 103 93
-2.70709 -4.35327 0.04484 108 103 88
-2.72789 -4.34776 0.03537 127 120 109
-2.73853 -4.34932 0.03032 143 133 113
-2.74892 -4.34642 0.02560 162 146 130
-2.75486 -4.34675 0.01022 172 166 149
-2.93571 -4.30306 -0.05971 181 173 150
-2.92079 -4.30684 -0.06545 178 173 161
-2.93121 -4.30512 -0.07024 184 180 164
-2.94163 -4.30339 -0.07503 174 164 162
-3.06800 -4.19711 -0.11649 198 188 173
-3.08253 -4.19343 -0.11090 192 181 167
-3.08008 -4.20688 -0.12262 193 182 166
-3.09467 -4.20318 -0.11701 199 194 177
-3.09027 -4.20519 -0.12731 184 176 169
-3.08587 -4.20720 -0.13760 197 192 182
-3.31410 -4.16697 -0.23020 205 199 188
-3.29952 -4.17067 -0.23581 212 209 199
-3.30970 -4.16898 -0.24049 213 211 202
-3.31989 -4.16730 -0.24518 207 203 193
-3.32681 -4.17532 -0.23655 203 200 189
-3.33261 -4.17565 -0.25158 204 193 186
-3.55285 -4.07768 -0.33760 212 212 177
-1.93560 -4.44662 0.38889 77 67 45
-1.94653 -4.44170 0.38402 44 29 15
-1.96133 -4.43795 0.38971 40 32 35
-1.95686 -4.43999 0.37927 40 33 28
-1.95240 -4.44203 0.36883 40 35 32
-2.27842 -4.37239 0.23213 35 28 22
-2.28805 -4.37870 0.22728 51 42 23
-2.30707 -4.39636 0.21745 101 96 56
-2.31689 -4.40231 0.21254 113 109 68
-2.32563 -4.42444 0.20729 126 123 82
-2.33509 -4.43805 0.20214 140 126 97
-2.34107 -4.43839 0.18666 131 129 117
-2.34462 -4.45205 0.19695 141 127 99
-2.35063 -4.45239 0.18139 139 130 113
-2.44169 -4.38280 0.15508 135 122 108
-2.42679 -4.38658 0.14935 151 144 125
-2.45325 -4.34480 0.15164 138 126 99
-2.66901 -4.29886 0.05294 90 88 77
-2.65432 -4.30259 0.04729 82 81 69
-2.70147 -4.33100 0.03606 114 105 96
-2.72244 -4.33173 0.02619 130 128 116
-2.72834 -4.33206 0.01091 154 138 118
-2.73334 -4.33923 0.02069 146 141 130
-2.74414 -4.34393 0.01539 165 158 149
-2.76445 -4.33154 0.00652 164 150 130
-2.75994 -4.33360 -0.00401 168 160 137
-2.77936 -4.32776 0.01226 152 142 125
-2.77486 -4.32981 0.00173 153 136 123
-2.78434 -4.31500 -0.00194 160 145 138
-2.77986 -4.31705 -0.01242 159 149 135
-2.79919 -4.31123 0.00377 171 158 143
-2.79426 -4.30726 -0.00619 171 163 144
-2.80909 -4.30350 -0.00048 173 162 128
-2.80462 -4.30554 -0.01095 180 174 139
-2.81512 -4.30572 -0.01588 175 160 146
-2.82548 -4.30401 -0.02064 170 143 139
-2.85691 -4.30260 -0.03530 172 167 159
-2.84654 -4.30432 -0.03053 151 139 145
-2.86139 -4.30055 -0.02481 168 154 147
-2.87176 -4.29883 -0.02958 174 165 140
-2.86728 -4.30088 -0.04007 176 164 144
-2.86280 -4.30293 -0.05055 177 170 149
-3.06164 -4.18714 -0.12520 206 201 189
-3.06738 -4.18746 -0.14007 215 208 193
-3.07291 -4.19236 -0.13076 207 200 184
-3.07866 -4.19268 -0.14566 209 203 189
-3.62369 -4.02368 -0.38003 249 250 250
-3.62930 -4.02400 -0.39457 251 251 251
-3.64826 -4.03326 -0.39205 237 235 230
-3.65819 -4.03162 -0.39662 238 234 237
-1.83850 -4.37152 0.42622 131 112 94
-1.84885 -4.36846 0.42153 121 102 84
-1.86074 -4.35821 0.41653 72 60 52
-1.86331 -4.39175 0.41344 51 33 46
-1.86906 -4.39207 0.39855 54 38 39
-1.86299 -4.53842 0.40538 87 82 45
-1.91436 -4.38120 0.39008 183 173 138
-1.92011 -4.38152 0.37520 225 211 200
-1.94124 -4.44825 0.37372 62 45 30
-1.92642 -4.45201 0.36802 207 189 156
-1.94711 -4.44858 0.35850 45 34 26
-2.25192 -4.39377 0.23099 46 41 28
-2.24605 -4.39344 0.24619 31 28 22
-2.24158 -4.39548 0.23575 43 32 32
-2.27073 -4.41192 0.22115 102 90 62
-2.27926 -4.43269 0.21598 117 107 75
-2.28936 -4.43561 0.21108 131 128 100
-2.30861 -4.45546 0.20093 150 136 107
-2.31461 -4.45580 0.18540 154 140 125
-2.31821 -4.46735 0.19577 151 139 115
-2.32423 -4.46769 0.18017 150 135 118
-2.32839 -4.47190 0.19073 142 130 118
-2.33442 -4.47224 0.17510 151 138 122
-2.43770 -4.37101 0.14510 156 141 126
-2.42286 -4.37477 0.13939 149 132 123
-2.43322 -4.37305 0.13462 159 150 126
-2.44911 -4.33778 0.14161 147 132 109
-2.48055 -4.30483 0.12870 148 144 131
-2.48633 -4.30516 0.11373 116 111 102
-2.67438 -4.28676 0.03877 101 97 87
-2.69628 -4.31700 0.02679 122 113 108
-2.70710 -4.32563 0.02124 131 123 114
-2.73922 -4.33882 0.00543 160 136 126
-2.72429 -4.34260 -0.00031 157 136 110
-2.73471 -4.34088 -0.00511 160 133 116
-2.74974 -4.33881 0.00049 164 152 140
-2.75566 -4.33914 -0.01484 157 161 140
-2.79945 -4.29855 -0.02058 169 164 149
-2.80532 -4.29888 -0.03576 191 185 148
-2.92434 -4.28672 -0.07851 174 172 164
-2.93469 -4.28501 -0.08328 173 166 157
-3.05621 -4.18263 -0.13456 207 199 191
-3.04177 -4.18630 -0.14012 205 196 190
-3.05185 -4.18462 -0.14476 214 205 198
-3.06194 -4.18295 -0.14940 210 204 193
-3.57575 -4.02041 -0.36924 202 194 190
-3.57016 -4.02010 -0.35477 233 232 233
-3.56591 -4.02204 -0.36472 217 210 210
-3.56165 -4.02399 -0.37467 195 182 194
-3.58985 -4.01684 -0.36382 232 238 235
-3.58560 -4.01878 -0.37377 230 233 233
-1.85400 -4.37138 0.40687 98 88 74
-1.86015 -4.38806 0.40298 64 38 49
-1.88392 -4.41523 0.39019 129 129 111
-1.89726 -4.39791 0.38496 219 219 185
-1.94495 -4.40619 0.36205 87 70 65
-1.93033 -4.40990 0.35643 199 171 129
-2.17321 -4.42407 0.25373 60 43 41
-2.18809 -4.42030 0.25946 44 43 36
-2.18664 -4.39537 0.24914 55 39 26
-2.20139 -4.39163 0.25482 42 38 23
-2.19700 -4.39317 0.24441 51 32 12
-2.21175 -4.38943 0.25008 37 33 20
-2.20697 -4.39452 0.23964 43 29 17
-2.22174 -4.39077 0.24532 33 30 24
-2.22720 -4.39508 0.23010 49 38 47
-2.25474 -4.42769 0.21521 130 118 94
-2.26067 -4.42802 0.19985 139 132 111
-2.28539 -4.43078 0.20063 134 121 114
-2.29133 -4.43111 0.18523 155 143 127
-2.29536 -4.43536 0.19567 139 120 123
-2.30132 -4.43569 0.18024 153 138 124
-2.30476 -4.44803 0.19049 152 134 129
-2.31075 -4.44836 0.17500 150 130 124
-2.44459 -4.34220 0.13113 156 141 121
-2.42988 -4.34593 0.12547 156 143 131
-2.44015 -4.34423 0.12075 153 145 127
-2.45042 -4.34253 0.11603 150 139 117
-2.45572 -4.31315 0.12764 151 138 105
-2.46150 -4.31348 0.11266 151 143 116
-2.55752 -4.22873 0.08486 139 139 116
-2.65842 -4.24980 0.03619 91 90 85
-2.64397 -4.25346 0.03064 85 83 78
-2.66893 -4.25986 0.03066 103 102 97
-2.67977 -4.27653 0.02456 116 109 104
-2.69075 -4.29366 0.01838 131 119 109
-2.70192 -4.31222 0.01202 139 126 111
-2.78527 -4.31071 -0.02705 151 146 134
-2.77045 -4.31447 -0.03276 166 159 129
-2.79485 -4.29876 -0.03084 177 174 149
-2.86416 -4.25702 -0.06090 182 171 153
-2.84952 -4.26073 -0.06653 172 164 148
-2.86996 -4.25734 -0.07593 186 178 171
-2.89822 -4.28350 -0.07849 174 154 146
-2.90857 -4.28200 -0.08327 174 158 154
-2.91443 -4.28232 -0.09845 171 163 156
-3.48681 -4.04941 -0.34103 204 202 194
-3.48120 -4.04909 -0.32649 224 218 200
-3.47693 -4.05104 -0.33648 235 230 212
-3.49109 -4.04745 -0.33103 211 198 187
-3.49670 -4.04777 -0.34557 199 198 200
-3.49243 -4.04972 -0.35557 209 204 192
-3.51788 -4.04878 -0.35558 225 224 224
-3.56880 -4.01463 -0.37747 208 207 207
-3.57697 -4.00831 -0.38092 225 221 221
-3.59025 -4.01646 -0.38765 230 225 221
-3.59951 -4.01324 -0.39181 229 233 229
-3.62403 -4.02324 -0.40393 252 252 245
-1.85929 -4.37365 0.39216 74 60 50
-1.86342 -4.40011 0.38853 55 36 49
-1.86918 -4.40043 0.37362 44 39 38
-1.93423 -4.44197 0.35255 127 102 55
-1.92977 -4.44401 0.34212 106 74 22
-1.94009 -4.44230 0.33738 55 37 16
-2.12057 -4.48407 0.26220 75 62 56
-2.10547 -4.48790 0.25639 125 115 81
-2.11601 -4.48616 0.25153 128 111 90
-2.12656 -4.48441 0.24668 138 117 94
-2.13647 -4.43987 0.25753 79 68 58
-2.14239 -4.44021 0.24221 148 128 98
-2.19079 -4.41104 0.23381 93 76 42
-2.20188 -4.40245 0.22914 82 73 45
-2.21016 -4.42030 0.22411 82 74 48
-2.22101 -4.41410 0.21940 87 79 52
-2.23029 -4.42354 0.21443 107 99 77
-2.26931 -4.44715 0.19457 139 129 122
-2.26477 -4.44923 0.18395 164 144 123
-2.27528 -4.44749 0.17911 162 141 125
-2.47212 -4.29536 0.10882 139 128 108
-2.45761 -4.29904 0.10324 164 146 122
-2.48280 -4.26982 0.10542 128 115 104
-2.49303 -4.25983 0.10125 130 115 108
-2.49872 -4.26015 0.08650 153 135 121
-2.50306 -4.25763 0.09667 133 125 114
-2.51324 -4.24543 0.09266 136 129 117
-2.52755 -4.24180 0.09816 132 123 104
-2.54326 -4.22980 0.07953 137 140 123
-2.55323 -4.21859 0.07555 143 137 112
-2.56317 -4.22499 0.07047 112 99 95
-2.65337 -4.22956 0.02774 92 92 88
-2.63902 -4.23320 0.02222 87 82 63
-2.66438 -4.25705 0.02081 108 106 104
-2.67518 -4.27366 0.01467 129 119 113
-2.68628 -4.29459 0.00811 146 135 122
-2.69209 -4.29491 -0.00695 163 152 135
-2.69702 -4.30426 0.00244 156 149 134
-2.70286 -4.30458 -0.01267 164 150 135
-2.70776 -4.31238 -0.00313 157 146 131
-2.71886 -4.32628 -0.00924 159 147 124
-2.72475 -4.32661 -0.02447 171 167 142
-2.78116 -4.31793 -0.03802 157 157 139
-2.76631 -4.32169 -0.04373 167 156 138
-2.77668 -4.31997 -0.04849 163 159 144
-2.90387 -4.28192 -0.09346 186 178 168
-3.47754 -4.06866 -0.34977 232 226 212
-3.47189 -4.06835 -0.33515 240 236 222
-3.46760 -4.07031 -0.34520 239 244 226
-3.58185 -4.00669 -0.39489 221 210 214
-3.58741 -4.00700 -0.40930 233 235 233
-3.62430 -3.98104 -0.41323 218 210 216
-3.62983 -3.98135 -0.42755 225 221 220
-1.86125 -4.39165 0.37794 61 39 43
-1.86699 -4.39197 0.36307 51 41 32
-1.87983 -4.39628 0.36888 45 45 34
-1.87545 -4.39829 0.35863 32 36 14
-1.89146 -4.43613 0.36071 158 150 94
-1.90129 -4.43662 0.35604 160 137 90
-1.91601 -4.43289 0.36170 195 167 147
-1.91157 -4.43492 0.35131 158 129 80
-1.91710 -4.45807 0.34714 157 127 68
-1.92298 -4.45840 0.33192 54 29 24
-1.95721 -4.51570 0.32435 53 45 34
-1.97233 -4.51187 0.33017 51 41 28
-1.96595 -4.52448 0.31965 57 46 30
-1.98111 -4.52063 0.32548 50 35 38
-1.97654 -4.52272 0.31477 58 43 34
-2.09964 -4.45508 0.26135 123 101 78
-2.08920 -4.45681 0.26615 118 103 67
-2.08469 -4.45887 0.25560 139 128 93
-2.18804 -4.39769 0.22358 146 131 98
-2.19389 -4.39801 0.20842 151 137 115
-2.20727 -4.40724 0.21387 136 124 86
-2.21315 -4.40757 0.19866 150 131 107
-2.21689 -4.41263 0.20898 134 121 90
-2.22615 -4.42203 0.20398 135 123 101
-2.23205 -4.42236 0.18868 143 137 117
-2.24560 -4.43297 0.19408 153 135 114
-2.25153 -4.43330 0.17871 157 140 129
-2.47927 -4.23875 0.09711 158 142 123
-2.48492 -4.23906 0.08248 170 157 140
-2.50909 -4.23576 0.08326 151 137 125
-2.50479 -4.23772 0.07320 168 146 144
-2.51475 -4.23607 0.06862 161 144 124
-2.51907 -4.23238 0.07879 143 127 113
-2.54893 -4.22386 0.06530 156 140 114
-2.55888 -4.23177 0.06008 128 111 86
-2.56886 -4.23311 0.05528 105 92 89
-2.58315 -4.22949 0.06078 98 89 89
-2.57884 -4.23146 0.05069 97 91 87
-2.57452 -4.23343 0.04061 97 91 90
-2.64889 -4.22647 0.01803 98 97 77
-2.66016 -4.26333 0.01023 119 118 107
-2.67089 -4.27857 0.00414 141 133 118
-2.68169 -4.29266 -0.00190 155 145 126
-2.68750 -4.29298 -0.01694 152 145 134
-2.78406 -4.27680 -0.04906 167 156 154
-2.76941 -4.28052 -0.05469 164 152 137
-2.77964 -4.27882 -0.05940 158 143 146
-2.78988 -4.27713 -0.06410 162 148 139
-2.82074 -4.22007 -0.06250 163 152 142
-2.81503 -4.21975 -0.04769 172 163 146
-2.81067 -4.22174 -0.05787 166 153 133
-2.82510 -4.21808 -0.05232 172 157 147
-2.81639 -4.22206 -0.07268 147 139 141
-2.83517 -4.21641 -0.05696 169 162 149
-2.83148 -4.22593 -0.06796 171 162 143
-2.84158 -4.22426 -0.07260 174 169 148
-1.83830 -4.38950 0.37678 127 120 94
-1.82821 -4.39118 0.38142 130 114 103
-1.82385 -4.39317 0.37123 141 132 109
-1.83394 -4.39150 0.36659 140 135 120
-1.85107 -4.37542 0.37176 121 111 76
-1.85678 -4.37574 0.35698 86 72 34
-1.95444 -4.50764 0.31356 74 65 55
-1.95840 -4.54361 0.30912 89 80 76
-2.22270 -4.41374 0.19371 145 136 112
-2.20785 -4.41750 0.18800 148 134 115
-2.21822 -4.41579 0.18323 147 138 118
-2.22858 -4.41407 0.17846 146 125 105
-2.40187 -4.32421 0.11558 153 140 132
-2.39609 -4.32388 0.13055 143 132 131
-2.39169 -4.32589 0.12026 151 144 132
-2.40626 -4.32220 0.12587 139 125 133
-2.41644 -4.32051 0.12119 149 143 127
-2.42201 -4.32594 0.10595 161 149 127
-2.43661 -4.32224 0.11157 146 141 121
-2.43220 -4.32425 0.10127 161 146 126
-2.52454 -4.25054 0.06297 137 125 105
-2.51021 -4.25418 0.05746 161 146 124
-2.53022 -4.25086 0.04825 137 128 113
-2.53463 -4.23740 0.05915 144 125 121
-2.54029 -4.23772 0.04448 143 128 123
-2.55457 -4.22753 0.05044 146 124 112
-2.56453 -4.23060 0.04552 113 94 94
-2.57019 -4.23092 0.03087 98 93 90
-2.63441 -4.22410 0.01302 92 86 67
-2.62875 -4.22378 0.02770 87 81 70
-2.62443 -4.22575 0.01761 88 83 74
-2.62012 -4.22772 0.00752 88 84 83
-2.64460 -4.22975 0.00781 107 103 81
-2.65594 -4.27046 -0.00044 123 118 109
-2.66649 -4.28035 -0.00612 143 136 124
-2.67227 -4.28067 -0.02109 156 152 142
-2.67703 -4.28821 -0.01166 151 144 128
-2.68282 -4.28854 -0.02667 156 145 142
-2.80738 -4.23687 -0.06949 157 155 141
-2.82668 -4.22288 -0.07759 167 154 142
-2.83240 -4.22320 -0.09242 173 177 162
-3.50297 -4.04822 -0.38417 210 204 196
-3.48882 -4.05181 -0.38961 209 203 199
-3.49870 -4.05017 -0.39415 210 207 195
-3.51944 -4.03497 -0.39099 228 229 218
-3.52503 -4.03529 -0.40547 230 219 213
-1.84597 -4.38092 0.36170 128 122 85
-1.84162 -4.38290 0.35153 126 116 106
-1.87086 -4.40128 0.34841 50 43 28
-1.86072 -4.40296 0.35307 61 46 38
-1.90781 -4.46394 0.32625 81 72 70
-1.91369 -4.46427 0.31101 135 117 108
-1.98593 -4.47818 0.28827 144 134 95
-1.99186 -4.47852 0.27291 146 132 116
-1.99745 -4.47000 0.28344 147 130 103
-2.00337 -4.47033 0.26811 145 127 104
-2.00716 -4.47268 0.27866 153 130 104
-2.01309 -4.47301 0.26330 149 127 100
-2.18845 -4.40891 0.19781 143 128 107
-2.17812 -4.41063 0.20256 149 129 113
-2.18399 -4.41095 0.18737 139 117 90
-2.19862 -4.40870 0.19302 144 130 108
-2.40763 -4.32479 0.10060 166 155 148
-2.41341 -4.32512 0.08563 169 156 144
-2.42867 -4.30450 0.09219 170 153 133
-2.44317 -4.30082 0.09777 158 145 126
-2.43879 -4.30282 0.08753 164 147 134
-2.52036 -4.24012 0.05372 145 134 102
-2.50608 -4.24374 0.04823 156 139 122
-2.55028 -4.22591 0.04065 143 124 123
-2.56023 -4.23346 0.03538 114 98 96
-2.56589 -4.23377 0.02073 102 95 92
-2.63013 -4.22709 0.00284 97 92 80
-2.61583 -4.23072 -0.00266 90 84 88
-2.64086 -4.25340 -0.00421 122 119 92
-2.65138 -4.26660 -0.01017 133 128 115
-2.66154 -4.26599 -0.01492 144 140 134
-2.66729 -4.26631 -0.02981 166 154 144
-2.76312 -4.25423 -0.06202 173 158 134
-2.77327 -4.25255 -0.06669 161 154 144
-2.80261 -4.23379 -0.07914 171 162 149
-2.78815 -4.23745 -0.08470 177 167 148
-2.79824 -4.23578 -0.08934 182 165 153
-2.81199 -4.22338 -0.08279 160 150 147
-2.81770 -4.22370 -0.09759 177 179 173
-2.82227 -4.22425 -0.08771 169 167 157
-2.82799 -4.22457 -0.10253 178 172 159
-3.31630 -4.06187 -0.30887 202 195 180
-3.30224 -4.06544 -0.31428 200 194 183
-3.31206 -4.06381 -0.31879 203 192 181
-3.32188 -4.06218 -0.32331 205 194 183
-1.85879 -4.39343 0.34258 88 82 66
-1.84432 -4.39710 0.33701 140 121 122
-1.85443 -4.39542 0.33237 130 111 92
-1.86453 -4.39375 0.32772 127 114 91
-1.87198 -4.42407 0.33392 74 68 36
-2.15984 -4.36000 0.20282 157 139 117
-2.16999 -4.35832 0.19815 156 148 115
-2.17566 -4.39536 0.19254 148 139 103
-2.17122 -4.39739 0.18215 145 130 112
-2.19585 -4.39529 0.18300 144 119 100
-2.20169 -4.39562 0.16787 148 142 118
-2.20622 -4.39285 0.17828 152 133 115
-2.21650 -4.39114 0.17355 152 132 118
-2.21206 -4.39317 0.16316 148 134 117
-2.29146 -4.47038 0.13183 164 151 149
-2.28545 -4.47004 0.14739 188 173 135
-2.28088 -4.47213 0.13670 163 159 148
-2.27631 -4.47422 0.12601 153 139 129
-2.30204 -4.46863 0.12697 175 163 151
-2.29746 -4.47071 0.11628 170 157 146
-2.43485 -4.29337 0.07800 169 160 144
-2.42041 -4.29703 0.07244 178 171 153
-2.43049 -4.29536 0.06780 170 158 152
-2.44930 -4.28970 0.08355 174 157 139
-2.44058 -4.29369 0.06316 164 150 126
-2.51605 -4.24231 0.04363 161 152 127
-2.51174 -4.24428 0.03355 168 154 142
-2.52171 -4.24263 0.02897 163 145 139
-2.52610 -4.23211 0.03968 151 144 127
-2.53609 -4.22288 0.03568 147 141 125
-2.54599 -4.22543 0.03080 143 130 120
-2.55592 -4.22569 0.02608 115 103 97
-2.56156 -4.22601 0.01147 104 92 97
-2.62610 -4.24182 -0.00839 104 98 97
-2.63663 -4.25999 -0.01481 139 136 117
-2.64236 -4.26031 -0.02965 159 158 134
-2.64694 -4.26599 -0.02016 155 149 130
-2.65268 -4.26631 -0.03503 163 158 139
-2.65715 -4.26739 -0.02510 156 147 138
-2.66290 -4.26771 -0.03999 169 158 143
-2.17952 -4.41298 0.17693 142 125 112
-2.16473 -4.41673 0.17124 154 134 114
-2.28821 -4.45594 0.12188 155 138 141
-2.35949 -4.31335 0.09994 162 154 129
-2.35375 -4.31303 0.11481 167 150 135
-2.34938 -4.31503 0.10459 163 158 142
-2.34501 -4.31703 0.09437 171 158 142
-2.37930 -4.31727 0.09023 155 145 139
-2.38943 -4.31559 0.08557 160 152 140
-2.45184 -4.25689 0.06088 171 160 134
-2.43755 -4.26052 0.05538 161 152 139
-2.45615 -4.25492 0.07096 166 148 131
-2.44753 -4.25886 0.05079 174 168 152
-2.46613 -4.25327 0.06637 160 149 131
-2.46218 -4.24296 0.05713 166 149 130
-2.47642 -4.23935 0.06261 150 140 134
-2.47212 -4.24131 0.05256 150 139 127
-2.50147 -4.26343 0.03683 162 144 131
-2.49144 -4.26509 0.04144 161 157 136
-2.50716 -4.26375 0.02209 171 158 139
-2.53183 -4.22142 0.02593 161 150 137
-2.51764 -4.22502 0.02047 170 147 141
-2.52755 -4.22338 0.01592 173 159 140
-2.54176 -4.21519 0.02174 150 142 127
-2.55164 -4.21915 0.01673 119 105 103
-2.61187 -4.25292 -0.01459 98 90 94
-2.62195 -4.25268 -0.01935 118 116 120
-2.62766 -4.25300 -0.03413 151 141 128
-2.63224 -4.26097 -0.02491 148 147 133
-3.12133 -4.09715 -0.24299 202 196 198
-3.13539 -4.09359 -0.23758 217 214 204
-3.13115 -4.09552 -0.24751 217 209 198
-3.12690 -4.09746 -0.25744 215 206 195
-3.33772 -3.98702 -0.33636 214 205 171
-3.32814 -3.98861 -0.33195 216 205 178
-3.32400 -3.99050 -0.34164 213 207 190
-3.34186 -3.98513 -0.32668 202 195 178
-3.33358 -3.98892 -0.34605 221 216 185
-3.34731 -3.98544 -0.34077 210 210 181
-3.51223 -3.99493 -0.41968 238 235 235
-3.51774 -3.99523 -0.43395 247 247 236
-2.17487 -4.41669 0.16643 163 141 122
-2.16006 -4.42045 0.16074 145 129 109
-2.18074 -4.41702 0.15123 156 141 134
-2.27428 -4.44622 0.11672 167 152 134
-2.26833 -4.44588 0.13214 150 134 116
-2.25927 -4.45003 0.11094 161 152 132
-2.26975 -4.44829 0.10612 172 159 141
-2.28024 -4.44655 0.10130 176 160 149
-2.28547 -4.43586 0.11231 168 144 138
-2.29141 -4.43620 0.09693 175 160 146
-2.35558 -4.30798 0.09014 178 166 150
-2.35122 -4.30997 0.07995 184 171 159
-2.36520 -4.31418 0.08505 158 147 126
-2.37501 -4.31784 0.08008 150 141 111
-2.38564 -4.30669 0.07600 160 158 140
-2.40010 -4.30303 0.08156 170 159 136
-2.39574 -4.30502 0.07136 169 158 146
-2.39137 -4.30701 0.06115 163 140 134
-2.46663 -4.28554 0.03942 172 155 129
-2.48106 -4.28188 0.04497 156 155 142
-2.47671 -4.28387 0.03479 161 153 137
-2.48667 -4.28703 0.02979 153 144 123
-2.49689 -4.27867 0.02567 168 161 140
-2.50260 -4.27899 0.01086 177 168 144
-2.53750 -4.21503 0.01192 168 153 134
-2.52334 -4.21862 0.00648 169 164 141
-2.53322 -4.21698 0.00193 165 151 134
-2.54736 -4.22081 0.00674 144 129 109
-2.55727 -4.23806 0.00055 119 106 82
-2.57155 -4.23444 0.00604 102 92 91
-2.56724 -4.23441 -0.00386 122 114 89
-2.58150 -4.23079 0.00162 101 94 86
-2.57727 -4.24287 -0.00935 126 115 95
-2.58730 -4.24512 -0.01431 124 114 97
-2.60749 -4.25241 -0.02451 125 116 100
-2.61758 -4.25352 -0.02940 138 133 122
-2.63772 -4.25157 -0.03878 152 143 127
-2.63337 -4.25355 -0.04894 152 131 118
-2.64774 -4.24884 -0.04330 160 157 141
-2.65779 -4.24717 -0.04792 168 165 149
-3.06307 -4.13821 -0.23069 191 182 180
-3.05744 -4.13790 -0.21611 196 198 190
-3.05315 -4.13986 -0.22613 203 205 193
-3.04887 -4.14182 -0.23616 215 218 195
-3.07727 -4.13461 -0.22523 197 195 185
-3.07299 -4.13657 -0.23525 190 182 175
-3.51906 -3.96874 -0.43227 232 226 224
-3.50528 -3.97223 -0.43757 245 247 240
-3.52452 -3.96904 -0.44642 216 215 215
-2.16939 -4.42738 0.15568 153 138 118
-2.15455 -4.43114 0.14997 147 132 109
-2.36134 -4.30773 0.07535 165 158 144
-2.34690 -4.31139 0.06979 185 173 161
-2.35699 -4.30972 0.06516 178 170 156
-2.36707 -4.30805 0.06052 177 173 152
-2.37147 -4.30532 0.07076 171 168 128
-2.38140 -4.30644 0.06594 166 149 138
-2.49236 -4.28921 0.01480 177 170 149
-2.49810 -4.28953 -0.00005 181 168 144
-2.54312 -4.21339 -0.00244 168 157 135
-2.52897 -4.21697 -0.00788 154 144 141
-2.55299 -4.21506 -0.00728 156 143 111
-2.55861 -4.21538 -0.02183 171 156 146
-2.56290 -4.22427 -0.01282 159 150 120
-2.56854 -4.22458 -0.02742 179 165 156
-2.57293 -4.24236 -0.01922 167 159 134
-2.58296 -4.24484 -0.02421 162 149 127
-2.60318 -4.25627 -0.03485 157 146 113
-2.61329 -4.25809 -0.03981 159 148 123
-2.61900 -4.25840 -0.05460 170 155 134
-2.62327 -4.25301 -0.04410 162 146 127
-2.64321 -4.24424 -0.05277 154 144 129
-2.65300 -4.23453 -0.05654 169 167 147
-2.66732 -4.23090 -0.05103 169 165 147
-2.66300 -4.23287 -0.06114 173 169 148
-2.65868 -4.23485 -0.07125 170 160 147
-2.74080 -4.18252 -0.09353 177 164 136
-2.73519 -4.18220 -0.07900 183 171 156
-2.73092 -4.18416 -0.08899 180 167 146
-2.72665 -4.18611 -0.09898 170 156 139
-2.74642 -4.18283 -0.10807 161 145 135
-2.76173 -4.19657 -0.10474 170 159 147
-2.77167 -4.19492 -0.10931 191 185 163
-3.05441 -4.11381 -0.23625 203 196 188
-3.04033 -4.11738 -0.24167 210 214 185
-3.05016 -4.11575 -0.24619 209 208 185
-3.07384 -4.10922 -0.24507 200 189 175
-3.07942 -4.10953 -0.25952 211 204 191
-2.37708 -4.30769 0.05579 174 165 146
-2.38281 -4.30801 0.04096 160 147 144
-2.53889 -4.20801 -0.01175 169 160 153
-2.53463 -4.20996 -0.02172 170 162 157
-2.54449 -4.20833 -0.02625 182 169 147
-2.54873 -4.21156 -0.01677 178 165 141
-2.55434 -4.21188 -0.03129 176 154 149
-2.57859 -4.24069 -0.03372 182 165 146
-2.56430 -4.24432 -0.03922 183 160 158
-2.57428 -4.24266 -0.04381 181 164 152
-2.58426 -4.24101 -0.04840 174 164 147
-2.58872 -4.25325 -0.03972 181 168 137
-2.59441 -4.25356 -0.05446 177 167 146
-2.59879 -4.25480 -0.04465 180 169 136
-2.60449 -4.25512 -0.05941 173 160 138
-2.60865 -4.24278 -0.04821 174 160 132
-2.61433 -4.24310 -0.06292 166 156 142
-2.62845 -4.23042 -0.05646 160 149 133
-2.62414 -4.23239 -0.06654 164 160 149
-2.63411 -4.23074 -0.07113 162 155 140
-2.63827 -4.22322 -0.06045 155 148 133
-2.64393 -4.22353 -0.07509 159 151 139
-2.64812 -4.21801 -0.06465 165 158 142
-2.65377 -4.21832 -0.07927 164 160 145
-2.73657 -4.18521 -0.10361 179 167 141
-3.06655 -4.09340 -0.25188 211 207 189
-3.07210 -4.09371 -0.26624 209 201 195
-3.35084 -3.94081 -0.37268 205 195 185
-3.36435 -3.93739 -0.36748 189 188 174
-3.36028 -3.93925 -0.37702 202 193 182
-3.35620 -3.94111 -0.38655 206 197 175
-3.45010 -4.00532 -0.42597 225 220 211
-3.45560 -4.00563 -0.44022 225 227 221
-2.36360 -4.29533 0.05135 174 158 152
-2.34923 -4.29897 0.04582 173 156 139
-2.35927 -4.29731 0.04120 163 152 148
-2.36930 -4.29565 0.03659 165 153 143
-2.47356 -4.29450 -0.00093 178 168 135
-2.47929 -4.29482 -0.01577 182 169 144
-2.52494 -4.19505 -0.01564 162 151 150
-2.51514 -4.19667 -0.01113 161 153 148
-2.51090 -4.19861 -0.02104 165 151 145
-2.53051 -4.19536 -0.03006 181 164 158
-2.72218 -4.18443 -0.10852 172 167 148
-2.72779 -4.18475 -0.12304 185 179 159
-3.02485 -4.11200 -0.24554 186 187 163
-3.01081 -4.11556 -0.25094 193 193 162
-3.06132 -4.08936 -0.26068 220 220 205
-3.05711 -4.09128 -0.27054 222 222 212
-3.06686 -4.08967 -0.27502 212 205 199
-3.21878 -4.02548 -0.32939 216 216 206
-3.21331 -4.02517 -0.31523 198 189 179
-3.22294 -4.02357 -0.31966 203 202 192
-3.21461 -4.02738 -0.33912 219 222 212
-3.22697 -4.01767 -0.33253 212 210 193
-3.23720 -4.01874 -0.33751 199 193 155
-3.24266 -4.01905 -0.35165 201 193 173
-3.24770 -4.02085 -0.34271 199 196 164
-3.32798 -3.94610 -0.37360 202 203 192
-3.44191 -3.99420 -0.43257 219 218 209
-3.42809 -3.99771 -0.43789 217 214 209
-3.43774 -3.99611 -0.44233 216 212 207
-3.46730 -3.94675 -0.44001 208 211 209
-3.47607 -3.94290 -0.44381 222 222 213
-3.49356 -3.93518 -0.45138 242 237 223
-3.50714 -3.93174 -0.44615 221 219 210
-3.50304 -3.93361 -0.45574 223 215 214
-3.49894 -3.93549 -0.46533 234 231 220
-2.43971 -4.27993 0.00462 162 163 145
-2.45958 -4.28245 -0.00512 167 159 134
-2.45524 -4.28443 -0.01527 178 158 135
-2.59971 -4.22533 -0.06611 164 149 131
-2.58977 -4.22697 -0.06154 169 158 137
-2.60535 -4.22564 -0.08072 157 132 121
-2.60932 -4.20487 -0.06860 157 142 131
-2.61910 -4.19885 -0.07265 160 146 137
-2.62896 -4.19721 -0.07719 164 155 138
-2.66001 -4.23631 -0.09598 170 165 135
-2.65000 -4.23796 -0.09138 157 157 139
-2.64568 -4.23994 -0.10149 160 154 139
-2.65568 -4.23828 -0.10609 176 169 147
-2.67433 -4.23267 -0.09047 159 150 130
-2.66979 -4.22871 -0.09987 158 147 130
-2.68409 -4.22509 -0.09437 154 152 136
-2.67977 -4.22706 -0.10446 146 137 140
-2.69890 -4.20551 -0.11138 169 158 143
-2.70453 -4.20582 -0.12598 182 172 162
-2.70805 -4.18817 -0.11398 174 168 163
-2.71365 -4.18849 -0.12850 184 174 166
-3.01877 -4.10201 -0.25335 188 190 166
-3.08115 -4.05724 -0.27853 201 194 190
-3.06733 -4.06075 -0.28385 213 207 193
-3.08663 -4.05755 -0.29273 194 194 185
-3.45280 -3.94741 -0.44454 197 188 188
-3.46034 -3.93973 -0.44736 195 193 198
-3.46648 -3.92781 -0.44906 227 220 217
-3.47184 -3.92811 -0.46295 244 246 236
-3.47142 -3.91248 -0.44986 247 248 236
-3.48723 -3.93033 -0.45922 240 238 226
-2.41625 -4.26465 0.00544 172 151 138
-2.40629 -4.26630 0.01003 168 155 134
-2.41194 -4.26662 -0.00462 174 159 136
-2.42190 -4.26497 -0.00920 160 158 128
-2.46584 -4.26354 -0.01812 176 157 147
-2.47582 -4.26189 -0.02271 186 179 151
-2.47150 -4.26386 -0.03279 186 175 157
-2.48652 -4.22808 -0.02424 176 163 158
-2.48225 -4.23003 -0.03423 180 168 155
-2.50687 -4.18794 -0.02971 175 161 144
-2.51241 -4.18825 -0.04407 191 184 170
-2.58557 -4.23911 -0.07270 181 167 139
-2.57991 -4.23879 -0.05804 169 163 143
-2.57561 -4.24076 -0.06812 184 177 145
-2.57130 -4.24273 -0.07819 182 170 147
-2.58127 -4.24108 -0.08277 182 169 146
-2.59527 -4.21607 -0.07489 169 151 133
-2.61445 -4.18038 -0.08028 157 133 128
