ply
format ascii 1.0
element face 0
property list uchar int vertex_indices
element vertex 1240
property float x
property float y
property float z
property uchar diffuse_red
property uchar diffuse_green
property uchar diffuse_blue
end_header
0.39277 -0.59539 -0.50998 254 254 254
0.39935 -0.59797 -0.50678 254 254 254
0.40593 -0.60054 -0.50358 254 254 254
0.41251 -0.60311 -0.50038 254 254 254
0.41908 -0.60568 -0.49718 254 254 254
0.42566 -0.60825 -0.49398 254 254 254
0.43223 -0.61082 -0.49078 254 254 254
-0.31133 -0.33162 -0.84126 250 249 251
-0.30453 -0.33428 -0.83795 250 249 251
-0.29773 -0.33693 -0.83464 250 249 251
-0.29093 -0.33959 -0.83134 250 249 251
-0.28414 -0.34224 -0.82804 250 249 251
-0.27735 -0.34489 -0.82473 251 249 251
-0.27056 -0.34755 -0.82143 251 249 251
-0.26378 -0.35020 -0.81813 251 249 251
-0.25699 -0.35285 -0.81483 251 249 251
-0.25021 -0.35550 -0.81154 251 249 251
-0.24344 -0.35815 -0.80824 251 249 251
-0.23666 -0.36079 -0.80495 251 249 251
-0.22989 -0.36344 -0.80165 251 249 251
-0.22312 -0.36608 -0.79836 251 250 251
-0.21635 -0.36873 -0.79507 251 250 251
-0.20958 -0.37137 -0.79178 251 250 251
-0.20282 -0.37402 -0.78849 251 250 251
-0.19606 -0.37666 -0.78520 251 250 251
-0.18930 -0.37930 -0.78191 251 250 251
-0.18254 -0.38194 -0.77863 251 250 250
-0.17579 -0.38458 -0.77534 251 250 251
-0.16904 -0.38721 -0.77206 251 250 251
-0.16229 -0.38985 -0.76878 251 250 251
-0.15554 -0.39249 -0.76550 252 250 251
-0.14880 -0.39512 -0.76222 252 250 251
-0.14205 -0.39776 -0.75894 252 250 251
-0.13532 -0.40039 -0.75566 252 251 251
-0.12858 -0.40302 -0.75239 252 251 251
-0.12184 -0.40565 -0.74911 252 251 252
-0.11511 -0.40828 -0.74584 252 252 252
-0.10838 -0.41091 -0.74257 252 252 252
-0.10166 -0.41354 -0.73929 252 252 252
-0.09493 -0.41617 -0.73602 252 252 252
-0.08821 -0.41879 -0.73275 252 252 253
-0.08149 -0.42142 -0.72949 253 253 253
-0.07477 -0.42404 -0.72622 253 253 253
-0.06806 -0.42667 -0.72296 253 253 253
-0.06134 -0.42929 -0.71969 253 253 253
-0.05463 -0.43191 -0.71643 253 253 253
-0.04792 -0.43453 -0.71317 253 253 254
-0.04122 -0.43715 -0.70990 254 254 254
-0.03452 -0.43977 -0.70665 254 254 254
-0.02782 -0.44239 -0.70339 254 254 254
-0.02112 -0.44501 -0.70013 254 254 254
-0.01442 -0.44762 -0.69687 254 254 254
-0.00773 -0.45024 -0.69362 254 254 254
-0.00104 -0.45285 -0.69036 254 254 254
0.00565 -0.45546 -0.68711 254 254 254
0.01234 -0.45808 -0.68386 254 254 254
0.01902 -0.46069 -0.68061 254 254 254
0.02570 -0.46330 -0.67736 254 254 254
0.03238 -0.46591 -0.67411 254 254 254
0.03906 -0.46852 -0.67087 254 254 254
0.04573 -0.47112 -0.66762 254 254 254
0.05241 -0.47373 -0.66438 254 254 254
0.05908 -0.47634 -0.66113 254 254 254
0.06574 -0.47894 -0.65789 254 254 254
0.07241 -0.48155 -0.65465 254 254 254
0.07907 -0.48415 -0.65141 254 254 254
0.08573 -0.48675 -0.64817 254 254 254
0.09239 -0.48935 -0.64493 254 254 254
0.09904 -0.49195 -0.64170 254 254 254
0.10570 -0.49455 -0.63846 254 254 254
0.11235 -0.49715 -0.63523 254 254 254
0.11899 -0.49975 -0.63199 254 254 254
0.17872 -0.52308 -0.60295 254 254 254
0.18534 -0.52567 -0.59973 254 254 254
0.19197 -0.52826 -0.59651 254 254 254
0.19859 -0.53084 -0.59329 254 254 254
0.20520 -0.53343 -0.59007 254 254 254
0.21182 -0.53601 -0.58686 254 254 254
0.21843 -0.53860 -0.58364 254 254 254
0.22504 -0.54118 -0.58042 254 254 254
0.23165 -0.54376 -0.57721 254 254 254
0.23825 -0.54634 -0.57400 254 254 254
0.24486 -0.54892 -0.57079 254 254 254
0.25146 -0.55150 -0.56758 254 254 254
0.25806 -0.55408 -0.56437 254 254 254
0.26465 -0.55666 -0.56116 254 254 254
0.27125 -0.55923 -0.55796 254 254 254
0.27784 -0.56181 -0.55475 254 254 254
0.28443 -0.56438 -0.55155 254 254 254
0.29101 -0.56695 -0.54834 254 254 254
0.29760 -0.56953 -0.54514 254 254 254
0.30418 -0.57210 -0.54194 254 254 254
0.31076 -0.57467 -0.53874 254 254 254
0.31734 -0.57724 -0.53554 254 254 254
0.32391 -0.57981 -0.53234 254 254 254
0.33049 -0.58238 -0.52915 254 254 254
0.33706 -0.58494 -0.52595 254 254 254
0.34362 -0.58751 -0.52276 254 254 254
0.35019 -0.59007 -0.51957 254 254 254
0.35675 -0.59264 -0.51637 254 254 254
0.36332 -0.59520 -0.51318 254 254 254
0.36987 -0.59777 -0.50999 254 254 254
0.37643 -0.60033 -0.50681 254 254 254
0.38298 -0.60289 -0.50362 254 254 254
0.38954 -0.60545 -0.50043 254 254 254
0.39609 -0.60801 -0.49725 254 254 254
0.40263 -0.61056 -0.49406 254 254 254
0.40918 -0.61312 -0.49088 254 254 254
0.41572 -0.61568 -0.48770 254 254 254
0.42226 -0.61823 -0.48452 254 254 254
-0.31778 -0.34052 -0.83317 250 249 251
-0.31102 -0.34316 -0.82988 250 249 251
-0.30425 -0.34580 -0.82660 250 249 251
-0.29749 -0.34844 -0.82331 250 249 251
-0.29073 -0.35108 -0.82002 250 249 251
-0.28397 -0.35372 -0.81674 250 249 251
-0.27721 -0.35636 -0.81346 251 249 251
-0.27046 -0.35899 -0.81017 251 249 251
-0.26371 -0.36163 -0.80689 251 249 251
-0.25696 -0.36426 -0.80361 251 249 251
-0.25021 -0.36690 -0.80033 251 249 251
-0.24347 -0.36953 -0.79706 251 249 251
-0.23673 -0.37216 -0.79378 251 249 251
-0.22999 -0.37479 -0.79051 251 249 251
-0.22325 -0.37742 -0.78723 251 250 251
-0.21652 -0.38005 -0.78396 251 250 251
-0.20979 -0.38268 -0.78069 251 250 251
-0.20306 -0.38531 -0.77742 251 250 251
-0.19633 -0.38793 -0.77415 251 250 251
-0.18961 -0.39056 -0.77088 251 250 250
-0.18288 -0.39318 -0.76761 251 250 251
-0.17616 -0.39580 -0.76435 251 250 251
-0.16945 -0.39843 -0.76108 251 250 251
-0.16273 -0.40105 -0.75782 252 250 251
-0.15602 -0.40367 -0.75456 252 250 251
-0.14931 -0.40629 -0.75130 252 250 251
-0.14260 -0.40891 -0.74804 252 250 251
-0.13590 -0.41152 -0.74478 252 251 251
-0.12919 -0.41414 -0.74152 252 251 252
-0.12249 -0.41676 -0.73826 252 252 252
-0.11580 -0.41937 -0.73501 252 252 252
-0.10910 -0.42199 -0.73176 252 252 252
-0.10241 -0.42460 -0.72850 252 252 252
-0.09572 -0.42721 -0.72525 252 252 252
-0.08903 -0.42982 -0.72200 252 252 253
-0.08234 -0.43243 -0.71875 253 253 253
-0.07566 -0.43504 -0.71550 253 253 253
-0.06898 -0.43765 -0.71226 253 253 253
-0.06230 -0.44026 -0.70901 253 253 253
-0.05562 -0.44286 -0.70576 253 253 254
-0.04895 -0.44547 -0.70252 254 254 254
-0.04228 -0.44807 -0.69928 254 254 254
-0.03561 -0.45068 -0.69604 254 254 254
-0.02894 -0.45328 -0.69280 254 254 254
-0.02228 -0.45588 -0.68956 254 254 254
-0.01561 -0.45848 -0.68632 254 254 254
-0.00895 -0.46108 -0.68308 254 254 254
-0.00230 -0.46368 -0.67985 254 254 254
0.00436 -0.46628 -0.67661 254 254 254
0.01101 -0.46888 -0.67338 254 254 254
0.01766 -0.47147 -0.67015 254 254 254
0.02431 -0.47407 -0.66692 254 254 254
0.03096 -0.47666 -0.66369 254 254 254
0.03760 -0.47926 -0.66046 254 254 254
0.04424 -0.48185 -0.65723 254 254 254
0.05088 -0.48444 -0.65401 254 254 254
0.05751 -0.48703 -0.65078 254 254 254
0.06415 -0.48962 -0.64756 254 254 254
0.07078 -0.49221 -0.64433 254 254 254
0.07741 -0.49480 -0.64111 254 254 254
0.08403 -0.49739 -0.63789 254 254 254
0.09066 -0.49997 -0.63467 254 254 254
0.09728 -0.50256 -0.63146 254 254 254
0.10390 -0.50514 -0.62824 254 254 254
0.16997 -0.53093 -0.59613 254 254 254
0.17656 -0.53351 -0.59293 254 254 254
0.18315 -0.53608 -0.58972 254 254 254
0.18974 -0.53865 -0.58652 254 254 254
0.19633 -0.54122 -0.58332 254 254 254
0.20291 -0.54379 -0.58012 254 254 254
0.20950 -0.54636 -0.57692 254 254 254
0.21608 -0.54893 -0.57372 254 254 254
0.22265 -0.55150 -0.57053 254 254 254
0.22923 -0.55407 -0.56733 254 254 254
0.23580 -0.55663 -0.56414 254 254 254
0.24237 -0.55920 -0.56094 254 254 254
0.24894 -0.56176 -0.55775 254 254 254
0.25550 -0.56433 -0.55456 254 254 254
0.26207 -0.56689 -0.55137 254 254 254
0.26863 -0.56945 -0.54818 254 254 254
0.27519 -0.57201 -0.54499 254 254 254
0.28174 -0.57457 -0.54181 254 254 254
0.28830 -0.57713 -0.53862 254 254 254
0.29485 -0.57969 -0.53544 254 254 254
0.30140 -0.58224 -0.53225 254 254 254
0.30795 -0.58480 -0.52907 254 254 254
0.31449 -0.58735 -0.52589 254 254 254
0.32104 -0.58991 -0.52271 254 254 254
0.32758 -0.59246 -0.51953 254 254 254
0.33411 -0.59501 -0.51636 254 254 254
0.34065 -0.59757 -0.51318 254 254 254
0.34718 -0.60012 -0.51000 254 254 254
0.35371 -0.60267 -0.50683 254 254 254
0.36024 -0.60522 -0.50366 254 254 254
0.36677 -0.60776 -0.50049 254 254 254
0.37329 -0.61031 -0.49732 254 254 254
0.37981 -0.61286 -0.49415 254 254 254
0.38633 -0.61540 -0.49098 254 254 254
0.39285 -0.61795 -0.48781 254 254 254
0.39937 -0.62049 -0.48464 254 254 254
0.40588 -0.62303 -0.48148 254 254 254
0.41239 -0.62557 -0.47831 254 254 254
-0.32417 -0.34933 -0.82517 250 249 251
-0.31744 -0.35195 -0.82190 250 249 251
-0.31071 -0.35458 -0.81863 250 249 251
-0.30397 -0.35721 -0.81536 250 249 251
-0.29725 -0.35983 -0.81209 250 249 251
-0.29052 -0.36246 -0.80882 250 249 251
-0.28379 -0.36508 -0.80556 250 249 251
-0.27707 -0.36770 -0.80229 251 249 251
-0.27035 -0.37032 -0.79903 251 249 251
-0.26364 -0.37294 -0.79577 251 249 251
-0.25692 -0.37556 -0.79251 251 249 251
-0.25021 -0.37818 -0.78925 251 249 251
-0.24350 -0.38080 -0.78599 251 249 251
-0.23679 -0.38341 -0.78273 251 250 251
-0.23009 -0.38603 -0.77947 251 250 251
-0.22339 -0.38864 -0.77622 251 250 251
-0.21669 -0.39126 -0.77296 251 250 251
-0.20999 -0.39387 -0.76971 251 250 251
-0.20329 -0.39648 -0.76646 251 250 251
-0.19660 -0.39909 -0.76321 251 250 251
-0.18991 -0.40170 -0.75996 251 250 250
-0.18322 -0.40431 -0.75671 251 250 251
-0.17654 -0.40692 -0.75346 251 250 251
-0.16985 -0.40953 -0.75022 251 250 251
-0.16317 -0.41213 -0.74697 252 250 251
-0.15649 -0.41474 -0.74373 252 250 251
-0.14982 -0.41734 -0.74048 252 250 251
-0.14314 -0.41995 -0.73724 252 251 251
-0.13647 -0.42255 -0.73400 252 251 252
-0.12980 -0.42515 -0.73076 252 252 252
-0.12314 -0.42775 -0.72753 252 252 252
-0.11647 -0.43035 -0.72429 252 252 252
-0.10981 -0.43295 -0.72105 252 252 252
-0.10315 -0.43555 -0.71782 252 252 252
-0.09650 -0.43814 -0.71459 252 252 253
-0.08984 -0.44074 -0.71135 253 253 253
-0.08319 -0.44333 -0.70812 253 253 253
-0.07654 -0.44593 -0.70489 253 253 253
-0.06989 -0.44852 -0.70166 253 253 253
-0.06324 -0.45111 -0.69844 253 253 254
-0.05660 -0.45371 -0.69521 254 254 254
-0.04996 -0.45630 -0.69198 254 254 254
-0.04332 -0.45889 -0.68876 254 254 254
-0.03669 -0.46147 -0.68554 254 254 254
-0.03005 -0.46406 -0.68232 254 254 254
-0.02342 -0.46665 -0.67909 254 254 254
-0.01679 -0.46923 -0.67587 254 254 254
-0.01017 -0.47182 -0.67266 254 254 254
-0.00354 -0.47440 -0.66944 254 254 254
0.00308 -0.47699 -0.66622 254 254 254
0.00970 -0.47957 -0.66301 254 254 254
0.01632 -0.48215 -0.65979 254 254 254
0.02293 -0.48473 -0.65658 254 254 254
0.02954 -0.48731 -0.65337 254 254 254
0.03615 -0.48989 -0.65016 254 254 254
0.04276 -0.49247 -0.64695 254 254 254
0.04937 -0.49504 -0.64374 254 254 254
0.05597 -0.49762 -0.64053 254 254 254
0.06257 -0.50019 -0.63733 254 254 254
0.06917 -0.50277 -0.63412 254 254 254
0.07576 -0.50534 -0.63092 254 254 254
0.08236 -0.50791 -0.62772 254 254 254
0.08895 -0.51048 -0.62452 254 254 254
0.09554 -0.51305 -0.62132 254 254 254
0.15473 -0.53615 -0.59256 254 254 254
0.16130 -0.53871 -0.58938 254 254 254
0.16786 -0.54127 -0.58619 254 254 254
0.17442 -0.54383 -0.58300 254 254 254
0.18098 -0.54639 -0.57982 254 254 254
0.18754 -0.54894 -0.57663 254 254 254
0.19409 -0.55150 -0.57345 254 254 254
0.20065 -0.55406 -0.57027 254 254 254
0.20720 -0.55661 -0.56708 254 254 254
0.21374 -0.55917 -0.56390 254 254 254
0.22029 -0.56172 -0.56073 254 254 254
0.22683 -0.56427 -0.55755 254 254 254
0.23337 -0.56682 -0.55437 254 254 254
0.23991 -0.56937 -0.55120 254 254 254
0.24644 -0.57192 -0.54802 254 254 254
0.25298 -0.57447 -0.54485 254 254 254
0.25951 -0.57702 -0.54168 254 254 254
0.26604 -0.57957 -0.53850 254 254 254
0.27256 -0.58211 -0.53533 254 254 254
0.27909 -0.58466 -0.53217 254 254 254
0.28561 -0.58720 -0.52900 254 254 254
0.29213 -0.58974 -0.52583 254 254 254
0.29865 -0.59229 -0.52267 254 254 254
0.30516 -0.59483 -0.51950 254 254 254
0.31168 -0.59737 -0.51634 254 254 254
0.31819 -0.59991 -0.51318 254 254 254
0.32469 -0.60245 -0.51002 254 254 254
0.33120 -0.60499 -0.50686 254 254 254
0.33770 -0.60752 -0.50370 254 254 254
0.34420 -0.61006 -0.50054 254 254 254
0.35070 -0.61259 -0.49738 254 254 254
0.35720 -0.61513 -0.49423 254 254 254
0.36369 -0.61766 -0.49107 254 254 254
0.37019 -0.62019 -0.48792 254 254 254
0.37668 -0.62273 -0.48477 254 254 254
0.38316 -0.62526 -0.48162 254 254 254
0.38965 -0.62779 -0.47847 254 254 254
0.39613 -0.63032 -0.47532 254 254 254
0.40261 -0.63284 -0.47217 254 254 254
-0.33050 -0.35805 -0.81724 250 249 251
-0.32380 -0.36066 -0.81399 250 249 251
-0.31710 -0.36328 -0.81074 250 249 251
-0.31040 -0.36589 -0.80748 250 249 251
-0.30370 -0.36850 -0.80423 250 249 251
-0.29701 -0.37111 -0.80098 250 249 251
-0.29031 -0.37372 -0.79773 251 249 251
-0.28362 -0.37632 -0.79449 251 249 251
-0.27694 -0.37893 -0.79124 251 249 251
-0.27025 -0.38154 -0.78800 251 249 251
-0.26357 -0.38414 -0.78475 251 249 251
-0.25689 -0.38675 -0.78151 251 249 251
-0.25021 -0.38935 -0.77827 251 249 251
-0.24353 -0.39195 -0.77503 251 249 251
-0.23686 -0.39455 -0.77179 251 249 251
-0.23019 -0.39715 -0.76855 251 250 251
-0.22352 -0.39975 -0.76531 251 250 251
-0.21685 -0.40235 -0.76208 251 250 251
-0.21019 -0.40495 -0.75884 251 250 251
-0.20353 -0.40755 -0.75561 251 250 251
-0.19687 -0.41014 -0.75238 251 250 250
-0.19021 -0.41274 -0.74915 251 250 250
-0.18356 -0.41533 -0.74592 251 250 251
-0.17691 -0.41792 -0.74269 251 250 251
-0.17026 -0.42051 -0.73946 252 250 251
-0.16361 -0.42311 -0.73623 252 250 251
-0.15696 -0.42570 -0.73301 252 250 251
-0.15032 -0.42829 -0.72978 252 251 251
-0.14368 -0.43087 -0.72656 252 251 251
-0.13704 -0.43346 -0.72334 252 251 252
-0.13041 -0.43605 -0.72012 252 252 252
-0.12378 -0.43863 -0.71690 252 252 252
-0.11714 -0.44122 -0.71368 252 252 252
-0.11052 -0.44380 -0.71046 252 252 252
-0.10389 -0.44638 -0.70724 252 252 253
-0.09727 -0.44897 -0.70403 253 253 253
-0.09064 -0.45155 -0.70081 253 253 253
-0.08402 -0.45413 -0.69760 253 253 253
-0.07741 -0.45671 -0.69439 253 253 253
-0.07079 -0.45929 -0.69118 253 253 253
-0.06418 -0.46186 -0.68797 253 253 254
-0.05757 -0.46444 -0.68476 254 254 254
-0.05096 -0.46701 -0.68155 254 254 254
-0.04436 -0.46959 -0.67835 254 254 254
-0.03776 -0.47216 -0.67514 254 254 254
-0.03116 -0.47474 -0.67194 254 254 254
-0.02456 -0.47731 -0.66874 254 254 254
-0.01796 -0.47988 -0.66553 254 254 254
-0.01137 -0.48245 -0.66233 254 254 254
-0.00478 -0.48502 -0.65913 254 254 254
0.00181 -0.48759 -0.65594 254 254 254
0.00840 -0.49015 -0.65274 254 254 254
0.01498 -0.49272 -0.64954 254 254 254
0.02156 -0.49529 -0.64635 254 254 254
0.02814 -0.49785 -0.64315 254 254 254
0.03472 -0.50041 -0.63996 254 254 254
0.04130 -0.50298 -0.63677 254 254 254
0.04787 -0.50554 -0.63358 254 254 254
0.05444 -0.50810 -0.63039 254 254 254
0.06101 -0.51066 -0.62720 254 254 254
0.06757 -0.51322 -0.62401 254 254 254
0.07414 -0.51578 -0.62083 254 254 254
0.08070 -0.51834 -0.61764 254 254 254
0.08726 -0.52089 -0.61446 254 254 254
0.13964 -0.54131 -0.58903 254 254 254
0.14618 -0.54386 -0.58586 254 254 254
0.15272 -0.54641 -0.58269 254 254 254
0.15925 -0.54896 -0.57951 254 254 254
0.16578 -0.55150 -0.57634 254 254 254
0.17231 -0.55405 -0.57318 254 254 254
0.17884 -0.55659 -0.57001 254 254 254
0.18536 -0.55913 -0.56684 254 254 254
0.19188 -0.56168 -0.56367 254 254 254
0.19840 -0.56422 -0.56051 254 254 254
0.20492 -0.56676 -0.55735 254 254 254
0.21143 -0.56930 -0.55418 254 254 254
0.21795 -0.57184 -0.55102 254 254 254
0.22446 -0.57437 -0.54786 254 254 254
0.23096 -0.57691 -0.54470 254 254 254
0.23747 -0.57945 -0.54155 254 254 254
0.24397 -0.58198 -0.53839 254 254 254
0.25048 -0.58452 -0.53523 254 254 254
0.25697 -0.58705 -0.53208 254 254 254
0.26347 -0.58958 -0.52892 254 254 254
0.26997 -0.59211 -0.52577 254 254 254
0.27646 -0.59464 -0.52262 254 254 254
0.28295 -0.59717 -0.51947 254 254 254
0.28944 -0.59970 -0.51632 254 254 254
0.29592 -0.60223 -0.51317 254 254 254
0.30240 -0.60476 -0.51003 254 254 254
0.30889 -0.60728 -0.50688 254 254 254
0.31536 -0.60981 -0.50374 254 254 254
0.32184 -0.61233 -0.50059 254 254 254
0.32831 -0.61486 -0.49745 254 254 254
0.33479 -0.61738 -0.49431 254 254 254
0.34126 -0.61990 -0.49117 254 254 254
0.34772 -0.62242 -0.48803 254 254 254
0.35419 -0.62494 -0.48489 254 254 254
0.36065 -0.62746 -0.48175 254 254 254
0.36711 -0.62998 -0.47862 254 254 254
0.37357 -0.63250 -0.47548 254 254 254
0.38003 -0.63501 -0.47235 254 254 254
0.38648 -0.63753 -0.46922 254 254 254
0.39293 -0.64004 -0.46608 254 254 254
-0.33677 -0.36669 -0.80939 250 249 251
-0.33010 -0.36929 -0.80616 250 249 251
-0.32343 -0.37189 -0.80292 250 249 251
-0.31676 -0.37448 -0.79969 250 249 251
-0.31009 -0.37708 -0.79645 250 249 251
-0.30343 -0.37968 -0.79322 250 249 251
-0.29677 -0.38227 -0.78999 251 249 251
-0.29011 -0.38486 -0.78676 251 249 251
-0.28346 -0.38746 -0.78353 251 249 251
-0.27680 -0.39005 -0.78030 251 249 251
-0.27015 -0.39264 -0.77707 251 249 251
-0.26350 -0.39523 -0.77385 251 249 251
-0.25685 -0.39782 -0.77062 251 249 251
-0.25021 -0.40041 -0.76740 251 249 251
-0.24357 -0.40299 -0.76418 251 249 251
-0.23693 -0.40558 -0.76096 251 250 251
-0.23029 -0.40817 -0.75774 251 250 251
-0.22365 -0.41075 -0.75452 251 250 251
-0.21702 -0.41333 -0.75130 251 250 251
-0.21039 -0.41592 -0.74808 251 250 251
-0.20376 -0.41850 -0.74487 251 250 250
-0.19714 -0.42108 -0.74165 251 250 251
-0.19051 -0.42366 -0.73844 251 250 251
-0.18389 -0.42624 -0.73523 251 250 251
-0.17727 -0.42882 -0.73202 252 250 251
-0.17066 -0.43139 -0.72881 252 250 251
-0.16404 -0.43397 -0.72560 252 250 251
-0.15743 -0.43654 -0.72239 252 251 251
-0.15082 -0.43912 -0.71919 252 251 251
-0.14421 -0.44169 -0.71598 252 251 252
-0.13761 -0.44426 -0.71278 252 252 252
-0.13101 -0.44684 -0.70957 252 252 252
-0.12441 -0.44941 -0.70637 252 252 252
-0.11781 -0.45198 -0.70317 252 252 252
-0.11121 -0.45455 -0.69997 252 252 253
-0.10462 -0.45711 -0.69677 253 253 253
-0.09803 -0.45968 -0.69358 253 253 253
-0.09144 -0.46225 -0.69038 253 253 253
-0.08485 -0.46481 -0.68718 253 253 253
-0.07827 -0.46738 -0.68399 253 253 253
-0.07169 -0.46994 -0.68080 253 253 254
-0.06511 -0.47250 -0.67761 254 254 254
-0.05853 -0.47507 -0.67442 254 254 254
-0.05196 -0.47763 -0.67123 254 254 254
-0.04538 -0.48019 -0.66804 254 254 254
-0.03881 -0.48275 -0.66485 254 254 254
-0.03225 -0.48530 -0.66166 254 254 254
-0.02568 -0.48786 -0.65848 254 254 254
-0.01912 -0.49042 -0.65530 254 254 254
-0.01256 -0.49297 -0.65211 254 254 254
-0.00600 -0.49553 -0.64893 254 254 254
0.00056 -0.49808 -0.64575 254 254 254
0.00711 -0.50063 -0.64257 254 254 254
0.01366 -0.50319 -0.63939 254 254 254
0.02021 -0.50574 -0.63622 254 254 254
0.02676 -0.50829 -0.63304 254 254 254
0.03330 -0.51084 -0.62986 254 254 254
0.03985 -0.51338 -0.62669 254 254 254
0.04639 -0.51593 -0.62352 254 254 254
0.05292 -0.51848 -0.62035 254 254 254
0.05946 -0.52102 -0.61718 254 254 254
0.06599 -0.52357 -0.61401 254 254 254
0.07252 -0.52611 -0.61084 254 254 254
0.07905 -0.52866 -0.60767 254 254 254
0.13120 -0.54897 -0.58237 254 254 254
0.13771 -0.55150 -0.57922 254 254 254
0.14421 -0.55404 -0.57606 254 254 254
0.15072 -0.55657 -0.57291 254 254 254
0.15722 -0.55910 -0.56975 254 254 254
0.16372 -0.56163 -0.56660 254 254 254
0.17021 -0.56416 -0.56345 254 254 254
0.17671 -0.56669 -0.56030 254 254 254
0.18320 -0.56922 -0.55715 254 254 254
0.18969 -0.57175 -0.55400 254 254 254
0.19618 -0.57428 -0.55085 254 254 254
0.20266 -0.57680 -0.54771 254 254 254
0.20915 -0.57933 -0.54456 254 254 254
0.21563 -0.58185 -0.54142 254 254 254
0.22211 -0.58438 -0.53827 254 254 254
0.22858 -0.58690 -0.53513 254 254 254
0.23506 -0.58942 -0.53199 254 254 254
0.24153 -0.59194 -0.52885 254 254 254
0.24800 -0.59446 -0.52571 254 254 254
0.25447 -0.59698 -0.52258 254 254 254
0.26093 -0.59950 -0.51944 254 254 254
0.26739 -0.60201 -0.51630 254 254 254
0.27385 -0.60453 -0.51317 254 254 254
0.28031 -0.60705 -0.51004 254 254 254
0.28677 -0.60956 -0.50690 254 254 254
0.29322 -0.61208 -0.50377 254 254 254
0.29967 -0.61459 -0.50064 254 254 254
0.30612 -0.61710 -0.49752 254 254 254
0.31257 -0.61961 -0.49439 254 254 254
0.31902 -0.62212 -0.49126 254 254 254
0.32546 -0.62463 -0.48814 254 254 254
0.33190 -0.62714 -0.48501 254 254 254
0.33834 -0.62965 -0.48189 254 254 254
0.34477 -0.63215 -0.47877 254 254 254
0.35121 -0.63466 -0.47565 254 254 254
0.35764 -0.63716 -0.47253 254 254 254
0.36407 -0.63967 -0.46941 254 254 254
0.37049 -0.64217 -0.46629 254 254 254
0.37692 -0.64467 -0.46317 254 254 254
0.38334 -0.64718 -0.46006 254 254 254
-0.34298 -0.37525 -0.80162 250 249 251
-0.33634 -0.37783 -0.79840 250 249 251
-0.32970 -0.38041 -0.79518 250 249 251
-0.32306 -0.38300 -0.79196 250 249 251
-0.31643 -0.38558 -0.78875 250 249 251
-0.30979 -0.38816 -0.78553 250 249 251
-0.30316 -0.39074 -0.78232 251 249 251
-0.29654 -0.39332 -0.77910 251 249 251
-0.28991 -0.39590 -0.77589 251 249 251
-0.28329 -0.39848 -0.77268 251 249 251
-0.27667 -0.40106 -0.76947 251 249 251
-0.27005 -0.40363 -0.76626 251 249 251
-0.26343 -0.40621 -0.76305 251 249 251
-0.25682 -0.40878 -0.75985 251 249 251
-0.25021 -0.41135 -0.75664 251 249 251
-0.24360 -0.41393 -0.75344 251 250 251
-0.23699 -0.41650 -0.75023 251 250 251
-0.23039 -0.41907 -0.74703 251 250 251
-0.22378 -0.42164 -0.74383 251 250 251
-0.21718 -0.42421 -0.74063 251 250 250
-0.21059 -0.42677 -0.73743 251 250 250
-0.20399 -0.42934 -0.73424 251 250 251
-0.19740 -0.43191 -0.73104 251 250 251
-0.19081 -0.43447 -0.72784 251 250 251
-0.18422 -0.43704 -0.72465 252 250 251
-0.17763 -0.43960 -0.72146 252 250 251
-0.17105 -0.44216 -0.71826 252 251 251
-0.16447 -0.44472 -0.71507 252 251 251
-0.15789 -0.44728 -0.71188 252 251 251
-0.15131 -0.44984 -0.70870 252 251 252
-0.14474 -0.45240 -0.70551 252 252 252
-0.13817 -0.45496 -0.70232 252 252 252
-0.13160 -0.45752 -0.69914 252 252 252
-0.12503 -0.46007 -0.69595 252 252 252
-0.11847 -0.46263 -0.69277 252 252 253
-0.11190 -0.46518 -0.68959 253 253 253
-0.10534 -0.46774 -0.68641 253 253 253
-0.09878 -0.47029 -0.68323 253 253 253
-0.09223 -0.47284 -0.68005 253 253 253
-0.08567 -0.47539 -0.67687 253 253 253
-0.07912 -0.47794 -0.67370 253 253 254
-0.07257 -0.48049 -0.67052 254 254 254
-0.06603 -0.48304 -0.66735 254 254 254
-0.05948 -0.48559 -0.66417 254 254 254
-0.05294 -0.48813 -0.66100 254 254 254
-0.04640 -0.49068 -0.65783 254 254 254
-0.03986 -0.49322 -0.65466 254 254 254
-0.03333 -0.49577 -0.65149 254 254 254
-0.02679 -0.49831 -0.64832 254 254 254
-0.02026 -0.50085 -0.64516 254 254 254
-0.01374 -0.50339 -0.64199 254 254 254
-0.00721 -0.50593 -0.63883 254 254 254
-0.00068 -0.50847 -0.63567 254 254 254
0.00584 -0.51101 -0.63250 254 254 254
0.01236 -0.51355 -0.62934 254 254 254
0.01887 -0.51608 -0.62618 254 254 254
0.02539 -0.51862 -0.62303 254 254 254
0.03190 -0.52115 -0.61987 254 254 254
0.03841 -0.52369 -0.61671 254 254 254
0.04492 -0.52622 -0.61356 254 254 254
0.05142 -0.52875 -0.61040 254 254 254
0.05793 -0.53128 -0.60725 254 254 254
0.06443 -0.53381 -0.60410 254 254 254
0.07093 -0.53634 -0.60095 254 254 254
0.11636 -0.55403 -0.57892 254 254 254
0.12284 -0.55655 -0.57578 254 254 254
0.12932 -0.55907 -0.57264 254 254 254
0.13579 -0.56159 -0.56950 254 254 254
0.14227 -0.56411 -0.56636 254 254 254
0.14874 -0.56663 -0.56322 254 254 254
0.15521 -0.56915 -0.56008 254 254 254
0.16168 -0.57166 -0.55695 254 254 254
0.16814 -0.57418 -0.55381 254 254 254
0.17460 -0.57670 -0.55068 254 254 254
0.18106 -0.57921 -0.54755 254 254 254
0.18752 -0.58172 -0.54442 254 254 254
0.19398 -0.58424 -0.54129 254 254 254
0.20043 -0.58675 -0.53816 254 254 254
0.20688 -0.58926 -0.53503 254 254 254
0.21333 -0.59177 -0.53190 254 254 254
0.21978 -0.59428 -0.52878 254 254 254
0.22622 -0.59679 -0.52565 254 254 254
0.23267 -0.59929 -0.52253 254 254 254
0.23911 -0.60180 -0.51941 254 254 254
0.24555 -0.60431 -0.51629 254 254 254
0.25198 -0.60681 -0.51317 254 254 254
0.25842 -0.60932 -0.51005 254 254 254
0.26485 -0.61182 -0.50693 254 254 254
0.27128 -0.61432 -0.50381 254 254 254
0.27770 -0.61682 -0.50070 254 254 254
0.28413 -0.61932 -0.49758 254 254 254
0.29055 -0.62182 -0.49447 254 254 254
0.29697 -0.62432 -0.49135 254 254 254
0.30339 -0.62682 -0.48824 254 254 254
0.30980 -0.62932 -0.48513 254 254 254
0.31622 -0.63181 -0.48202 254 254 254
0.32263 -0.63431 -0.47891 254 254 254
0.32904 -0.63680 -0.47581 254 254 254
0.33545 -0.63930 -0.47270 254 254 254
0.34185 -0.64179 -0.46960 254 254 254
0.34825 -0.64428 -0.46649 254 254 254
0.35465 -0.64677 -0.46339 254 254 254
0.36105 -0.64926 -0.46029 254 254 254
0.36745 -0.65175 -0.45719 254 254 254
0.37384 -0.65424 -0.45409 254 254 254
-0.34913 -0.38372 -0.79392 250 249 251
-0.34252 -0.38629 -0.79072 250 249 251
-0.33591 -0.38886 -0.78752 250 249 251
-0.32930 -0.39143 -0.78432 250 249 251
-0.32270 -0.39400 -0.78112 250 249 251
-0.31610 -0.39657 -0.77792 250 249 251
-0.30950 -0.39913 -0.77472 251 249 251
-0.30290 -0.40170 -0.77152 251 249 251
-0.29630 -0.40426 -0.76833 251 249 251
-0.28971 -0.40683 -0.76513 251 249 251
-0.28312 -0.40939 -0.76194 251 249 251
-0.27653 -0.41195 -0.75875 251 249 251
-0.26995 -0.41451 -0.75556 251 249 251
-0.26337 -0.41707 -0.75237 251 249 251
-0.25678 -0.41963 -0.74918 251 249 251
-0.25021 -0.42219 -0.74599 251 250 251
-0.24363 -0.42475 -0.74280 251 250 251
-0.23706 -0.42731 -0.73962 251 250 251
-0.23048 -0.42986 -0.73643 251 250 251
-0.22391 -0.43242 -0.73325 251 250 250
-0.21735 -0.43497 -0.73007 251 250 250
-0.21078 -0.43752 -0.72689 251 250 251
-0.20422 -0.44008 -0.72371 251 250 251
-0.19766 -0.44263 -0.72053 251 250 251
-0.19110 -0.44518 -0.71735 252 250 251
-0.18455 -0.44773 -0.71418 252 250 251
-0.17799 -0.45028 -0.71100 252 251 251
-0.17144 -0.45283 -0.70783 252 251 251
-0.16489 -0.45537 -0.70465 252 251 251
-0.15835 -0.45792 -0.70148 252 251 252
-0.15180 -0.46046 -0.69831 252 252 252
-0.14526 -0.46301 -0.69514 252 252 252
-0.13872 -0.46555 -0.69197 252 252 252
-0.13218 -0.46809 -0.68880 252 252 252
-0.12565 -0.47064 -0.68564 252 252 253
-0.11912 -0.47318 -0.68247 253 253 253
-0.11259 -0.47572 -0.67931 253 253 253
-0.10606 -0.47825 -0.67614 253 253 253
-0.09953 -0.48079 -0.67298 253 253 253
-0.09301 -0.48333 -0.66982 253 253 253
-0.08649 -0.48587 -0.66666 253 253 254
-0.07997 -0.48840 -0.66350 254 254 254
-0.07345 -0.49094 -0.66034 254 254 254
-0.06694 -0.49347 -0.65719 254 254 254
-0.06042 -0.49600 -0.65403 254 254 254
-0.05391 -0.49853 -0.65088 254 254 254
-0.04741 -0.50107 -0.64772 254 254 254
-0.04090 -0.50360 -0.64457 254 254 254
-0.03440 -0.50613 -0.64142 254 254 254
-0.02790 -0.50865 -0.63827 254 254 254
-0.02140 -0.51118 -0.63512 254 254 254
-0.01490 -0.51371 -0.63197 254 254 254
-0.00841 -0.51623 -0.62883 254 254 254
-0.00191 -0.51876 -0.62568 254 254 254
0.00458 -0.52128 -0.62254 254 254 254
0.01106 -0.52381 -0.61939 254 254 254
0.01755 -0.52633 -0.61625 254 254 254
0.02403 -0.52885 -0.61311 254 254 254
0.03051 -0.53137 -0.60997 254 254 254
0.03699 -0.53389 -0.60683 254 254 254
0.04347 -0.53641 -0.60369 254 254 254
0.04994 -0.53893 -0.60056 254 254 254
0.05641 -0.54144 -0.59742 254 254 254
0.06288 -0.54396 -0.59429 254 254 254
0.10165 -0.55904 -0.57550 254 254 254
0.10810 -0.56155 -0.57237 254 254 254
0.11456 -0.56406 -0.56925 254 254 254
0.12100 -0.56656 -0.56612 254 254 254
0.12745 -0.56907 -0.56300 254 254 254
0.13390 -0.57158 -0.55988 254 254 254
0.14034 -0.57408 -0.55675 254 254 254
0.14678 -0.57659 -0.55363 254 254 254
0.15322 -0.57909 -0.55051 254 254 254
0.15965 -0.58160 -0.54739 254 254 254
0.16609 -0.58410 -0.54428 254 254 254
0.17252 -0.58660 -0.54116 254 254 254
0.17895 -0.58910 -0.53805 254 254 254
0.18537 -0.59160 -0.53493 254 254 254
0.19180 -0.59410 -0.53182 254 254 254
0.19822 -0.59660 -0.52871 254 254 254
0.20464 -0.59909 -0.52560 254 254 254
0.21106 -0.60159 -0.52249 254 254 254
0.21748 -0.60408 -0.51938 254 254 254
0.22389 -0.60658 -0.51627 254 254 254
0.23030 -0.60907 -0.51316 254 254 254
0.23671 -0.61157 -0.51006 254 254 254
0.24312 -0.61406 -0.50695 254 254 254
0.24952 -0.61655 -0.50385 254 254 254
0.25592 -0.61904 -0.50075 254 254 254
0.26232 -0.62153 -0.49765 254 254 254
0.26872 -0.62402 -0.49455 254 254 254
0.27512 -0.62650 -0.49145 254 254 254
0.28151 -0.62899 -0.48835 254 254 254
0.28790 -0.63148 -0.48525 254 254 254
0.29429 -0.63396 -0.48216 254 254 254
0.30068 -0.63645 -0.47906 254 254 254
0.30707 -0.63893 -0.47597 254 254 254
0.31345 -0.64141 -0.47287 254 254 254
0.31983 -0.64389 -0.46978 254 254 254
0.32621 -0.64637 -0.46669 254 254 254
0.33258 -0.64885 -0.46360 254 254 254
0.33896 -0.65133 -0.46051 254 254 254
0.34533 -0.65381 -0.45743 254 254 254
0.35170 -0.65629 -0.45434 254 254 254
0.35807 -0.65876 -0.45125 254 254 254
0.36443 -0.66124 -0.44817 254 254 254
-0.35522 -0.39211 -0.78630 250 249 251
-0.34864 -0.39467 -0.78311 250 249 251
-0.34206 -0.39723 -0.77993 250 249 251
-0.33548 -0.39978 -0.77674 250 249 251
-0.32891 -0.40234 -0.77356 250 249 251
-0.32234 -0.40489 -0.77038 250 249 251
-0.31577 -0.40744 -0.76719 251 249 251
-0.30920 -0.40999 -0.76401 251 249 251
-0.30264 -0.41255 -0.76084 251 249 251
-0.29607 -0.41510 -0.75766 251 249 251
-0.28952 -0.41765 -0.75448 251 249 251
-0.28296 -0.42019 -0.75131 251 249 251
-0.27640 -0.42274 -0.74813 251 249 251
-0.26985 -0.42529 -0.74496 251 249 251
-0.26330 -0.42783 -0.74179 251 249 251
-0.25675 -0.43038 -0.73861 251 250 251
-0.25020 -0.43292 -0.73544 251 250 251
-0.24366 -0.43547 -0.73228 251 250 251
-0.23712 -0.43801 -0.72911 251 250 251
-0.23058 -0.44055 -0.72594 251 250 250
-0.22404 -0.44309 -0.72277 251 250 250
-0.21751 -0.44563 -0.71961 251 250 251
-0.21098 -0.44817 -0.71645 251 250 251
-0.20445 -0.45071 -0.71328 251 250 251
-0.19792 -0.45324 -0.71012 252 250 251
-0.19139 -0.45578 -0.70696 252 250 251
-0.18487 -0.45831 -0.70380 252 251 251
-0.17835 -0.46085 -0.70065 252 251 251
-0.17183 -0.46338 -0.69749 252 251 251
-0.16531 -0.46592 -0.69433 252 251 252
-0.15880 -0.46845 -0.69118 252 252 252
-0.15229 -0.47098 -0.68803 252 252 252
-0.14578 -0.47351 -0.68487 252 252 252
-0.13927 -0.47604 -0.68172 252 252 252
-0.13276 -0.47857 -0.67857 252 252 253
-0.12626 -0.48109 -0.67542 253 253 253
-0.11976 -0.48362 -0.67227 253 253 253
-0.11326 -0.48614 -0.66913 253 253 253
-0.10677 -0.48867 -0.66598 253 253 253
-0.10027 -0.49119 -0.66284 253 253 253
-0.09378 -0.49372 -0.65969 253 253 254
-0.08729 -0.49624 -0.65655 254 254 254
-0.08080 -0.49876 -0.65341 254 254 254
-0.07432 -0.50128 -0.65027 254 254 254
-0.06784 -0.50380 -0.64713 254 254 254
-0.06136 -0.50632 -0.64399 254 254 254
-0.05488 -0.50883 -0.64085 254 254 254
-0.04840 -0.51135 -0.63772 254 254 254
-0.04193 -0.51387 -0.63458 254 254 254
-0.03546 -0.51638 -0.63145 254 254 254
-0.02899 -0.51890 -0.62832 254 254 254
-0.02252 -0.52141 -0.62518 254 254 254
-0.01606 -0.52392 -0.62205 254 254 254
-0.00959 -0.52643 -0.61892 254 254 254
-0.00313 -0.52894 -0.61580 254 254 254
0.00333 -0.53145 -0.61267 254 254 254
0.00978 -0.53396 -0.60954 254 254 254
0.01624 -0.53647 -0.60642 254 254 254
0.02269 -0.53898 -0.60329 254 254 254
0.02914 -0.54149 -0.60017 254 254 254
0.03558 -0.54399 -0.59705 254 254 254
0.04203 -0.54650 -0.59393 254 254 254
0.04847 -0.54900 -0.59081 254 254 254
0.05491 -0.55150 -0.58769 254 254 254
0.06135 -0.55400 -0.58457 254 254 254
0.08708 -0.56400 -0.57211 254 254 254
0.09350 -0.56650 -0.56900 254 254 254
0.09993 -0.56900 -0.56589 254 254 254
0.10635 -0.57149 -0.56278 254 254 254
0.11277 -0.57399 -0.55967 254 254 254
0.11919 -0.57648 -0.55656 254 254 254
0.12561 -0.57898 -0.55345 254 254 254
0.13202 -0.58147 -0.55035 254 254 254
0.13843 -0.58396 -0.54724 254 254 254
0.14484 -0.58645 -0.54414 254 254 254
0.15125 -0.58894 -0.54104 254 254 254
0.15765 -0.59143 -0.53793 254 254 254
0.16405 -0.59392 -0.53483 254 254 254
0.17045 -0.59641 -0.53173 254 254 254
0.17685 -0.59889 -0.52864 254 254 254
0.18325 -0.60138 -0.52554 254 254 254
0.18964 -0.60386 -0.52244 254 254 254
0.19603 -0.60635 -0.51935 254 254 254
0.20242 -0.60883 -0.51625 254 254 254
0.20881 -0.61131 -0.51316 254 254 254
0.21519 -0.61380 -0.51007 254 254 254
0.22158 -0.61628 -0.50698 254 254 254
0.22796 -0.61876 -0.50389 254 254 254
0.23434 -0.62123 -0.50080 254 254 254
0.24071 -0.62371 -0.49771 254 254 254
0.24709 -0.62619 -0.49462 254 254 254
0.25346 -0.62867 -0.49154 254 254 254
0.25983 -0.63114 -0.48845 254 254 254
0.26620 -0.63362 -0.48537 254 254 254
0.27256 -0.63609 -0.48229 254 254 254
0.27892 -0.63856 -0.47921 254 254 254
0.28528 -0.64103 -0.47613 254 254 254
0.29164 -0.64351 -0.47305 254 254 254
0.29800 -0.64598 -0.46997 254 254 254
0.30435 -0.64845 -0.46689 254 254 254
0.31071 -0.65091 -0.46381 254 254 254
0.31706 -0.65338 -0.46074 254 254 254
0.32340 -0.65585 -0.45767 254 254 254
0.32975 -0.65832 -0.45459 254 254 254
0.33609 -0.66078 -0.45152 254 254 254
0.34243 -0.66325 -0.44845 254 254 254
0.34877 -0.66571 -0.44538 254 254 254
0.35511 -0.66817 -0.44231 254 254 254
-0.36125 -0.40042 -0.77874 250 249 251
-0.35470 -0.40297 -0.77557 250 249 251
-0.34815 -0.40551 -0.77241 250 249 251
-0.34160 -0.40805 -0.76924 250 249 251
-0.33506 -0.41059 -0.76607 250 249 251
-0.32852 -0.41313 -0.76290 250 249 251
-0.32198 -0.41567 -0.75974 251 249 251
-0.31544 -0.41821 -0.75658 251 249 251
-0.30891 -0.42075 -0.75341 251 249 251
-0.30238 -0.42329 -0.75025 251 249 251
-0.29585 -0.42582 -0.74709 251 249 251
-0.28932 -0.42836 -0.74393 251 249 251
-0.28280 -0.43089 -0.74078 251 249 251
-0.27627 -0.43342 -0.73762 251 249 251
-0.26975 -0.43596 -0.73446 251 249 251
-0.26323 -0.43849 -0.73131 251 250 251
-0.25672 -0.44102 -0.72815 251 250 251
-0.25020 -0.44355 -0.72500 251 250 251
-0.24369 -0.44608 -0.72185 251 250 251
-0.23718 -0.44861 -0.71870 251 250 250
-0.23068 -0.45113 -0.71555 251 250 250
-0.22417 -0.45366 -0.71240 251 250 251
-0.21767 -0.45618 -0.70925 251 250 251
-0.21117 -0.45871 -0.70611 251 250 251
-0.20467 -0.46123 -0.70296 252 250 251
-0.19817 -0.46375 -0.69982 252 250 251
-0.19168 -0.46628 -0.69668 252 251 251
-0.18519 -0.46880 -0.69353 252 251 251
-0.17870 -0.47132 -0.69039 252 251 251
-0.17221 -0.47384 -0.68725 252 251 252
-0.16573 -0.47636 -0.68412 252 252 252
-0.15925 -0.47887 -0.68098 252 252 252
-0.15277 -0.48139 -0.67784 252 252 252
-0.14629 -0.48390 -0.67471 252 252 252
-0.13981 -0.48642 -0.67157 252 252 253
-0.13334 -0.48893 -0.66844 253 253 253
-0.12687 -0.49145 -0.66531 253 253 253
-0.12040 -0.49396 -0.66218 253 253 253
-0.11393 -0.49647 -0.65905 253 253 253
-0.10747 -0.49898 -0.65592 253 253 253
-0.10100 -0.50149 -0.65279 253 253 254
-0.09454 -0.50400 -0.64966 254 254 254
-0.08809 -0.50651 -0.64654 254 254 254
-0.08163 -0.50901 -0.64341 254 254 254
-0.07518 -0.51152 -0.64029 254 254 254
-0.06873 -0.51403 -0.63717 254 254 254
-0.06228 -0.51653 -0.63405 254 254 254
-0.05583 -0.51903 -0.63093 254 254 254
-0.04939 -0.52154 -0.62781 254 254 254
-0.04294 -0.52404 -0.62469 254 254 254
-0.03650 -0.52654 -0.62157 254 254 254
-0.03007 -0.52904 -0.61846 254 254 254
-0.02363 -0.53154 -0.61534 254 254 254
-0.01720 -0.53404 -0.61223 254 254 254
-0.01077 -0.53654 -0.60912 254 254 254
-0.00434 -0.53903 -0.60601 254 254 254
0.00209 -0.54153 -0.60290 254 254 254
0.00851 -0.54402 -0.59979 254 254 254
0.01494 -0.54652 -0.59668 254 254 254
0.02136 -0.54901 -0.59357 254 254 254
0.02777 -0.55150 -0.59046 254 254 254
0.03419 -0.55399 -0.58736 254 254 254
0.04060 -0.55648 -0.58425 254 254 254
0.04701 -0.55897 -0.58115 254 254 254
0.05342 -0.56146 -0.57805 254 254 254
0.05983 -0.56395 -0.57495 254 254 254
0.06623 -0.56644 -0.57185 254 254 254
0.07264 -0.56893 -0.56875 254 254 254
0.07904 -0.57141 -0.56565 254 254 254
0.08543 -0.57390 -0.56256 254 254 254
0.09183 -0.57638 -0.55946 254 254 254
0.09822 -0.57886 -0.55637 254 254 254
0.10462 -0.58134 -0.55327 254 254 254
0.11100 -0.58383 -0.55018 254 254 254
0.11739 -0.58631 -0.54709 254 254 254
0.12378 -0.58879 -0.54400 254 254 254
0.13016 -0.59126 -0.54091 254 254 254
0.13654 -0.59374 -0.53782 254 254 254
0.14292 -0.59622 -0.53474 254 254 254
0.14929 -0.59870 -0.53165 254 254 254
0.15567 -0.60117 -0.52856 254 254 254
0.16204 -0.60365 -0.52548 254 254 254
0.16841 -0.60612 -0.52240 254 254 254
0.17478 -0.60859 -0.51932 254 254 254
0.18114 -0.61106 -0.51624 254 254 254
0.18750 -0.61354 -0.51316 254 254 254
0.19387 -0.61601 -0.51008 254 254 254
0.20022 -0.61848 -0.50700 254 254 254
0.20658 -0.62094 -0.50392 254 254 254
0.21294 -0.62341 -0.50085 254 254 254
0.21929 -0.62588 -0.49777 254 254 254
0.22564 -0.62834 -0.49470 254 254 254
0.23199 -0.63081 -0.49163 254 254 254
0.23833 -0.63327 -0.48856 254 254 254
0.24467 -0.63574 -0.48549 254 254 254
0.25102 -0.63820 -0.48242 254 254 254
0.25735 -0.64066 -0.47935 254 254 254
0.26369 -0.64312 -0.47628 254 254 254
0.27003 -0.64558 -0.47322 254 254 254
0.27636 -0.64804 -0.47015 254 254 254
0.28269 -0.65050 -0.46709 254 254 254
0.28902 -0.65296 -0.46403 254 254 254
0.29534 -0.65542 -0.46096 254 254 254
0.30167 -0.65787 -0.45790 254 254 254
0.30799 -0.66033 -0.45484 254 254 254
0.31431 -0.66278 -0.45178 254 254 254
0.32063 -0.66523 -0.44873 254 254 254
0.32694 -0.66769 -0.44567 254 254 254
0.33325 -0.67014 -0.44261 254 254 254
0.33957 -0.67259 -0.43956 254 254 254
0.34587 -0.67504 -0.43651 254 254 254
-0.36722 -0.40866 -0.77126 250 249 251
-0.36070 -0.41119 -0.76811 250 249 251
-0.35418 -0.41372 -0.76496 250 249 251
-0.34767 -0.41625 -0.76181 250 249 251
-0.34115 -0.41877 -0.75866 250 249 251
-0.33464 -0.42130 -0.75551 250 249 251
-0.32813 -0.42383 -0.75236 251 249 251
-0.32163 -0.42635 -0.74921 251 249 251
-0.31512 -0.42888 -0.74606 251 249 251
-0.30862 -0.43140 -0.74292 251 249 251
-0.30212 -0.43392 -0.73977 251 249 251
-0.29562 -0.43644 -0.73663 251 249 251
-0.28913 -0.43896 -0.73349 251 249 251
-0.28263 -0.44148 -0.73035 251 249 251
-0.27614 -0.44400 -0.72721 251 249 251
-0.26965 -0.44652 -0.72407 251 250 251
-0.26317 -0.44904 -0.72093 251 250 251
-0.25668 -0.45155 -0.71780 251 250 251
-0.25020 -0.45407 -0.71466 251 250 251
-0.24372 -0.45658 -0.71153 251 250 250
-0.23724 -0.45910 -0.70839 251 250 250
-0.23077 -0.46161 -0.70526 251 250 251
-0.22430 -0.46412 -0.70213 251 250 251
-0.21783 -0.46663 -0.69900 252 250 251
-0.21136 -0.46915 -0.69587 252 250 251
-0.20489 -0.47165 -0.69274 252 250 251
-0.19843 -0.47416 -0.68962 252 251 251
-0.19196 -0.47667 -0.68649 252 251 251
-0.18550 -0.47918 -0.68337 252 251 251
-0.17905 -0.48168 -0.68024 252 251 252
-0.17259 -0.48419 -0.67712 252 252 252
-0.16614 -0.48669 -0.67400 252 252 252
-0.15969 -0.48920 -0.67088 252 252 252
-0.15324 -0.49170 -0.66776 252 252 252
-0.14679 -0.49420 -0.66464 252 252 253
-0.14035 -0.49670 -0.66152 253 253 253
-0.13391 -0.49920 -0.65841 253 253 253
-0.12747 -0.50170 -0.65529 253 253 253
-0.12103 -0.50420 -0.65218 253 253 253
-0.11459 -0.50670 -0.64907 253 253 253
-0.10816 -0.50919 -0.64595 253 253 254
-0.10173 -0.51169 -0.64284 254 254 254
-0.09530 -0.51418 -0.63973 254 254 254
-0.08888 -0.51668 -0.63663 254 254 254
-0.08245 -0.51917 -0.63352 254 254 254
-0.07603 -0.52166 -0.63041 254 254 254
-0.06961 -0.52415 -0.62731 254 254 254
-0.06319 -0.52664 -0.62420 254 254 254
-0.05678 -0.52913 -0.62110 254 254 254
-0.05036 -0.53162 -0.61800 254 254 254
-0.04395 -0.53411 -0.61490 254 254 254
-0.03754 -0.53660 -0.61180 254 254 254
-0.03114 -0.53908 -0.60870 254 254 254
-0.02473 -0.54157 -0.60560 254 254 254
-0.01833 -0.54405 -0.60250 254 254 254
-0.01193 -0.54654 -0.59941 254 254 254
-0.00553 -0.54902 -0.59631 254 254 254
0.00086 -0.55150 -0.59322 254 254 254
0.00726 -0.55398 -0.59012 254 254 254
0.01365 -0.55646 -0.58703 254 254 254
0.02004 -0.55894 -0.58394 254 254 254
0.02642 -0.56142 -0.58085 254 254 254
0.03281 -0.56390 -0.57776 254 254 254
0.03919 -0.56638 -0.57468 254 254 254
0.04557 -0.56885 -0.57159 254 254 254
0.05195 -0.57133 -0.56851 254 254 254
0.05833 -0.57380 -0.56542 254 254 254
0.06470 -0.57628 -0.56234 254 254 254
0.07107 -0.57875 -0.55926 254 254 254
0.07744 -0.58122 -0.55618 254 254 254
0.08381 -0.58369 -0.55310 254 254 254
0.09017 -0.58616 -0.55002 254 254 254
0.09654 -0.58863 -0.54694 254 254 254
0.10290 -0.59110 -0.54386 254 254 254
0.10926 -0.59357 -0.54079 254 254 254
0.11561 -0.59603 -0.53771 254 254 254
0.12197 -0.59850 -0.53464 254 254 254
0.12832 -0.60096 -0.53157 254 254 254
0.13467 -0.60343 -0.52849 254 254 254
0.14102 -0.60589 -0.52542 254 254 254
0.14736 -0.60836 -0.52235 254 254 254
0.15370 -0.61082 -0.51929 254 254 254
0.16005 -0.61328 -0.51622 254 254 254
0.16638 -0.61574 -0.51315 254 254 254
0.17272 -0.61820 -0.51009 254 254 254
0.17906 -0.62066 -0.50702 254 254 254
0.18539 -0.62311 -0.50396 254 254 254
0.19172 -0.62557 -0.50090 254 254 254
0.19805 -0.62803 -0.49784 254 254 254
0.20437 -0.63048 -0.49478 254 254 254
0.21070 -0.63293 -0.49172 254 254 254
0.21702 -0.63539 -0.48866 254 254 254
0.22334 -0.63784 -0.48560 254 254 254
0.22966 -0.64029 -0.48255 254 254 254
0.23597 -0.64274 -0.47949 254 254 254
0.24229 -0.64519 -0.47644 254 254 254
0.24860 -0.64764 -0.47339 254 254 254
0.25491 -0.65009 -0.47033 254 254 254
0.26121 -0.65254 -0.46728 254 254 254
0.26752 -0.65498 -0.46423 254 254 254
0.27382 -0.65743 -0.46119 254 254 254
0.28012 -0.65988 -0.45814 254 254 254
0.28642 -0.66232 -0.45509 254 254 254
0.29271 -0.66476 -0.45205 254 254 254
0.29901 -0.66721 -0.44900 254 254 254
0.30530 -0.66965 -0.44596 254 254 254
0.31159 -0.67209 -0.44292 254 254 254
0.31788 -0.67453 -0.43987 254 254 254
0.32416 -0.67697 -0.43683 254 254 254
0.33044 -0.67941 -0.43379 254 254 254
0.33673 -0.68184 -0.43076 254 254 254
-0.37314 -0.41681 -0.76385 250 249 251
-0.36665 -0.41933 -0.76072 250 249 251
-0.36016 -0.42185 -0.75758 250 249 251
-0.35367 -0.42436 -0.75444 250 249 251
-0.34719 -0.42688 -0.75131 250 249 251
-0.34071 -0.42939 -0.74818 250 249 251
-0.33423 -0.43190 -0.74504 251 249 251
-0.32775 -0.43442 -0.74191 251 249 251
-0.32128 -0.43693 -0.73878 251 249 251
-0.31480 -0.43944 -0.73565 251 249 251
-0.30833 -0.44195 -0.73252 251 249 251
-0.30187 -0.44445 -0.72940 251 249 251
-0.29540 -0.44696 -0.72627 251 249 251
-0.28894 -0.44947 -0.72315 251 249 251
-0.28247 -0.45197 -0.72002 251 249 251
-0.27602 -0.45448 -0.71690 251 250 251
-0.26956 -0.45698 -0.71378 251 250 251
-0.26310 -0.45949 -0.71066 251 250 251
-0.25665 -0.46199 -0.70754 251 250 251
-0.25020 -0.46449 -0.70442 251 250 250
-0.24375 -0.46699 -0.70130 251 250 250
-0.23731 -0.46949 -0.69819 251 250 251
-0.23086 -0.47199 -0.69507 251 250 251
-0.22442 -0.47449 -0.69196 252 250 251
-0.21798 -0.47698 -0.68885 252 250 251
-0.21154 -0.47948 -0.68573 252 250 251
-0.20511 -0.48198 -0.68262 252 251 251
-0.19868 -0.48447 -0.67951 252 251 251
-0.19225 -0.48696 -0.67640 252 251 251
-0.18582 -0.48946 -0.67330 252 251 252
-0.17939 -0.49195 -0.67019 252 252 252
-0.17297 -0.49444 -0.66708 252 252 252
-0.16655 -0.49693 -0.66398 252 252 252
-0.16013 -0.49942 -0.66088 252 252 252
-0.15371 -0.50191 -0.65777 252 252 253
-0.14729 -0.50440 -0.65467 253 253 253
-0.14088 -0.50688 -0.65157 253 253 253
-0.13447 -0.50937 -0.64847 253 253 253
-0.12806 -0.51185 -0.64537 253 253 253
-0.12166 -0.51434 -0.64228 253 253 253
-0.11525 -0.51682 -0.63918 253 253 254
-0.10885 -0.51931 -0.63609 254 254 254
-0.10245 -0.52179 -0.63299 254 254 254
-0.09605 -0.52427 -0.62990 254 254 254
-0.08966 -0.52675 -0.62681 254 254 254
-0.08326 -0.52923 -0.62372 254 254 254
-0.07687 -0.53171 -0.62063 254 254 254
-0.07048 -0.53418 -0.61754 254 254 254
-0.06410 -0.53666 -0.61445 254 254 254
-0.05771 -0.53914 -0.61136 254 254 254
-0.05133 -0.54161 -0.60828 254 254 254
-0.04495 -0.54409 -0.60519 254 254 254
-0.03857 -0.54656 -0.60211 254 254 254
-0.03220 -0.54903 -0.59903 254 254 254
-0.02582 -0.55150 -0.59595 254 254 254
-0.01945 -0.55397 -0.59287 254 254 254
-0.01308 -0.55644 -0.58979 254 254 254
-0.00672 -0.55891 -0.58671 254 254 254
-0.00035 -0.56138 -0.58363 254 254 254
0.00601 -0.56385 -0.58056 254 254 254
0.01237 -0.56632 -0.57748 254 254 254
0.01873 -0.56878 -0.57441 254 254 254
0.02509 -0.57125 -0.57134 254 254 254
0.03144 -0.57371 -0.56826 254 254 254
0.03779 -0.57617 -0.56519 254 254 254
0.04414 -0.57864 -0.56212 254 254 254
0.05049 -0.58110 -0.55905 254 254 254
0.05684 -0.58356 -0.55599 254 254 254
0.06318 -0.58602 -0.55292 254 254 254
0.06952 -0.58848 -0.54985 254 254 254
0.07586 -0.59094 -0.54679 254 254 254
0.08220 -0.59339 -0.54373 254 254 254
0.08853 -0.59585 -0.54066 254 254 254
0.09486 -0.59831 -0.53760 254 254 254
0.10119 -0.60076 -0.53454 254 254 254
0.10752 -0.60321 -0.53148 254 254 254
0.11385 -0.60567 -0.52842 254 254 254
0.12017 -0.60812 -0.52537 254 254 254
0.12649 -0.61057 -0.52231 254 254 254
0.13281 -0.61302 -0.51926 254 254 254
0.13913 -0.61547 -0.51620 254 254 254
0.14545 -0.61792 -0.51315 254 254 254
0.15176 -0.62037 -0.51010 254 254 254
0.15807 -0.62282 -0.50705 254 254 254
0.16438 -0.62526 -0.50400 254 254 254
0.17069 -0.62771 -0.50095 254 254 254
0.17699 -0.63015 -0.49790 254 254 254
0.18329 -0.63260 -0.49485 254 254 254
0.18959 -0.63504 -0.49181 254 254 254
0.19589 -0.63748 -0.48876 254 254 254
0.20219 -0.63993 -0.48572 254 254 254
0.20848 -0.64237 -0.48268 254 254 254
0.21477 -0.64481 -0.47963 254 254 254
0.22106 -0.64725 -0.47659 254 254 254
0.22735 -0.64968 -0.47355 254 254 254
0.23364 -0.65212 -0.47051 254 254 254
0.23992 -0.65456 -0.46748 254 254 254
0.24620 -0.65699 -0.46444 254 254 254
0.25248 -0.65943 -0.46141 254 254 254
0.25876 -0.66186 -0.45837 254 254 254
0.26503 -0.66430 -0.45534 254 254 254
0.27130 -0.66673 -0.45230 254 254 254
0.27757 -0.66916 -0.44927 254 254 254
0.28384 -0.67159 -0.44624 254 254 254
0.29011 -0.67402 -0.44321 254 254 254
0.29637 -0.67645 -0.44019 254 254 254
0.30263 -0.67888 -0.43716 254 254 254
0.30889 -0.68131 -0.43413 254 254 254
0.31515 -0.68373 -0.43111 254 254 254
0.32141 -0.68616 -0.42808 254 254 254
0.32766 -0.68858 -0.42506 254 254 254
-0.37900 -0.42489 -0.75651 250 249 251
-0.37254 -0.42740 -0.75339 250 249 251
-0.36608 -0.42990 -0.75027 250 249 251
-0.35962 -0.43240 -0.74715 250 249 251
-0.35317 -0.43490 -0.74403 250 249 251
-0.34672 -0.43740 -0.74091 250 249 251
-0.34027 -0.43990 -0.73780 251 249 251
-0.33382 -0.44240 -0.73468 251 249 251
-0.32737 -0.44490 -0.73157 251 249 251
-0.32093 -0.44740 -0.72846 251 249 251
-0.31449 -0.44989 -0.72534 251 249 251
-0.30805 -0.45239 -0.72223 251 249 251
-0.30161 -0.45488 -0.71912 251 249 251
-0.29518 -0.45738 -0.71601 251 249 251
-0.28875 -0.45987 -0.71291 251 250 251
-0.28232 -0.46236 -0.70980 251 250 251
-0.27589 -0.46485 -0.70669 251 250 251
-0.26946 -0.46734 -0.70359 251 250 251
-0.26304 -0.46983 -0.70048 251 250 251
-0.25662 -0.47232 -0.69738 251 250 250
-0.25020 -0.47481 -0.69428 251 250 250
-0.24378 -0.47729 -0.69118 251 250 251
-0.23737 -0.47978 -0.68808 251 250 251
-0.23096 -0.48227 -0.68498 252 250 251
-0.22454 -0.48475 -0.68188 252 250 251
-0.21814 -0.48723 -0.67879 252 250 251
-0.21173 -0.48972 -0.67569 252 251 251
-0.20533 -0.49220 -0.67260 252 251 251
-0.19893 -0.49468 -0.66951 252 251 251
-0.19253 -0.49716 -0.66641 252 251 252
-0.18613 -0.49964 -0.66332 252 252 252
-0.17973 -0.50212 -0.66023 252 252 252
-0.17334 -0.50459 -0.65714 252 252 252
-0.16695 -0.50707 -0.65406 252 252 252
-0.16056 -0.50954 -0.65097 252 252 253
-0.15417 -0.51202 -0.64788 253 253 253
-0.14779 -0.51449 -0.64480 253 253 253
-0.14141 -0.51697 -0.64172 253 253 253
-0.13503 -0.51944 -0.63863 253 253 253
-0.12865 -0.52191 -0.63555 253 253 253
-0.12228 -0.52438 -0.63247 253 253 254
-0.11590 -0.52685 -0.62939 254 254 254
-0.10953 -0.52932 -0.62631 254 254 254
-0.10316 -0.53179 -0.62324 254 254 254
-0.09680 -0.53426 -0.62016 254 254 254
-0.09043 -0.53672 -0.61708 254 254 254
-0.08407 -0.53919 -0.61401 254 254 254
-0.07771 -0.54165 -0.61094 254 254 254
-0.07135 -0.54412 -0.60787 254 254 254
-0.06499 -0.54658 -0.60479 254 254 254
-0.05864 -0.54904 -0.60172 254 254 254
-0.05229 -0.55150 -0.59866 254 254 254
-0.04594 -0.55396 -0.59559 254 254 254
-0.03959 -0.55642 -0.59252 254 254 254
-0.03325 -0.55888 -0.58945 254 254 254
-0.02690 -0.56134 -0.58639 254 254 254
-0.02056 -0.56380 -0.58333 254 254 254
-0.01422 -0.56625 -0.58026 254 254 254
-0.00789 -0.56871 -0.57720 254 254 254
-0.00155 -0.57116 -0.57414 254 254 254
0.00478 -0.57362 -0.57108 254 254 254
0.01111 -0.57607 -0.56802 254 254 254
0.01744 -0.57852 -0.56497 254 254 254
0.02376 -0.58098 -0.56191 254 254 254
0.03009 -0.58343 -0.55885 254 254 254
