ply
format ascii 1.0
element face 0
property list uchar int vertex_indices
element vertex 1260
property float x
property float y
property float z
property uchar diffuse_red
property uchar diffuse_green
property uchar diffuse_blue
end_header
1.24304 -3.68072 0.08996 151 151 132
1.23392 -3.68966 0.09624 154 150 136
1.22479 -3.69861 0.10252 149 148 146
1.21567 -3.70756 0.10879 149 150 146
1.20654 -3.71650 0.11507 153 155 145
1.19741 -3.72545 0.12135 157 159 142
1.18829 -3.73440 0.12763 162 160 145
2.08294 -2.83562 -0.50470 120 116 119
2.07391 -2.84447 -0.49848 124 129 116
2.06488 -2.85332 -0.49227 122 120 122
2.05585 -2.86218 -0.48606 123 134 132
2.04682 -2.87103 -0.47984 124 121 111
2.03779 -2.87988 -0.47363 131 137 116
2.02875 -2.88874 -0.46741 128 129 125
2.01972 -2.89759 -0.46120 129 123 130
2.01068 -2.90645 -0.45498 131 130 129
2.00165 -2.91531 -0.44877 132 127 127
1.99261 -2.92417 -0.44255 128 133 132
1.98357 -2.93302 -0.43633 135 140 137
1.97454 -2.94188 -0.43012 118 116 124
1.96550 -2.95074 -0.42390 128 129 124
1.95646 -2.95960 -0.41768 140 146 138
1.94742 -2.96846 -0.41146 136 133 134
1.93838 -2.97732 -0.40524 141 137 134
1.92934 -2.98619 -0.39902 141 137 132
1.92030 -2.99505 -0.39280 143 142 134
1.91126 -3.00391 -0.38658 145 148 137
1.90221 -3.01278 -0.38036 146 146 137
1.89317 -3.02164 -0.37414 145 148 138
1.88412 -3.03051 -0.36792 144 149 134
1.87508 -3.03937 -0.36169 138 141 127
1.86603 -3.04824 -0.35547 135 136 125
1.85699 -3.05711 -0.34925 136 134 123
1.84794 -3.06597 -0.34302 139 136 129
1.83889 -3.07484 -0.33680 144 148 141
1.82985 -3.08371 -0.33057 142 150 143
1.82080 -3.09258 -0.32435 145 153 144
1.81175 -3.10145 -0.31812 151 154 144
1.80270 -3.11032 -0.31190 151 154 143
1.79365 -3.11920 -0.30567 150 149 134
1.78459 -3.12807 -0.29944 142 142 134
1.77554 -3.13694 -0.29321 134 142 135
1.76649 -3.14582 -0.28699 147 148 141
1.75744 -3.15469 -0.28076 128 126 131
1.74838 -3.16357 -0.27453 126 130 125
1.73933 -3.17244 -0.26830 147 155 161
1.73027 -3.18132 -0.26207 133 144 138
1.72121 -3.19020 -0.25584 142 150 145
1.71216 -3.19907 -0.24961 149 159 142
1.70310 -3.20795 -0.24338 148 147 137
1.69404 -3.21683 -0.23714 151 157 152
1.68498 -3.22571 -0.23091 152 150 139
1.67592 -3.23459 -0.22468 159 154 140
1.66686 -3.24347 -0.21845 159 155 149
1.65780 -3.25235 -0.21221 158 157 149
1.64874 -3.26124 -0.20598 151 152 151
1.63968 -3.27012 -0.19974 154 158 148
1.63062 -3.27900 -0.19351 148 150 138
1.62155 -3.28789 -0.18727 145 140 130
1.61249 -3.29677 -0.18104 149 148 135
1.60342 -3.30566 -0.17480 149 154 141
1.59436 -3.31454 -0.16856 147 153 142
1.58529 -3.32343 -0.16233 149 154 145
1.57622 -3.33232 -0.15609 143 145 140
1.56716 -3.34121 -0.14985 137 137 131
1.55809 -3.35010 -0.14361 147 149 131
1.54902 -3.35898 -0.13737 145 148 125
1.53995 -3.36787 -0.13113 141 146 124
1.53088 -3.37677 -0.12489 142 143 119
1.52181 -3.38566 -0.11865 127 128 116
1.51274 -3.39455 -0.11241 134 138 122
1.50366 -3.40344 -0.10617 151 154 139
1.49459 -3.41234 -0.09993 151 151 133
1.48552 -3.42123 -0.09369 154 150 132
1.47644 -3.43012 -0.08744 157 157 132
1.46737 -3.43902 -0.08120 143 139 127
1.45829 -3.44792 -0.07496 143 141 129
1.44922 -3.45681 -0.06871 152 152 135
1.44014 -3.46571 -0.06247 144 148 132
1.43106 -3.47461 -0.05622 141 132 113
1.42198 -3.48351 -0.04998 141 145 138
1.41290 -3.49241 -0.04373 136 141 130
1.40382 -3.50131 -0.03748 138 133 121
1.39474 -3.51021 -0.03124 142 142 133
1.38566 -3.51911 -0.02499 148 153 140
1.37658 -3.52801 -0.01874 155 157 146
1.36750 -3.53691 -0.01249 156 157 150
1.35842 -3.54582 -0.00624 155 155 142
1.34933 -3.55472 0.00000 153 153 143
1.34025 -3.56363 0.00625 153 154 146
1.33116 -3.57253 0.01250 150 154 138
1.32208 -3.58144 0.01876 145 146 132
1.31299 -3.59034 0.02501 141 141 130
1.30390 -3.59925 0.03126 142 141 133
1.29482 -3.60816 0.03751 145 145 138
1.28573 -3.61707 0.04376 142 143 139
1.27664 -3.62598 0.05002 139 141 136
1.26755 -3.63489 0.05627 135 141 131
1.25846 -3.64380 0.06252 130 138 128
1.24937 -3.65271 0.06878 135 142 131
1.24028 -3.66162 0.07503 140 145 132
1.23118 -3.67053 0.08129 143 150 132
1.22209 -3.67945 0.08754 142 147 133
1.21300 -3.68836 0.09380 141 144 138
1.20390 -3.69727 0.10006 143 148 140
1.19481 -3.70619 0.10631 145 147 136
1.18571 -3.71511 0.11257 146 144 137
1.17662 -3.72402 0.11883 148 146 138
2.07723 -2.81964 -0.51742 113 118 112
2.06823 -2.82846 -0.51123 126 129 119
2.05924 -2.83728 -0.50504 127 127 122
2.05024 -2.84610 -0.49885 126 127 125
2.04123 -2.85492 -0.49266 123 123 127
2.03223 -2.86374 -0.48647 116 117 115
2.02323 -2.87256 -0.48027 131 129 114
2.01423 -2.88139 -0.47408 123 122 114
2.00523 -2.89021 -0.46789 127 133 123
1.99622 -2.89904 -0.46169 134 135 126
1.98722 -2.90786 -0.45550 137 138 123
1.97821 -2.91669 -0.44931 129 131 129
1.96921 -2.92552 -0.44311 134 138 133
1.96020 -2.93434 -0.43691 133 133 128
1.95119 -2.94317 -0.43072 135 136 131
1.94218 -2.95200 -0.42452 144 143 139
1.93318 -2.96083 -0.41833 143 140 134
1.92417 -2.96966 -0.41213 140 141 133
1.91516 -2.97849 -0.40593 140 140 133
1.90615 -2.98732 -0.39973 143 145 137
1.89714 -2.99616 -0.39353 145 149 137
1.88812 -3.00499 -0.38733 139 141 130
1.87911 -3.01382 -0.38113 139 140 133
1.87010 -3.02266 -0.37493 144 147 135
1.86108 -3.03149 -0.36873 144 147 130
1.85207 -3.04033 -0.36253 143 146 129
1.84305 -3.04916 -0.35633 142 142 126
1.83404 -3.05800 -0.35013 140 138 127
1.82502 -3.06684 -0.34393 142 141 134
1.81601 -3.07567 -0.33772 144 143 133
1.80699 -3.08451 -0.33152 144 145 137
1.79797 -3.09335 -0.32532 146 146 137
1.78895 -3.10219 -0.31911 148 150 136
1.77993 -3.11103 -0.31291 150 155 136
1.77091 -3.11987 -0.30670 143 147 135
1.76189 -3.12872 -0.30050 135 137 130
1.75287 -3.13756 -0.29429 147 147 135
1.74384 -3.14640 -0.28808 136 131 127
1.73482 -3.15525 -0.28188 126 127 123
1.72580 -3.16409 -0.27567 144 146 155
1.71677 -3.17293 -0.26946 143 149 142
1.70775 -3.18178 -0.26325 149 152 140
1.69872 -3.19063 -0.25704 152 157 144
1.68970 -3.19947 -0.25084 151 154 146
1.68067 -3.20832 -0.24463 154 161 152
1.67164 -3.21717 -0.23842 155 157 146
1.66261 -3.22602 -0.23220 152 158 146
1.65358 -3.23487 -0.22599 154 157 150
1.64455 -3.24372 -0.21978 158 157 145
1.63552 -3.25257 -0.21357 147 143 145
1.62649 -3.26142 -0.20736 143 147 144
1.61746 -3.27027 -0.20114 143 149 137
1.60843 -3.27913 -0.19493 148 146 132
1.59940 -3.28798 -0.18872 152 148 136
1.59036 -3.29684 -0.18250 151 152 144
1.58133 -3.30569 -0.17629 147 149 146
1.57229 -3.31455 -0.17007 145 147 148
1.56326 -3.32340 -0.16386 142 146 142
1.55422 -3.33226 -0.15764 140 139 129
1.54518 -3.34112 -0.15142 145 146 130
1.53615 -3.34997 -0.14521 147 148 133
1.52711 -3.35883 -0.13899 146 146 128
1.51807 -3.36769 -0.13277 149 152 130
1.50903 -3.37655 -0.12655 138 142 130
1.49999 -3.38541 -0.12034 140 139 123
1.49095 -3.39427 -0.11412 147 143 136
1.48191 -3.40314 -0.10790 144 148 127
1.47286 -3.41200 -0.10168 139 139 120
1.46382 -3.42086 -0.09546 145 151 127
1.45478 -3.42973 -0.08923 138 138 128
1.44573 -3.43859 -0.08301 140 139 130
1.43669 -3.44746 -0.07679 157 154 133
1.42764 -3.45632 -0.07057 153 149 133
1.41860 -3.46519 -0.06434 142 136 122
1.40955 -3.47406 -0.05812 137 138 135
1.40050 -3.48292 -0.05190 138 138 130
1.39145 -3.49179 -0.04567 140 140 123
1.38240 -3.50066 -0.03945 146 148 132
1.37335 -3.50953 -0.03322 149 150 141
1.36430 -3.51840 -0.02700 153 159 150
1.35525 -3.52727 -0.02077 155 155 142
1.34620 -3.53615 -0.01454 153 147 133
1.33715 -3.54502 -0.00832 150 150 141
1.32810 -3.55389 -0.00209 153 155 145
1.31904 -3.56276 0.00414 154 151 137
1.30999 -3.57164 0.01037 138 132 132
1.30093 -3.58051 0.01660 130 130 129
1.29188 -3.58939 0.02282 143 147 135
1.28282 -3.59827 0.02905 149 149 138
1.27376 -3.60714 0.03528 142 139 137
1.26471 -3.61602 0.04152 145 146 142
1.25565 -3.62490 0.04775 152 155 138
1.24659 -3.63378 0.05398 147 149 128
1.23753 -3.64266 0.06021 139 141 129
1.22847 -3.65154 0.06644 135 136 131
2.08053 -2.79498 -0.53623 124 125 124
2.07156 -2.80376 -0.53006 126 118 110
2.06260 -2.81255 -0.52389 114 113 122
2.05363 -2.82134 -0.51772 130 129 120
2.04466 -2.83013 -0.51155 132 130 124
2.03569 -2.83892 -0.50538 130 134 127
2.02672 -2.84771 -0.49921 127 129 124
2.01775 -2.85650 -0.49304 110 115 117
2.00878 -2.86529 -0.48687 123 119 119
1.99981 -2.87409 -0.48070 127 123 121
1.99083 -2.88288 -0.47453 133 137 126
1.98186 -2.89168 -0.46836 140 141 132
1.97289 -2.90047 -0.46219 141 145 135
1.96391 -2.90927 -0.45601 141 148 143
1.95494 -2.91806 -0.44984 141 141 133
1.94596 -2.92686 -0.44367 147 143 131
1.93699 -2.93566 -0.43749 144 144 134
1.92801 -2.94445 -0.43132 144 145 138
1.91903 -2.95325 -0.42514 143 144 139
1.91005 -2.96205 -0.41897 132 131 136
1.90107 -2.97085 -0.41279 135 138 133
1.89209 -2.97965 -0.40661 142 145 137
1.88311 -2.98845 -0.40044 148 154 141
1.87413 -2.99725 -0.39426 144 151 133
1.86515 -3.00606 -0.38808 145 147 130
1.85617 -3.01486 -0.38190 148 150 134
1.84719 -3.02366 -0.37572 148 148 134
1.83820 -3.03247 -0.36955 148 149 136
1.82922 -3.04127 -0.36337 147 151 137
1.82023 -3.05008 -0.35719 143 143 135
1.81125 -3.05888 -0.35101 142 140 136
1.80226 -3.06769 -0.34482 149 152 141
1.79327 -3.07650 -0.33864 154 156 146
1.78429 -3.08531 -0.33246 150 148 136
1.77530 -3.09412 -0.32628 148 148 137
1.76631 -3.10293 -0.32010 150 150 133
1.75732 -3.11174 -0.31391 143 141 130
1.74833 -3.12055 -0.30773 134 137 128
1.73934 -3.12936 -0.30154 149 154 133
1.73035 -3.13817 -0.29536 140 138 130
1.72136 -3.14698 -0.28917 142 143 127
1.71236 -3.15580 -0.28299 145 140 142
1.70337 -3.16461 -0.27680 149 151 140
1.69438 -3.17342 -0.27062 157 160 142
1.68538 -3.18224 -0.26443 150 156 146
1.66739 -3.19987 -0.25205 149 153 144
1.65839 -3.20869 -0.24587 158 158 146
1.64940 -3.21751 -0.23968 159 158 147
1.64040 -3.22633 -0.23349 156 154 147
1.63140 -3.23515 -0.22730 157 157 143
1.62240 -3.24397 -0.22111 144 145 139
1.61340 -3.25279 -0.21492 130 130 122
1.60440 -3.26161 -0.20873 132 138 126
1.59540 -3.27043 -0.20254 147 150 136
1.58639 -3.27925 -0.19634 156 155 143
1.57739 -3.28807 -0.19015 155 156 142
1.56839 -3.29690 -0.18396 148 148 128
1.55938 -3.30572 -0.17777 140 139 122
1.55038 -3.31455 -0.17157 139 146 131
1.54138 -3.32337 -0.16538 141 149 136
1.53237 -3.33220 -0.15918 137 137 129
1.52336 -3.34103 -0.15299 137 136 128
1.51436 -3.34985 -0.14679 143 149 135
1.50535 -3.35868 -0.14060 153 158 139
1.49634 -3.36751 -0.13440 159 160 144
1.48733 -3.37634 -0.12820 164 161 142
1.47832 -3.38517 -0.12201 153 153 136
1.46931 -3.39400 -0.11581 146 149 129
1.46030 -3.40283 -0.10961 141 141 126
1.45129 -3.41166 -0.10341 146 153 132
1.44227 -3.42050 -0.09721 146 149 136
1.43326 -3.42933 -0.09101 146 145 133
1.42425 -3.43816 -0.08481 151 154 133
1.41523 -3.44700 -0.07861 158 159 151
1.40622 -3.45583 -0.07241 145 146 135
1.39720 -3.46467 -0.06621 138 136 130
1.38818 -3.47351 -0.06001 142 142 131
1.37917 -3.48234 -0.05380 141 144 119
1.37015 -3.49118 -0.04760 151 154 124
1.36113 -3.50002 -0.04140 150 149 135
1.35211 -3.50886 -0.03520 146 145 144
1.34309 -3.51770 -0.02899 148 152 138
1.33407 -3.52654 -0.02279 149 149 130
1.32505 -3.53538 -0.01658 141 142 136
1.31603 -3.54422 -0.01038 150 156 142
1.30701 -3.55307 -0.00417 158 160 137
1.29798 -3.56191 0.00204 155 156 134
1.28896 -3.57075 0.00824 154 154 136
1.27993 -3.57960 0.01445 151 149 130
1.27091 -3.58844 0.02066 144 140 122
1.26188 -3.59729 0.02687 139 136 122
1.25286 -3.60613 0.03308 132 128 123
1.24383 -3.61498 0.03928 128 126 127
1.23480 -3.62383 0.04549 136 135 134
1.22577 -3.63268 0.05170 140 137 136
2.09274 -2.76174 -0.56104 95 99 98
2.07487 -2.77925 -0.54875 118 116 117
2.06593 -2.78800 -0.54261 120 119 115
2.05700 -2.79676 -0.53646 117 111 108
2.04806 -2.80552 -0.53031 117 120 127
2.03912 -2.81428 -0.52417 122 126 133
2.03018 -2.82303 -0.51802 125 126 129
2.02125 -2.83179 -0.51187 129 136 135
2.01231 -2.84055 -0.50572 134 135 135
2.00337 -2.84931 -0.49958 104 97 106
1.99443 -2.85808 -0.49343 125 127 124
1.98548 -2.86684 -0.48728 136 137 129
1.97654 -2.87560 -0.48113 140 146 134
1.96760 -2.88436 -0.47498 148 151 142
1.95866 -2.89313 -0.46883 145 144 139
1.94971 -2.90189 -0.46267 143 146 144
1.94077 -2.91066 -0.45652 146 151 134
1.93182 -2.91942 -0.45037 144 144 136
1.92288 -2.92819 -0.44422 145 144 140
1.91393 -2.93696 -0.43807 141 144 138
1.90498 -2.94573 -0.43191 137 144 133
1.89604 -2.95449 -0.42576 126 123 121
1.88709 -2.96326 -0.41960 133 133 129
1.87814 -2.97203 -0.41345 140 138 138
1.86919 -2.98080 -0.40729 147 149 139
1.86024 -2.98957 -0.40114 142 146 134
1.85129 -2.99835 -0.39498 138 139 127
1.84234 -3.00712 -0.38882 145 149 135
1.83338 -3.01589 -0.38267 154 157 146
1.82443 -3.02466 -0.37651 154 156 144
1.81548 -3.03344 -0.37035 148 153 139
1.80652 -3.04221 -0.36419 143 149 137
1.79757 -3.05099 -0.35803 143 146 143
1.78861 -3.05976 -0.35188 151 155 152
1.77966 -3.06854 -0.34572 153 154 151
1.77070 -3.07732 -0.33956 142 136 137
1.76174 -3.08610 -0.33339 143 144 143
1.75278 -3.09487 -0.32723 149 152 138
1.74383 -3.10365 -0.32107 150 151 139
1.73487 -3.11243 -0.31491 149 154 132
1.72591 -3.12121 -0.30875 154 156 137
1.71695 -3.13000 -0.30258 146 145 139
1.70798 -3.13878 -0.29642 137 136 129
1.69902 -3.14756 -0.29026 137 138 139
1.69006 -3.15634 -0.28409 149 154 144
1.68110 -3.16513 -0.27793 158 163 145
1.64524 -3.20027 -0.25327 152 157 143
1.63627 -3.20906 -0.24710 157 160 152
1.62730 -3.21784 -0.24093 155 152 151
1.61833 -3.22663 -0.23476 159 164 150
1.60937 -3.23542 -0.22859 150 158 142
1.60040 -3.24421 -0.22243 135 138 124
1.59143 -3.25300 -0.21626 131 131 123
1.58246 -3.26179 -0.21009 135 136 133
1.57348 -3.27058 -0.20392 144 146 141
1.56451 -3.27937 -0.19775 151 156 142
1.55554 -3.28817 -0.19158 155 160 139
1.54657 -3.29696 -0.18540 150 152 136
1.53759 -3.30575 -0.17923 136 141 134
1.52862 -3.31455 -0.17306 131 137 135
1.51964 -3.32334 -0.16689 130 132 128
1.51067 -3.33214 -0.16071 131 131 125
1.50169 -3.34094 -0.15454 139 141 133
1.49271 -3.34973 -0.14837 149 151 137
1.48374 -3.35853 -0.14219 151 155 144
1.47476 -3.36733 -0.13602 160 161 146
1.46578 -3.37613 -0.12984 150 145 138
1.45680 -3.38493 -0.12366 138 136 137
1.44782 -3.39373 -0.11749 140 146 136
1.43884 -3.40253 -0.11131 147 155 143
1.42986 -3.41133 -0.10513 150 157 149
1.42087 -3.42013 -0.09896 151 154 136
1.41189 -3.42894 -0.09278 140 141 136
1.40291 -3.43774 -0.08660 156 161 151
1.39392 -3.44655 -0.08042 157 158 146
1.38494 -3.45535 -0.07424 152 158 145
1.37595 -3.46416 -0.06806 152 156 134
1.36697 -3.47296 -0.06188 147 148 130
1.35798 -3.48177 -0.05570 143 139 135
1.34899 -3.49058 -0.04952 142 139 135
1.34000 -3.49938 -0.04334 140 140 136
1.33101 -3.50819 -0.03715 148 149 143
1.32202 -3.51700 -0.03097 152 156 143
1.31303 -3.52581 -0.02479 153 153 142
1.30404 -3.53462 -0.01860 159 160 148
1.29505 -3.54343 -0.01242 157 156 143
1.28606 -3.55225 -0.00624 153 148 138
1.27707 -3.56106 -0.00005 159 159 144
1.26807 -3.56987 0.00613 154 150 129
1.25908 -3.57869 0.01232 135 122 108
1.25008 -3.58750 0.01851 123 119 114
1.24109 -3.59632 0.02469 121 123 122
1.23209 -3.60513 0.03088 119 122 124
1.22310 -3.61395 0.03707 130 139 130
1.21410 -3.62277 0.04326 140 142 123
2.08705 -2.74618 -0.57343 94 102 93
2.06924 -2.76363 -0.56119 110 109 112
2.06034 -2.77235 -0.55507 117 118 117
2.05144 -2.78108 -0.54894 116 116 111
2.04253 -2.78980 -0.54282 112 114 111
2.03362 -2.79853 -0.53669 119 124 114
2.02472 -2.80726 -0.53057 118 118 118
2.01581 -2.81599 -0.52444 118 127 127
2.00690 -2.82472 -0.51832 125 127 127
1.99799 -2.83345 -0.51219 139 134 121
1.98908 -2.84218 -0.50606 125 126 109
1.98017 -2.85091 -0.49993 133 139 123
1.97126 -2.85964 -0.49381 138 141 132
1.96235 -2.86837 -0.48768 136 141 136
1.95344 -2.87710 -0.48155 141 136 134
1.94453 -2.88584 -0.47542 142 136 126
1.93561 -2.89457 -0.46929 140 138 138
1.92670 -2.90331 -0.46316 146 147 142
1.91778 -2.91204 -0.45703 137 137 139
1.90887 -2.92078 -0.45090 143 142 136
1.89995 -2.92951 -0.44477 141 141 133
1.89103 -2.93825 -0.43863 133 139 128
1.88212 -2.94699 -0.43250 136 135 122
1.87320 -2.95573 -0.42637 141 138 132
1.86428 -2.96447 -0.42024 142 137 133
1.85536 -2.97321 -0.41410 139 136 125
1.84644 -2.98195 -0.40797 134 136 129
1.83752 -2.99069 -0.40183 132 136 132
1.82860 -2.99943 -0.39570 141 146 138
1.81968 -3.00817 -0.38956 151 156 147
1.81076 -3.01691 -0.38343 150 152 144
1.80183 -3.02566 -0.37729 145 143 135
1.79291 -3.03440 -0.37115 146 146 134
1.78398 -3.04315 -0.36502 150 152 141
1.77506 -3.05189 -0.35888 146 145 144
1.76613 -3.06064 -0.35274 139 138 135
1.75721 -3.06938 -0.34660 133 129 127
1.74828 -3.07813 -0.34046 136 139 140
1.73935 -3.08688 -0.33432 147 153 141
1.73042 -3.09563 -0.32818 150 153 143
1.72150 -3.10438 -0.32204 148 150 132
1.71257 -3.11313 -0.31590 144 146 139
1.70364 -3.12188 -0.30976 141 142 137
1.69471 -3.13063 -0.30362 130 127 124
1.68577 -3.13938 -0.29748 134 139 140
1.67684 -3.14813 -0.29133 146 155 147
1.66791 -3.15689 -0.28519 159 165 152
1.63217 -3.19191 -0.26061 140 143 148
1.62323 -3.20066 -0.25447 148 155 151
1.61430 -3.20942 -0.24832 149 153 149
1.60536 -3.21818 -0.24218 153 162 151
1.59642 -3.22693 -0.23603 156 168 146
1.58748 -3.23569 -0.22988 148 151 137
1.57854 -3.24445 -0.22373 144 145 131
1.56960 -3.25321 -0.21759 140 141 131
1.56066 -3.26197 -0.21144 136 138 135
1.55172 -3.27073 -0.20529 140 145 140
1.54278 -3.27950 -0.19914 151 157 144
1.53384 -3.28826 -0.19299 153 153 142
1.52489 -3.29702 -0.18684 144 143 134
1.51595 -3.30579 -0.18069 140 140 131
1.50701 -3.31455 -0.17454 140 137 135
1.49806 -3.32332 -0.16839 142 143 137
1.48912 -3.33208 -0.16223 147 151 139
1.48017 -3.34085 -0.15608 151 153 138
1.47122 -3.34961 -0.14993 150 152 144
1.46227 -3.35838 -0.14378 154 154 147
1.45333 -3.36715 -0.13762 149 152 146
1.44438 -3.37592 -0.13147 124 128 130
1.43543 -3.38469 -0.12531 128 133 129
1.42648 -3.39346 -0.11916 146 149 146
1.41753 -3.40223 -0.11300 152 157 148
1.40857 -3.41100 -0.10685 151 155 137
1.39962 -3.41977 -0.10069 149 148 136
1.39067 -3.42855 -0.09453 151 155 144
1.38171 -3.43732 -0.08837 155 159 143
1.37276 -3.44609 -0.08222 151 150 148
1.36381 -3.45487 -0.07606 154 154 142
1.35485 -3.46364 -0.06990 151 153 146
1.34589 -3.47242 -0.06374 146 146 145
1.33694 -3.48120 -0.05758 149 147 142
1.32798 -3.48997 -0.05142 152 154 144
1.31902 -3.49875 -0.04526 154 156 141
1.31006 -3.50753 -0.03910 153 153 137
1.30110 -3.51631 -0.03294 152 153 136
1.29214 -3.52509 -0.02678 152 151 138
1.28318 -3.53387 -0.02061 149 147 136
1.27422 -3.54265 -0.01445 145 146 127
1.26526 -3.55143 -0.00829 146 148 125
1.24733 -3.56900 0.00404 140 138 123
1.23837 -3.57778 0.01021 132 129 125
1.22940 -3.58657 0.01637 133 131 123
1.22044 -3.59535 0.02254 138 135 118
1.21147 -3.60414 0.02870 143 141 126
2.08141 -2.73073 -0.58574 92 89 88
2.07253 -2.73942 -0.57964 101 99 95
2.06366 -2.74812 -0.57354 111 108 100
2.05479 -2.75681 -0.56744 113 108 109
2.04591 -2.76551 -0.56134 118 115 109
2.03704 -2.77420 -0.55523 116 115 106
2.02816 -2.78290 -0.54913 118 124 121
2.01929 -2.79159 -0.54303 129 137 125
2.01041 -2.80029 -0.53692 122 121 121
2.00153 -2.80899 -0.53082 127 133 129
1.99265 -2.81769 -0.52471 128 129 127
1.98378 -2.82639 -0.51861 129 127 111
1.97490 -2.83509 -0.51250 114 120 118
1.96602 -2.84379 -0.50640 128 130 118
1.95714 -2.85249 -0.50029 134 136 131
1.94825 -2.86119 -0.49418 128 137 134
1.93937 -2.86989 -0.48808 134 136 131
1.93049 -2.87860 -0.48197 144 138 124
1.92161 -2.88730 -0.47586 143 138 135
1.91272 -2.89600 -0.46975 141 139 135
1.90384 -2.90471 -0.46364 138 138 134
1.89495 -2.91341 -0.45753 144 144 137
1.88607 -2.92212 -0.45142 148 149 137
1.87718 -2.93083 -0.44531 132 134 131
1.86829 -2.93953 -0.43920 139 143 129
1.85941 -2.94824 -0.43309 144 147 131
1.85052 -2.95695 -0.42698 145 141 129
1.84163 -2.96566 -0.42086 137 134 123
1.83274 -2.97437 -0.41475 130 132 128
1.82385 -2.98308 -0.40864 130 134 134
1.81496 -2.99179 -0.40252 136 140 135
1.80607 -3.00050 -0.39641 141 141 135
1.79717 -3.00922 -0.39030 143 139 136
1.78828 -3.01793 -0.38418 145 143 138
1.77939 -3.02664 -0.37806 146 148 140
1.77049 -3.03536 -0.37195 146 151 144
1.76160 -3.04407 -0.36583 143 139 139
1.75270 -3.05279 -0.35972 142 139 130
1.74381 -3.06151 -0.35360 144 140 126
1.73491 -3.07022 -0.34748 137 137 131
1.72601 -3.07894 -0.34136 142 148 135
1.71712 -3.08766 -0.33524 139 145 142
1.70822 -3.09638 -0.32913 131 130 123
1.69932 -3.10510 -0.32301 149 150 137
1.69042 -3.11382 -0.31689 150 151 132
1.68152 -3.12254 -0.31077 139 136 126
1.67262 -3.13126 -0.30464 138 145 136
1.61920 -3.18360 -0.26791 149 150 151
1.61029 -3.19233 -0.26179 148 153 141
1.60138 -3.20105 -0.25566 144 141 136
1.59248 -3.20978 -0.24954 144 147 138
1.58357 -3.21851 -0.24341 149 153 140
1.57466 -3.22723 -0.23729 150 152 140
1.56575 -3.23596 -0.23116 152 157 144
1.55684 -3.24469 -0.22503 148 152 137
1.54793 -3.25342 -0.21891 137 137 122
1.53902 -3.26215 -0.21278 137 141 131
1.53011 -3.27089 -0.20665 147 151 142
1.52120 -3.27962 -0.20052 147 145 135
1.51228 -3.28835 -0.19439 147 144 130
1.50337 -3.29708 -0.18827 151 151 134
1.49446 -3.30582 -0.18214 148 148 140
1.48554 -3.31455 -0.17601 147 151 138
1.47663 -3.32329 -0.16988 153 157 141
1.46771 -3.33202 -0.16374 152 155 142
1.45879 -3.34076 -0.15761 155 155 147
1.44988 -3.34950 -0.15148 152 152 146
1.44096 -3.35823 -0.14535 151 151 142
1.43204 -3.36697 -0.13922 143 144 125
1.42312 -3.37571 -0.13308 140 136 125
1.41420 -3.38445 -0.12695 149 152 138
1.40528 -3.39319 -0.12081 144 147 134
1.39636 -3.40193 -0.11468 126 126 124
1.38744 -3.41067 -0.10855 144 147 129
1.37851 -3.41942 -0.10241 148 154 144
1.36959 -3.42816 -0.09627 151 156 141
1.36067 -3.43690 -0.09014 140 140 141
1.35174 -3.44565 -0.08400 145 143 138
1.34282 -3.45439 -0.07786 148 149 144
1.33389 -3.46314 -0.07173 148 146 138
1.32497 -3.47188 -0.06559 155 157 138
1.31604 -3.48063 -0.05945 153 148 139
1.28925 -3.50687 -0.04103 149 151 142
1.28032 -3.51562 -0.03489 150 151 144
1.27139 -3.52437 -0.02875 148 154 145
1.19993 -3.59439 0.02039 142 145 130
2.07580 -2.71539 -0.59797 97 96 94
2.06696 -2.72405 -0.59189 103 105 103
2.05812 -2.73271 -0.58581 101 101 99
2.04927 -2.74138 -0.57973 100 103 104
2.04043 -2.75004 -0.57365 107 109 115
2.03159 -2.75871 -0.56756 114 118 119
2.02274 -2.76737 -0.56148 113 108 112
2.01390 -2.77604 -0.55540 109 114 122
2.00505 -2.78470 -0.54932 129 128 123
1.99620 -2.79337 -0.54324 118 117 126
1.98735 -2.80204 -0.53715 133 132 129
1.97851 -2.81071 -0.53107 134 132 129
1.96966 -2.81938 -0.52498 132 131 120
1.96081 -2.82805 -0.51890 121 129 123
1.95196 -2.83672 -0.51282 127 129 123
1.94311 -2.84539 -0.50673 132 137 131
1.93426 -2.85406 -0.50064 133 136 135
1.92540 -2.86273 -0.49456 134 139 130
1.91655 -2.87140 -0.48847 140 139 127
1.90770 -2.88008 -0.48238 141 148 142
1.89884 -2.88875 -0.47630 130 131 129
1.88999 -2.89743 -0.47021 125 126 124
1.88114 -2.90610 -0.46412 130 129 131
1.87228 -2.91478 -0.45803 138 137 129
1.86342 -2.92346 -0.45194 132 132 128
1.85457 -2.93213 -0.44585 144 153 141
1.84571 -2.94081 -0.43976 142 147 138
1.83685 -2.94949 -0.43367 141 142 133
1.82799 -2.95817 -0.42758 137 137 130
1.81913 -2.96685 -0.42149 133 133 130
1.81027 -2.97553 -0.41540 136 135 128
1.80141 -2.98421 -0.40930 131 129 123
1.79255 -2.99289 -0.40321 126 125 125
1.78369 -3.00157 -0.39712 133 135 136
1.77482 -3.01026 -0.39102 140 146 145
1.76596 -3.01894 -0.38493 140 146 145
1.75710 -3.02762 -0.37883 136 138 141
1.74823 -3.03631 -0.37274 139 141 136
1.73937 -3.04499 -0.36664 141 142 130
1.73050 -3.05368 -0.36055 145 144 127
1.72163 -3.06237 -0.35445 143 143 131
1.71277 -3.07105 -0.34835 142 143 133
1.70390 -3.07974 -0.34226 141 142 140
1.69503 -3.08843 -0.33616 137 137 127
1.68616 -3.09712 -0.33006 158 159 134
1.67729 -3.10581 -0.32396 154 157 139
1.66842 -3.11450 -0.31786 143 140 134
1.65955 -3.12319 -0.31176 145 148 130
1.65068 -3.13188 -0.30566 140 138 129
1.64181 -3.14058 -0.29956 144 143 128
1.60631 -3.17535 -0.27516 149 149 144
1.59743 -3.18405 -0.26906 143 145 132
1.58856 -3.19274 -0.26295 140 141 128
1.57968 -3.20144 -0.25685 141 145 132
1.57080 -3.21014 -0.25074 146 147 136
1.56192 -3.21883 -0.24464 148 151 139
1.55305 -3.22753 -0.23854 154 157 146
1.54417 -3.23623 -0.23243 152 153 142
1.53529 -3.24493 -0.22632 145 145 128
1.52641 -3.25363 -0.22022 146 149 132
1.51752 -3.26233 -0.21411 151 152 140
1.50864 -3.27104 -0.20801 149 145 132
1.49976 -3.27974 -0.20190 143 140 124
1.49088 -3.28844 -0.19579 144 146 129
1.48199 -3.29714 -0.18968 148 153 138
1.47311 -3.30585 -0.18357 148 152 133
1.46422 -3.31455 -0.17746 150 152 135
1.45534 -3.32326 -0.17135 149 151 139
1.44645 -3.33197 -0.16524 161 163 147
1.43756 -3.34067 -0.15913 152 152 141
1.42868 -3.34938 -0.15302 150 152 139
1.41979 -3.35809 -0.14691 154 154 144
1.41090 -3.36680 -0.14080 151 145 134
1.40201 -3.37550 -0.13469 154 156 136
1.39312 -3.38422 -0.12857 140 139 136
1.38423 -3.39293 -0.12246 130 134 127
1.37534 -3.40164 -0.11635 158 164 144
1.36644 -3.41035 -0.11023 168 165 144
1.35755 -3.41906 -0.10412 149 148 140
1.34866 -3.42777 -0.09800 145 151 142
1.33976 -3.43649 -0.09189 148 147 134
1.33087 -3.44520 -0.08577 145 146 140
1.32197 -3.45392 -0.07966 147 148 140
1.31308 -3.46263 -0.07354 152 156 145
1.30418 -3.47135 -0.06742 155 153 148
1.26859 -3.50622 -0.04295 148 149 144
1.25969 -3.51494 -0.03683 146 147 142
1.18846 -3.58472 0.01214 142 132 114
2.07904 -2.69152 -0.61616 104 106 100
2.07023 -2.70015 -0.61010 93 92 89
2.06142 -2.70878 -0.60405 98 99 98
2.05261 -2.71742 -0.59799 108 108 103
2.04380 -2.72605 -0.59193 104 101 103
2.03498 -2.73468 -0.58587 105 104 107
2.02617 -2.74332 -0.57981 107 109 112
2.01736 -2.75195 -0.57375 113 114 117
2.00854 -2.76059 -0.56769 114 114 115
1.99972 -2.76922 -0.56163 111 118 116
1.99091 -2.77786 -0.55557 125 124 117
1.98209 -2.78650 -0.54951 128 129 138
1.97327 -2.79514 -0.54344 132 121 132
1.96445 -2.80378 -0.53738 133 131 133
1.95564 -2.81241 -0.53132 137 138 120
1.94682 -2.82105 -0.52525 119 125 87
1.93800 -2.82969 -0.51919 125 125 121
1.92918 -2.83834 -0.51313 132 137 134
1.92035 -2.84698 -0.50706 145 146 140
1.91153 -2.85562 -0.50100 137 139 130
1.90271 -2.86426 -0.49493 134 136 126
1.89389 -2.87291 -0.48886 131 136 132
1.88506 -2.88155 -0.48280 130 130 126
1.87624 -2.89020 -0.47673 129 125 128
1.86741 -2.89884 -0.47066 132 130 131
1.85859 -2.90749 -0.46459 136 131 125
1.84976 -2.91613 -0.45853 130 126 123
1.84093 -2.92478 -0.45246 143 147 138
1.83210 -2.93343 -0.44639 140 138 136
1.82328 -2.94208 -0.44032 141 138 130
1.81445 -2.95073 -0.43425 138 133 127
1.80562 -2.95938 -0.42818 138 135 128
1.79679 -2.96803 -0.42211 145 145 127
1.78795 -2.97668 -0.41604 136 136 124
1.77912 -2.98533 -0.40996 126 125 128
1.77029 -2.99398 -0.40389 131 133 135
1.76146 -3.00264 -0.39782 139 143 140
1.75262 -3.01129 -0.39175 139 141 137
1.74379 -3.01994 -0.38567 135 133 129
1.73496 -3.02860 -0.37960 135 135 128
1.72612 -3.03725 -0.37352 135 138 135
1.71728 -3.04591 -0.36745 136 139 136
1.70845 -3.05457 -0.36137 147 148 140
1.69961 -3.06322 -0.35530 145 140 137
1.69077 -3.07188 -0.34922 148 147 143
1.68193 -3.08054 -0.34315 145 151 142
1.67309 -3.08920 -0.33707 147 147 134
1.66425 -3.09786 -0.33099 137 137 136
1.65541 -3.10652 -0.32491 136 139 138
1.64657 -3.11518 -0.31883 155 155 141
1.63773 -3.12384 -0.31276 146 145 139
1.62889 -3.13250 -0.30668 143 142 132
1.57582 -3.18449 -0.27019 141 146 132
1.56697 -3.19316 -0.26411 152 160 144
1.55812 -3.20182 -0.25803 160 165 142
1.54928 -3.21049 -0.25194 152 153 140
1.54043 -3.21916 -0.24586 148 148 138
1.53158 -3.22783 -0.23978 150 148 139
1.52273 -3.23650 -0.23369 152 153 141
1.51388 -3.24517 -0.22761 156 158 140
1.50503 -3.25384 -0.22152 158 156 142
1.49617 -3.26251 -0.21544 156 157 143
1.48732 -3.27118 -0.20935 152 154 135
1.47847 -3.27986 -0.20326 150 149 130
1.46961 -3.28853 -0.19718 150 152 139
1.46076 -3.29720 -0.19109 149 153 138
1.45190 -3.30588 -0.18500 150 154 136
1.44305 -3.31455 -0.17891 149 150 140
1.43419 -3.32323 -0.17282 158 162 146
1.42533 -3.33191 -0.16673 153 156 142
1.41648 -3.34058 -0.16064 145 150 142
1.40762 -3.34926 -0.15455 155 155 150
1.39876 -3.35794 -0.14846 154 153 144
1.38990 -3.36662 -0.14237 153 157 146
1.38104 -3.37530 -0.13628 148 148 141
1.37218 -3.38398 -0.13019 148 153 139
1.36332 -3.39266 -0.12410 160 163 151
1.35445 -3.40134 -0.11800 165 166 140
1.34559 -3.41003 -0.11191 141 141 143
1.33673 -3.41871 -0.10582 144 151 144
1.32786 -3.42739 -0.09972 151 148 130
1.31900 -3.43608 -0.09363 142 141 136
1.31013 -3.44476 -0.08753 146 147 135
1.30127 -3.45345 -0.08144 152 147 134
1.29240 -3.46213 -0.07534 157 153 142
2.07349 -2.67642 -0.62819 95 95 92
2.06470 -2.68502 -0.62216 94 93 92
2.05592 -2.69362 -0.61612 90 90 87
2.04714 -2.70223 -0.61008 94 95 94
2.03836 -2.71083 -0.60405 99 98 100
2.02958 -2.71943 -0.59801 103 98 109
2.02079 -2.72804 -0.59197 111 108 113
2.01201 -2.73664 -0.58593 109 105 107
2.00322 -2.74525 -0.57989 113 113 112
1.99444 -2.75385 -0.57385 118 117 116
1.98565 -2.76246 -0.56781 132 128 117
1.97686 -2.77106 -0.56177 125 121 118
1.96808 -2.77967 -0.55573 125 127 134
1.95929 -2.78828 -0.54969 129 132 129
1.95050 -2.79689 -0.54365 131 126 133
1.94171 -2.80550 -0.53761 138 139 125
1.93292 -2.81411 -0.53156 130 135 106
1.92413 -2.82272 -0.52552 130 129 125
1.91534 -2.83133 -0.51948 131 131 129
1.90655 -2.83994 -0.51343 134 135 131
1.89775 -2.84856 -0.50739 131 133 127
1.88896 -2.85717 -0.50134 129 128 122
1.88017 -2.86578 -0.49530 120 118 123
1.87137 -2.87440 -0.48925 133 131 125
1.86258 -2.88301 -0.48321 141 136 133
1.85378 -2.89163 -0.47716 147 146 140
1.84498 -2.90025 -0.47111 144 143 132
1.83619 -2.90886 -0.46507 138 141 131
1.82739 -2.91748 -0.45902 140 145 135
1.81859 -2.92610 -0.45297 140 142 132
1.80979 -2.93472 -0.44692 143 143 128
1.80099 -2.94334 -0.44087 139 139 129
1.79219 -2.95196 -0.43482 138 140 133
1.78339 -2.96058 -0.42877 142 142 127
1.77459 -2.96920 -0.42272 140 136 128
1.76579 -2.97782 -0.41667 138 136 138
1.75699 -2.98644 -0.41062 138 140 139
1.74818 -2.99507 -0.40457 139 140 132
1.73938 -3.00369 -0.39852 141 138 129
1.73057 -3.01231 -0.39246 139 139 132
1.72177 -3.02094 -0.38641 141 141 131
1.71296 -3.02956 -0.38036 146 151 142
1.70416 -3.03819 -0.37430 137 139 140
1.69535 -3.04682 -0.36825 148 150 146
1.68654 -3.05545 -0.36219 146 144 135
1.67773 -3.06407 -0.35614 142 139 133
1.66893 -3.07270 -0.35008 143 145 142
1.66012 -3.08133 -0.34403 144 141 133
1.65131 -3.08996 -0.33797 138 140 140
1.64249 -3.09859 -0.33191 134 135 131
1.63368 -3.10722 -0.32586 148 145 134
1.62487 -3.11585 -0.31980 146 147 143
1.61606 -3.12449 -0.31374 139 140 135
1.60724 -3.13312 -0.30768 137 139 139
1.59843 -3.14175 -0.30162 133 132 126
1.58962 -3.15039 -0.29556 158 163 148
1.56317 -3.17629 -0.27738 147 151 130
1.55435 -3.18493 -0.27132 154 159 138
1.54553 -3.19357 -0.26526 161 163 142
1.53671 -3.20221 -0.25920 155 156 141
1.52790 -3.21084 -0.25313 149 148 137
1.51908 -3.21948 -0.24707 146 142 133
1.51026 -3.22812 -0.24101 144 143 131
1.50143 -3.23676 -0.23494 153 152 134
1.49261 -3.24541 -0.22888 161 162 144
1.48379 -3.25405 -0.22282 159 161 146
1.47497 -3.26269 -0.21675 157 155 138
1.46614 -3.27133 -0.21068 155 155 138
1.45732 -3.27998 -0.20462 154 157 146
1.44850 -3.28862 -0.19855 155 159 146
1.43967 -3.29727 -0.19248 153 158 138
1.43084 -3.30591 -0.18642 148 154 142
1.42202 -3.31456 -0.18035 153 158 147
1.41319 -3.32320 -0.17428 153 155 145
1.40436 -3.33185 -0.16821 146 150 140
1.39553 -3.34050 -0.16214 156 157 145
1.38670 -3.34915 -0.15607 155 155 144
1.37787 -3.35780 -0.15000 149 149 150
1.36904 -3.36645 -0.14393 148 151 141
1.36021 -3.37510 -0.13786 151 153 139
1.35138 -3.38375 -0.13179 154 157 137
1.34255 -3.39240 -0.12572 158 146 131
1.33372 -3.40105 -0.11965 148 149 148
1.32488 -3.40970 -0.11358 149 146 148
1.31605 -3.41836 -0.10750 154 154 142
1.30721 -3.42701 -0.10143 144 138 132
1.29838 -3.43567 -0.09536 149 151 134
1.28954 -3.44432 -0.08928 152 158 140
1.28070 -3.45298 -0.08321 150 153 136
2.06796 -2.66142 -0.64014 90 86 84
2.05921 -2.66999 -0.63413 95 94 87
2.05046 -2.67857 -0.62811 95 92 89
2.04171 -2.68714 -0.62210 90 91 90
2.03296 -2.69571 -0.61608 92 95 90
2.02420 -2.70428 -0.61007 93 94 90
2.01545 -2.71286 -0.60405 100 93 93
2.00670 -2.72143 -0.59803 108 109 101
1.99794 -2.73001 -0.59201 108 109 106
1.98919 -2.73858 -0.58599 119 119 118
1.98043 -2.74716 -0.57998 123 125 113
1.97167 -2.75574 -0.57396 125 120 109
1.96291 -2.76431 -0.56794 121 118 108
1.95416 -2.77289 -0.56192 118 123 114
1.94540 -2.78147 -0.55590 124 121 102
1.93664 -2.79005 -0.54987 129 126 128
1.92788 -2.79863 -0.54385 129 126 127
1.91912 -2.80721 -0.53783 129 130 117
1.91036 -2.81579 -0.53181 119 112 116
1.90159 -2.82438 -0.52579 123 124 119
1.89283 -2.83296 -0.51976 124 126 123
1.88407 -2.84154 -0.51374 127 129 125
1.87530 -2.85012 -0.50772 132 130 128
1.86654 -2.85871 -0.50169 131 132 135
1.85778 -2.86729 -0.49567 135 136 130
1.84901 -2.87588 -0.48964 138 138 131
1.84024 -2.88447 -0.48362 141 142 135
1.83148 -2.89305 -0.47759 139 136 128
1.82271 -2.90164 -0.47156 138 139 135
1.81394 -2.91023 -0.46554 139 142 135
1.80517 -2.91882 -0.45951 141 145 131
1.79640 -2.92741 -0.45348 145 148 132
1.78763 -2.93600 -0.44745 140 143 137
1.77886 -2.94459 -0.44142 136 143 138
1.77009 -2.95318 -0.43539 137 140 131
1.76132 -2.96177 -0.42936 141 140 133
1.75255 -2.97036 -0.42333 151 150 148
1.74377 -2.97895 -0.41730 148 148 150
1.73500 -2.98755 -0.41127 138 138 138
1.72622 -2.99614 -0.40524 140 143 135
1.71745 -3.00474 -0.39921 144 153 142
1.70867 -3.01333 -0.39318 150 154 142
1.69990 -3.02193 -0.38714 153 157 147
1.69112 -3.03052 -0.38111 140 136 141
1.68234 -3.03912 -0.37508 148 147 149
1.67356 -3.04772 -0.36904 152 154 140
1.66479 -3.05632 -0.36301 138 142 135
1.65601 -3.06492 -0.35697 142 145 143
1.64723 -3.07352 -0.35094 152 152 147
1.63845 -3.08212 -0.34490 148 151 147
1.62966 -3.09072 -0.33887 136 141 130
1.62088 -3.09932 -0.33283 141 143 119
1.61210 -3.10792 -0.32679 135 140 126
1.60332 -3.11652 -0.32076 135 140 125
1.59453 -3.12513 -0.31472 137 145 143
1.58575 -3.13373 -0.30868 142 147 133
1.57696 -3.14234 -0.30264 148 151 141
1.55060 -3.16815 -0.28452 148 153 133
1.54182 -3.17676 -0.27848 148 154 132
1.53303 -3.18537 -0.27244 151 156 141
1.52424 -3.19398 -0.26640 154 159 145
1.51545 -3.20259 -0.26036 150 152 143
1.50666 -3.21120 -0.25432 145 141 133
1.49787 -3.21981 -0.24827 144 144 130
1.48908 -3.22842 -0.24223 151 154 138
1.48028 -3.23703 -0.23619 156 158 148
1.47149 -3.24564 -0.23014 155 156 150
1.46270 -3.25425 -0.22410 155 156 144
1.45390 -3.26287 -0.21806 154 158 144
1.44511 -3.27148 -0.21201 150 153 141
1.43631 -3.28009 -0.20597 149 150 134
1.42752 -3.28871 -0.19992 149 153 127
1.41872 -3.29732 -0.19387 143 151 127
1.40993 -3.30594 -0.18783 153 159 143
1.40113 -3.31456 -0.18178 152 153 141
1.39233 -3.32318 -0.17573 137 139 134
1.38353 -3.33179 -0.16968 148 151 144
1.37473 -3.34041 -0.16363 151 151 139
1.36593 -3.34903 -0.15758 142 123 126
1.35713 -3.35765 -0.15154 145 142 140
1.34833 -3.36627 -0.14549 153 154 138
1.33953 -3.37489 -0.13944 154 157 140
1.33072 -3.38352 -0.13338 158 153 149
1.32192 -3.39214 -0.12733 155 157 146
1.31312 -3.40076 -0.12128 152 152 148
1.30431 -3.40938 -0.11523 153 150 134
1.29551 -3.41801 -0.10918 148 140 129
1.28670 -3.42663 -0.10312 145 149 138
1.27789 -3.43526 -0.09707 145 155 144
2.06248 -2.64653 -0.65201 89 90 88
2.05376 -2.65507 -0.64602 97 99 91
2.04504 -2.66361 -0.64003 103 104 99
2.03632 -2.67215 -0.63403 105 105 99
2.02759 -2.68070 -0.62804 99 98 94
2.01887 -2.68924 -0.62204 98 94 93
2.01015 -2.69778 -0.61604 100 98 92
2.00142 -2.70633 -0.61005 106 104 102
1.99270 -2.71487 -0.60405 109 119 116
1.98397 -2.72342 -0.59805 101 98 98
1.97524 -2.73197 -0.59205 119 118 115
1.96652 -2.74051 -0.58606 124 123 116
1.95779 -2.74906 -0.58006 123 122 114
1.94906 -2.75761 -0.57406 118 117 110
1.94033 -2.76616 -0.56806 110 121 111
1.93160 -2.77471 -0.56206 122 124 107
1.92287 -2.78326 -0.55606 134 133 131
1.91414 -2.79181 -0.55006 130 136 126
1.90541 -2.80036 -0.54406 130 130 115
1.89668 -2.80891 -0.53805 123 115 114
1.88794 -2.81747 -0.53205 122 127 123
1.87921 -2.82602 -0.52605 129 136 134
1.87048 -2.83457 -0.52005 131 129 129
1.86174 -2.84313 -0.51404 137 136 131
1.85301 -2.85168 -0.50804 137 139 137
1.84427 -2.86024 -0.50204 134 138 127
1.83553 -2.86879 -0.49603 132 135 123
1.82680 -2.87735 -0.49003 133 133 133
1.81806 -2.88591 -0.48402 135 136 135
1.80932 -2.89447 -0.47801 131 132 137
1.80058 -2.90303 -0.47201 133 134 131
1.79184 -2.91158 -0.46600 137 137 124
1.78310 -2.92014 -0.45999 145 145 133
1.77436 -2.92871 -0.45399 146 147 137
1.76562 -2.93727 -0.44798 141 143 136
1.75688 -2.94583 -0.44197 135 137 137
1.74814 -2.95439 -0.43596 140 142 137
1.73939 -2.96295 -0.42995 155 156 145
1.73065 -2.97152 -0.42394 153 152 147
1.72190 -2.98008 -0.41793 141 141 139
1.71316 -2.98865 -0.41192 137 142 136
1.70441 -2.99721 -0.40591 135 144 133
1.69567 -3.00578 -0.39990 142 146 136
1.68692 -3.01434 -0.39389 149 153 149
1.67817 -3.02291 -0.38787 143 141 142
1.66942 -3.03148 -0.38186 148 148 144
1.66067 -3.04005 -0.37585 148 149 140
1.65192 -3.04862 -0.36983 140 142 134
1.64317 -3.05719 -0.36382 141 144 135
1.63442 -3.06576 -0.35780 148 150 144
1.62567 -3.07433 -0.35179 142 141 133
1.61692 -3.08290 -0.34577 144 152 141
1.60817 -3.09147 -0.33976 153 158 137
1.59941 -3.10004 -0.33374 146 149 127
1.59066 -3.10862 -0.32773 141 142 119
1.58191 -3.11719 -0.32171 143 149 142
1.57315 -3.12577 -0.31569 152 156 132
1.56439 -3.13434 -0.30967 145 143 135
1.55564 -3.14292 -0.30365 141 143 132
1.54688 -3.15149 -0.29764 157 164 145
1.53812 -3.16007 -0.29162 141 145 142
1.52936 -3.16865 -0.28560 144 146 138
1.52061 -3.17723 -0.27958 151 152 141
1.51185 -3.18580 -0.27356 156 158 148
1.50309 -3.19438 -0.26754 153 151 146
1.49433 -3.20296 -0.26151 148 143 136
1.48556 -3.21154 -0.25549 149 151 134
1.47680 -3.22013 -0.24947 150 152 134
1.46804 -3.22871 -0.24345 146 145 137
1.45928 -3.23729 -0.23742 144 144 141
1.45051 -3.24587 -0.23140 145 148 134
1.44175 -3.25446 -0.22538 149 151 133
1.43298 -3.26304 -0.21935 150 150 134
1.42422 -3.27163 -0.21333 149 148 132
1.41545 -3.28021 -0.20730 152 154 131
1.40668 -3.28880 -0.20128 147 149 127
1.39792 -3.29738 -0.19525 153 157 144
1.38915 -3.30597 -0.18922 153 159 145
1.38038 -3.31456 -0.18320 138 142 140
1.37161 -3.32315 -0.17717 146 149 145
1.36284 -3.33174 -0.17114 150 149 142
1.35407 -3.34033 -0.16511 144 133 130
1.34530 -3.34892 -0.15909 150 148 142
1.33653 -3.35751 -0.15306 155 156 139
1.32775 -3.36610 -0.14703 146 147 146
1.31898 -3.37469 -0.14100 156 155 153
1.31021 -3.38329 -0.13497 164 165 155
1.30143 -3.39188 -0.12894 153 147 153
1.29266 -3.40047 -0.12290 152 153 144
1.28388 -3.40907 -0.11687 151 150 138
1.27510 -3.41766 -0.11084 144 148 144
1.26633 -3.42626 -0.10481 143 148 141
2.03965 -2.64876 -0.65186 105 105 93
2.03096 -2.65727 -0.64588 107 104 98
2.02227 -2.66579 -0.63991 109 106 98
2.01357 -2.67430 -0.63393 103 101 95
2.00488 -2.68281 -0.62796 105 105 95
1.99618 -2.69133 -0.62198 109 111 100
1.98749 -2.69984 -0.61600 110 116 106
1.97879 -2.70836 -0.61003 111 114 119
1.97009 -2.71688 -0.60405 99 98 108
1.96140 -2.72540 -0.59807 111 108 114
1.95270 -2.73391 -0.59210 123 115 115
1.94400 -2.74243 -0.58612 122 123 116
1.93530 -2.75095 -0.58014 121 117 110
1.92660 -2.75947 -0.57416 112 113 102
1.91790 -2.76799 -0.56818 124 125 120
1.90920 -2.77651 -0.56220 137 142 143
1.90050 -2.78503 -0.55622 126 123 122
1.89179 -2.79356 -0.55024 126 114 109
1.88309 -2.80208 -0.54426 129 129 115
1.87439 -2.81060 -0.53828 122 124 119
1.86568 -2.81913 -0.53229 126 129 133
1.85698 -2.82765 -0.52631 130 128 128
1.84827 -2.83618 -0.52033 136 135 131
1.83956 -2.84470 -0.51435 134 137 135
1.83086 -2.85323 -0.50836 127 128 121
1.82215 -2.86176 -0.50238 118 123 109
1.81344 -2.87028 -0.49639 126 130 131
1.80473 -2.87881 -0.49041 136 139 137
1.79602 -2.88734 -0.48442 134 138 135
1.78731 -2.89587 -0.47844 138 137 131
1.77860 -2.90440 -0.47245 135 135 125
1.76989 -2.91293 -0.46646 136 136 129
1.76118 -2.92146 -0.46048 138 136 128
1.75247 -2.93000 -0.45449 139 139 134
1.74375 -2.93853 -0.44850 137 134 135
1.73504 -2.94706 -0.44251 137 131 132
1.72633 -2.95560 -0.43652 147 143 140
1.71761 -2.96413 -0.43053 150 151 139
1.70890 -2.97266 -0.42454 146 150 135
1.70018 -2.98120 -0.41855 139 143 131
1.69146 -2.98974 -0.41256 131 137 122
1.68275 -2.99827 -0.40657 140 142 125
1.67403 -3.00681 -0.40058 150 156 143
1.66531 -3.01535 -0.39459 147 149 137
1.65659 -3.02389 -0.38860 149 148 135
1.64787 -3.03243 -0.38260 139 141 133
1.63915 -3.04097 -0.37661 142 144 136
1.63043 -3.04951 -0.37062 139 142 131
1.62171 -3.05805 -0.36462 142 145 134
1.61299 -3.06659 -0.35863 133 136 122
1.60426 -3.07513 -0.35263 143 151 143
1.59554 -3.08367 -0.34664 155 163 148
1.58681 -3.09222 -0.34064 154 163 144
1.57809 -3.10076 -0.33465 151 153 133
1.56936 -3.10931 -0.32865 145 153 141
1.56064 -3.11785 -0.32265 149 150 133
1.55191 -3.12640 -0.31666 145 145 133
1.54318 -3.13494 -0.31066 136 140 133
1.51700 -3.16059 -0.29266 150 151 150
1.50827 -3.16914 -0.28666 150 151 143
1.49954 -3.17769 -0.28066 154 153 147
1.49081 -3.18624 -0.27466 154 150 143
1.48208 -3.19479 -0.26866 149 146 136
1.47334 -3.20334 -0.26266 151 151 130
1.46461 -3.21189 -0.25666 146 146 127
1.45588 -3.22044 -0.25066 139 140 132
1.44714 -3.22900 -0.24466 139 141 132
1.43841 -3.23755 -0.23865 137 140 127
1.42967 -3.24610 -0.23265 143 146 129
1.42094 -3.25466 -0.22665 152 151 134
1.41220 -3.26321 -0.22064 153 151 137
1.40346 -3.27177 -0.21464 151 150 140
1.39473 -3.28033 -0.20863 134 136 132
1.38599 -3.28889 -0.20263 139 145 135
1.37725 -3.29744 -0.19662 152 160 144
1.36851 -3.30600 -0.19061 146 143 137
1.35977 -3.31456 -0.18461 153 156 150
1.35103 -3.32312 -0.17860 152 152 149
1.34229 -3.33168 -0.17259 148 145 142
1.33354 -3.34024 -0.16658 154 158 151
1.32480 -3.34880 -0.16058 148 147 138
1.28108 -3.39162 -0.13053 152 151 146
1.27233 -3.40019 -0.12452 154 152 138
1.26358 -3.40875 -0.11850 155 160 150
1.25484 -3.41732 -0.11249 151 152 143
1.24609 -3.42589 -0.10648 147 151 139
1.23734 -3.43445 -0.10047 155 156 139
2.04296 -2.62553 -0.66956 107 108 101
2.03430 -2.63401 -0.66360 108 105 104
2.02564 -2.64249 -0.65765 110 103 94
2.01697 -2.65098 -0.65170 105 100 92
2.00831 -2.65946 -0.64574 99 97 93
1.99964 -2.66794 -0.63979 95 98 91
1.99098 -2.67643 -0.63383 106 110 97
1.98231 -2.68492 -0.62788 112 114 105
1.97365 -2.69340 -0.62192 107 111 109
1.96498 -2.70189 -0.61597 110 113 116
1.95631 -2.71038 -0.61001 116 117 117
1.94764 -2.71887 -0.60405 119 120 124
1.93897 -2.72736 -0.59809 128 124 123
1.93030 -2.73585 -0.59214 121 122 116
1.92163 -2.74434 -0.58618 121 122 111
1.91296 -2.75283 -0.58022 110 110 112
1.90429 -2.76132 -0.57426 123 124 128
1.89561 -2.76981 -0.56830 132 137 136
1.88694 -2.77830 -0.56234 119 113 123
1.87827 -2.78680 -0.55638 128 122 119
1.86959 -2.79529 -0.55042 135 139 123
1.86092 -2.80379 -0.54446 129 131 122
1.85224 -2.81228 -0.53850 127 123 125
1.84357 -2.82078 -0.53253 126 125 115
1.83489 -2.82927 -0.52657 133 136 127
1.82621 -2.83777 -0.52061 132 139 131
1.81753 -2.84627 -0.51465 123 126 123
1.80886 -2.85477 -0.50868 130 134 119
1.80018 -2.86327 -0.50272 136 138 130
1.79150 -2.87176 -0.49675 133 132 124
1.78282 -2.88026 -0.49079 134 134 126
1.77413 -2.88877 -0.48482 138 137 129
1.76545 -2.89727 -0.47886 131 128 130
1.75677 -2.90577 -0.47289 128 128 129
1.74809 -2.91427 -0.46692 133 134 125
1.73940 -2.92277 -0.46096 143 143 136
1.73072 -2.93128 -0.45499 146 141 140
1.72204 -2.93978 -0.44902 145 136 139
1.71335 -2.94829 -0.44305 148 143 145
1.70466 -2.95679 -0.43708 148 151 144
1.69598 -2.96530 -0.43111 150 154 140
1.68729 -2.97380 -0.42514 143 144 129
1.67860 -2.98231 -0.41917 137 142 134
1.66991 -2.99082 -0.41320 154 158 144
1.66122 -2.99933 -0.40723 154 158 148
1.65253 -3.00784 -0.40126 144 142 135
1.64384 -3.01635 -0.39529 146 150 134
1.63515 -3.02486 -0.38932 141 142 135
1.62646 -3.03337 -0.38334 148 149 140
1.61777 -3.04188 -0.37737 145 146 137
1.60908 -3.05039 -0.37140 147 149 137
1.60038 -3.05890 -0.36542 148 153 132
1.59169 -3.06742 -0.35945 141 148 136
1.58300 -3.07593 -0.35347 144 147 136
1.57430 -3.08445 -0.34750 142 149 134
1.56560 -3.09296 -0.34152 156 162 140
1.55691 -3.10148 -0.33555 147 148 132
1.54821 -3.10999 -0.32957 140 140 128
1.53951 -3.11851 -0.32359 144 149 132
1.53081 -3.12703 -0.31762 138 137 126
1.52212 -3.13554 -0.31164 142 142 133
1.50472 -3.15258 -0.29968 152 156 153
1.49602 -3.16110 -0.29370 144 149 138
1.48731 -3.16962 -0.28772 150 153 147
1.47861 -3.17814 -0.28174 154 152 138
1.46991 -3.18667 -0.27576 150 146 123
1.46121 -3.19519 -0.26978 154 151 130
1.45250 -3.20371 -0.26380 153 152 139
1.44380 -3.21223 -0.25782 152 153 143
1.43509 -3.22076 -0.25184 149 153 138
1.42639 -3.22928 -0.24585 140 144 124
1.41768 -3.23781 -0.23987 141 142 125
1.40897 -3.24633 -0.23389 145 147 135
1.40027 -3.25486 -0.22790 151 151 139
1.39156 -3.26339 -0.22192 153 153 143
1.38285 -3.27192 -0.21594 136 137 131
1.37414 -3.28044 -0.20995 138 146 131
1.36543 -3.28897 -0.20397 153 158 141
1.35672 -3.29750 -0.19798 150 149 140
1.34801 -3.30603 -0.19199 157 157 151
1.33930 -3.31456 -0.18601 154 154 150
1.33058 -3.32309 -0.18002 151 152 146
1.32187 -3.33163 -0.17403 155 153 146
1.31316 -3.34016 -0.16804 149 152 139
1.26958 -3.38283 -0.13810 151 155 141
1.26086 -3.39137 -0.13211 153 147 138
1.25214 -3.39990 -0.12612 157 158 149
1.24342 -3.40844 -0.12013 152 152 144
1.23471 -3.41698 -0.11413 142 142 148
1.22599 -3.42552 -0.10814 155 160 147
1.21726 -3.43406 -0.10215 148 149 135
2.02035 -2.62781 -0.66934 106 108 110
2.01172 -2.63627 -0.66341 103 103 103
2.00308 -2.64472 -0.65747 103 104 101
1.99445 -2.65318 -0.65154 98 98 99
1.98581 -2.66163 -0.64561 89 88 85
1.97717 -2.67009 -0.63967 104 106 98
1.96854 -2.67855 -0.63374 107 107 104
1.95990 -2.68701 -0.62780 101 102 103
1.95126 -2.69546 -0.62186 107 106 110
1.94262 -2.70392 -0.61593 121 119 108
1.93398 -2.71238 -0.60999 115 111 110
1.92534 -2.72084 -0.60405 120 121 117
1.91670 -2.72931 -0.59812 120 122 119
1.90805 -2.73777 -0.59218 126 129 123
1.89941 -2.74623 -0.58624 126 126 123
1.89077 -2.75469 -0.58030 131 136 132
1.88212 -2.76316 -0.57436 136 141 133
1.87348 -2.77162 -0.56842 134 138 126
1.86483 -2.78008 -0.56248 138 141 133
1.85619 -2.78855 -0.55654 138 143 131
1.84754 -2.79702 -0.55060 133 137 129
1.83889 -2.80548 -0.54466 129 130 126
1.83025 -2.81395 -0.53872 126 131 123
1.82160 -2.82242 -0.53277 130 135 127
1.81295 -2.83088 -0.52683 130 133 128
1.80430 -2.83935 -0.52089 125 129 126
1.79565 -2.84782 -0.51494 143 147 128
1.78700 -2.85629 -0.50900 145 146 133
1.77835 -2.86476 -0.50305 136 135 126
1.76970 -2.87324 -0.49711 139 138 127
1.76104 -2.88171 -0.49116 138 139 130
1.75239 -2.89018 -0.48522 123 120 127
1.74374 -2.89865 -0.47927 120 120 126
1.73508 -2.90713 -0.47333 132 134 126
1.72643 -2.91560 -0.46738 144 144 136
1.71777 -2.92408 -0.46143 147 145 142
1.70912 -2.93255 -0.45548 147 143 141
1.70046 -2.94103 -0.44954 145 142 139
1.69180 -2.94950 -0.44359 144 145 142
1.68314 -2.95798 -0.43764 149 152 143
1.67449 -2.96646 -0.43169 144 142 130
1.66583 -2.97494 -0.42574 139 141 138
1.65717 -2.98342 -0.41979 154 157 149
1.64851 -2.99190 -0.41384 153 154 147
1.63985 -3.00038 -0.40789 147 143 137
1.63118 -3.00886 -0.40193 149 153 138
1.62252 -3.01734 -0.39598 150 151 138
1.61386 -3.02582 -0.39003 150 153 141
1.60520 -3.03430 -0.38408 148 150 142
1.59653 -3.04279 -0.37812 148 147 137
1.58787 -3.05127 -0.37217 149 154 138
1.57920 -3.05975 -0.36622 142 151 140
1.57054 -3.06824 -0.36026 144 142 134
1.56187 -3.07672 -0.35431 140 144 129
1.55320 -3.08521 -0.34835 158 165 144
1.54453 -3.09370 -0.34240 147 140 125
1.53587 -3.10219 -0.33644 133 137 125
1.52720 -3.11067 -0.33048 139 146 132
1.51853 -3.11916 -0.32453 135 135 124
1.50986 -3.12765 -0.31857 142 145 131
1.49252 -3.14463 -0.30665 152 158 152
1.48384 -3.15312 -0.30069 149 155 142
1.47517 -3.16161 -0.29473 153 155 150
1.46650 -3.17011 -0.28877 154 156 141
1.45782 -3.17860 -0.28281 155 156 129
1.44915 -3.18709 -0.27685 157 160 144
