ply
format ascii 1.0
element face 0
property list uchar int vertex_indices
element vertex 1261
property float x
property float y
property float z
property uchar diffuse_red
property uchar diffuse_green
property uchar diffuse_blue
end_header
-0.11670 -4.28078 0.53714 120 117 117
-0.12095 -4.28941 0.54398 114 114 107
-0.12520 -4.29803 0.55082 119 119 120
-0.12945 -4.30665 0.55766 118 111 115
-0.13370 -4.31526 0.56450 124 118 121
-0.13795 -4.32388 0.57134 123 117 112
-0.14220 -4.33250 0.57818 109 111 96
0.74889 -2.49772 -0.87862 183 188 184
0.74455 -2.50654 -0.87163 178 184 185
0.74020 -2.51535 -0.86463 191 198 189
0.73586 -2.52416 -0.85764 184 188 187
0.73151 -2.53298 -0.85064 182 179 178
0.72717 -2.54179 -0.84365 181 188 181
0.72282 -2.55060 -0.83666 177 186 170
0.71848 -2.55941 -0.82967 172 172 171
0.71414 -2.56822 -0.82268 176 183 179
0.70980 -2.57702 -0.81569 167 175 174
0.70546 -2.58583 -0.80870 169 178 168
0.70112 -2.59464 -0.80171 171 179 175
0.69678 -2.60344 -0.79473 174 180 181
0.69244 -2.61224 -0.78774 172 172 172
0.68810 -2.62104 -0.78076 172 174 170
0.68376 -2.62984 -0.77377 172 177 178
0.67942 -2.63864 -0.76679 178 189 182
0.67508 -2.64744 -0.75981 185 191 181
0.67075 -2.65624 -0.75283 176 181 186
0.66641 -2.66504 -0.74585 174 179 187
0.66208 -2.67383 -0.73887 179 181 184
0.65774 -2.68262 -0.73189 173 179 171
0.65341 -2.69142 -0.72491 177 183 176
0.64907 -2.70021 -0.71793 183 186 183
0.64474 -2.70900 -0.71096 175 176 173
0.64040 -2.71779 -0.70398 170 175 175
0.63607 -2.72658 -0.69701 175 191 189
0.63174 -2.73537 -0.69003 168 183 192
0.62741 -2.74415 -0.68306 160 170 184
0.62308 -2.75294 -0.67609 173 182 179
0.61875 -2.76172 -0.66912 178 185 182
0.61442 -2.77050 -0.66215 172 177 181
0.61009 -2.77929 -0.65518 164 168 173
0.60576 -2.78807 -0.64821 155 158 166
0.60143 -2.79685 -0.64124 166 167 174
0.59710 -2.80563 -0.63428 177 180 181
0.59278 -2.81440 -0.62731 176 183 189
0.58845 -2.82318 -0.62035 171 176 178
0.58412 -2.83196 -0.61338 176 185 175
0.57980 -2.84073 -0.60642 174 188 179
0.57547 -2.84950 -0.59946 166 171 184
0.57115 -2.85828 -0.59250 180 190 180
0.56682 -2.86705 -0.58554 179 184 181
0.56250 -2.87582 -0.57858 186 190 193
0.55818 -2.88459 -0.57162 185 188 195
0.55385 -2.89336 -0.56466 184 193 199
0.54953 -2.90212 -0.55770 182 186 184
0.54521 -2.91089 -0.55075 176 183 175
0.53225 -2.93718 -0.52988 167 178 184
0.52793 -2.94594 -0.52293 183 189 177
0.52361 -2.95470 -0.51598 168 173 171
0.51929 -2.96346 -0.50903 167 171 172
0.51498 -2.97222 -0.50208 159 163 165
0.51066 -2.98098 -0.49513 159 168 162
0.50634 -2.98973 -0.48818 170 179 180
0.50203 -2.99849 -0.48123 178 184 179
0.49771 -3.00724 -0.47428 172 183 177
0.49340 -3.01599 -0.46734 168 184 181
0.48908 -3.02475 -0.46039 167 179 173
0.48477 -3.03350 -0.45345 159 165 166
0.48046 -3.04225 -0.44651 160 169 166
0.47614 -3.05099 -0.43956 154 164 166
0.47183 -3.05974 -0.43262 142 150 170
0.46752 -3.06849 -0.42568 154 165 184
0.46321 -3.07723 -0.41874 175 185 194
0.45890 -3.08598 -0.41180 179 184 191
0.45459 -3.09472 -0.40486 167 172 177
0.45028 -3.10346 -0.39793 150 156 162
0.44597 -3.11220 -0.39099 156 166 173
0.44166 -3.12094 -0.38405 174 189 188
0.43735 -3.12968 -0.37712 166 171 174
0.43304 -3.13842 -0.37018 150 152 161
0.42874 -3.14716 -0.36325 158 164 168
0.42443 -3.15589 -0.35632 166 170 170
0.42012 -3.16463 -0.34939 167 172 169
0.41582 -3.17336 -0.34246 167 172 169
0.41151 -3.18209 -0.33553 169 175 167
0.40721 -3.19083 -0.32860 160 166 172
0.40291 -3.19956 -0.32167 154 163 167
0.39860 -3.20828 -0.31474 147 161 167
0.39430 -3.21701 -0.30782 150 157 159
0.39000 -3.22574 -0.30089 164 173 181
0.38570 -3.23447 -0.29397 172 175 172
0.38140 -3.24319 -0.28704 155 164 175
0.37710 -3.25191 -0.28012 164 177 167
0.37279 -3.26064 -0.27320 163 173 174
0.36850 -3.26936 -0.26628 157 164 167
0.36420 -3.27808 -0.25936 170 176 171
0.35990 -3.28680 -0.25244 136 143 140
0.35560 -3.29552 -0.24552 143 164 159
0.35130 -3.30423 -0.23860 147 150 157
0.34701 -3.31295 -0.23168 160 169 158
0.34271 -3.32167 -0.22477 157 159 148
0.33841 -3.33038 -0.21785 169 167 165
0.33412 -3.33909 -0.21094 163 159 154
0.32982 -3.34780 -0.20402 160 151 137
0.32553 -3.35652 -0.19711 142 146 134
0.32124 -3.36523 -0.19020 133 148 141
0.31694 -3.37393 -0.18329 137 145 140
0.31265 -3.38264 -0.17638 151 159 142
0.30836 -3.39135 -0.16947 158 169 171
0.30407 -3.40005 -0.16256 177 185 171
0.29977 -3.40876 -0.15565 160 163 163
0.29548 -3.41746 -0.14875 148 157 166
0.29119 -3.42616 -0.14184 156 168 164
0.28690 -3.43487 -0.13494 157 163 148
0.28262 -3.44357 -0.12803 156 157 147
0.27833 -3.45226 -0.12113 152 153 153
0.27404 -3.46096 -0.11423 148 152 152
0.26975 -3.46966 -0.10732 156 163 155
0.26547 -3.47836 -0.10042 150 151 147
0.26118 -3.48705 -0.09352 137 135 140
0.25689 -3.49574 -0.08662 144 146 150
0.25261 -3.50444 -0.07973 154 153 150
0.24832 -3.51313 -0.07283 143 142 144
0.24404 -3.52182 -0.06593 130 135 140
0.23976 -3.53051 -0.05904 141 146 135
0.23547 -3.53920 -0.05214 146 150 144
0.23119 -3.54788 -0.04525 137 143 156
0.22691 -3.55657 -0.03835 136 148 150
0.22263 -3.56526 -0.03146 141 147 132
0.17556 -3.66072 0.04430 143 143 127
0.17129 -3.66940 0.05118 130 131 127
0.15846 -3.69541 0.07182 128 131 133
0.14565 -3.72141 0.09245 134 123 111
0.14138 -3.73007 0.09933 136 132 121
0.13710 -3.73874 0.10621 124 127 120
0.13283 -3.74740 0.11308 122 121 115
0.12856 -3.75606 0.11995 122 125 128
0.12429 -3.76472 0.12683 131 133 134
0.12003 -3.77338 0.13370 127 135 139
0.11576 -3.78204 0.14057 130 134 132
0.11149 -3.79070 0.14744 135 137 133
0.10722 -3.79935 0.15431 140 140 133
0.10295 -3.80801 0.16118 151 153 133
0.09869 -3.81666 0.16805 150 146 130
0.09442 -3.82532 0.17491 151 152 132
0.09016 -3.83397 0.18178 138 142 122
0.08589 -3.84262 0.18864 136 139 131
0.08163 -3.85127 0.19551 141 144 134
0.07736 -3.85992 0.20237 144 145 128
0.07310 -3.86857 0.20924 145 145 129
0.06884 -3.87722 0.21610 146 144 129
0.06458 -3.88586 0.22296 146 142 126
0.06031 -3.89451 0.22982 135 130 130
0.05605 -3.90315 0.23668 133 131 130
0.05179 -3.91179 0.24354 133 134 129
0.04753 -3.92043 0.25039 136 136 130
0.04327 -3.92907 0.25725 134 134 132
0.03901 -3.93771 0.26411 131 138 141
0.03476 -3.94635 0.27096 138 147 139
0.03050 -3.95499 0.27782 140 142 130
0.02624 -3.96363 0.28467 132 128 124
0.02198 -3.97226 0.29152 124 124 122
0.01773 -3.98090 0.29837 124 128 116
0.01347 -3.98953 0.30523 124 125 116
0.00922 -3.99816 0.31208 128 130 119
0.00496 -4.00679 0.31893 117 119 106
0.00071 -4.01542 0.32577 114 119 114
-0.00355 -4.02405 0.33262 127 128 124
-0.00780 -4.03268 0.33947 133 135 124
-0.01205 -4.04131 0.34631 131 127 119
-0.01631 -4.04993 0.35316 120 114 116
-0.02056 -4.05856 0.36000 114 113 112
-0.02481 -4.06718 0.36685 121 124 125
-0.02906 -4.07580 0.37369 124 126 129
-0.03331 -4.08442 0.38053 125 127 122
-0.03756 -4.09304 0.38737 118 119 115
-0.04181 -4.10166 0.39421 122 122 128
-0.04606 -4.11028 0.40105 128 136 128
-0.05031 -4.11890 0.40789 133 134 120
-0.05455 -4.12752 0.41473 126 120 120
-0.05880 -4.13613 0.42156 122 125 122
-0.06305 -4.14474 0.42840 128 134 120
-0.06729 -4.15336 0.43524 127 129 125
-0.07154 -4.16197 0.44207 128 132 124
-0.07578 -4.17058 0.44890 122 118 109
-0.08003 -4.17919 0.45574 119 114 105
-0.08427 -4.18780 0.46257 120 119 117
-0.08852 -4.19641 0.46940 110 107 99
-0.09276 -4.20501 0.47623 117 119 119
-0.09700 -4.21362 0.48306 118 120 123
-0.10124 -4.22223 0.48989 103 104 113
-0.10548 -4.23083 0.49671 109 108 113
-0.10972 -4.23943 0.50354 114 113 117
-0.11397 -4.24803 0.51037 119 120 120
-0.11820 -4.25663 0.51719 121 120 122
-0.12244 -4.26523 0.52401 121 119 125
-0.12668 -4.27383 0.53084 120 120 115
-0.13092 -4.28243 0.53766 115 120 105
-0.13516 -4.29102 0.54448 112 117 113
-0.13940 -4.29962 0.55130 108 115 115
-0.14363 -4.30821 0.55812 112 122 119
-0.14787 -4.31681 0.56494 125 122 113
-0.15210 -4.32540 0.57176 120 113 108
0.73625 -2.49598 -0.88080 183 191 191
0.73192 -2.50477 -0.87382 173 178 181
0.72759 -2.51356 -0.86685 179 186 181
0.72325 -2.52235 -0.85987 180 184 183
0.71892 -2.53113 -0.85290 184 182 183
0.71459 -2.53992 -0.84593 185 193 189
0.71026 -2.54870 -0.83896 173 181 174
0.70593 -2.55749 -0.83199 166 170 169
0.70161 -2.56627 -0.82502 179 182 182
0.69728 -2.57505 -0.81805 173 181 185
0.69295 -2.58383 -0.81108 175 183 180
0.68862 -2.59261 -0.80411 175 181 180
0.68430 -2.60139 -0.79715 175 179 175
0.67997 -2.61016 -0.79018 180 177 173
0.67565 -2.61894 -0.78322 172 174 168
0.67132 -2.62771 -0.77625 166 171 176
0.66700 -2.63649 -0.76929 168 181 182
0.66267 -2.64526 -0.76233 171 181 180
0.65835 -2.65403 -0.75537 170 176 180
0.65403 -2.66280 -0.74841 176 179 183
0.64970 -2.67157 -0.74145 177 183 184
0.64538 -2.68034 -0.73449 175 182 178
0.64106 -2.68911 -0.72754 179 186 182
0.63674 -2.69787 -0.72058 179 185 185
0.63242 -2.70664 -0.71362 177 185 179
0.62810 -2.71540 -0.70667 173 181 181
0.62378 -2.72416 -0.69971 171 179 183
0.61946 -2.73292 -0.69276 164 174 181
0.61515 -2.74169 -0.68581 155 166 181
0.61083 -2.75045 -0.67886 165 180 183
0.60651 -2.75920 -0.67191 175 187 187
0.60220 -2.76796 -0.66496 172 180 181
0.59788 -2.77672 -0.65801 169 176 173
0.59356 -2.78547 -0.65106 167 167 172
0.58925 -2.79423 -0.64411 174 178 182
0.58494 -2.80298 -0.63717 181 186 197
0.58062 -2.81173 -0.63022 181 190 191
0.57631 -2.82048 -0.62328 172 181 181
0.57200 -2.82923 -0.61633 165 174 181
0.56768 -2.83798 -0.60939 171 182 183
0.56337 -2.84673 -0.60245 167 179 184
0.55906 -2.85548 -0.59551 175 186 184
0.55475 -2.86422 -0.58857 168 182 183
0.55044 -2.87297 -0.58163 176 181 176
0.54613 -2.88171 -0.57469 179 187 194
0.54182 -2.89045 -0.56775 170 172 193
0.53751 -2.89919 -0.56082 174 181 182
0.53321 -2.90793 -0.55388 174 178 166
0.52029 -2.93415 -0.53308 176 186 186
0.51598 -2.94288 -0.52615 181 192 181
0.51168 -2.95162 -0.51921 158 165 172
0.50737 -2.96035 -0.51228 160 180 171
0.50307 -2.96908 -0.50535 160 163 168
0.49876 -2.97781 -0.49842 173 179 179
0.49446 -2.98655 -0.49150 180 188 183
0.49016 -2.99528 -0.48457 178 184 178
0.48586 -3.00400 -0.47764 163 171 169
0.48155 -3.01273 -0.47072 153 164 167
0.47725 -3.02146 -0.46379 157 170 166
0.47295 -3.03018 -0.45687 162 168 161
0.46865 -3.03891 -0.44994 169 181 169
0.46435 -3.04763 -0.44302 162 169 169
0.46005 -3.05635 -0.43610 155 160 168
0.45576 -3.06507 -0.42918 154 164 171
0.45146 -3.07379 -0.42226 164 174 176
0.44716 -3.08251 -0.41534 168 173 169
0.44286 -3.09123 -0.40842 159 160 157
0.43857 -3.09994 -0.40151 156 163 158
0.43427 -3.10866 -0.39459 158 168 172
0.42998 -3.11737 -0.38767 163 168 181
0.42568 -3.12609 -0.38076 164 163 160
0.42139 -3.13480 -0.37385 149 159 152
0.41710 -3.14351 -0.36693 160 181 177
0.41280 -3.15222 -0.36002 181 186 173
0.40851 -3.16093 -0.35311 165 168 162
0.40422 -3.16964 -0.34620 150 159 158
0.39993 -3.17834 -0.33929 157 154 150
0.39564 -3.18705 -0.33238 158 143 158
0.39135 -3.19576 -0.32547 151 157 168
0.38706 -3.20446 -0.31857 153 174 180
0.38277 -3.21316 -0.31166 158 171 164
0.37848 -3.22186 -0.30475 171 174 178
0.37419 -3.23056 -0.29785 174 179 176
0.36990 -3.23926 -0.29095 178 181 177
0.36561 -3.24796 -0.28404 176 184 162
0.36133 -3.25666 -0.27714 157 153 160
0.35704 -3.26535 -0.27024 161 164 171
0.35276 -3.27405 -0.26334 164 176 175
0.34847 -3.28274 -0.25644 146 149 141
0.34419 -3.29144 -0.24954 152 169 141
0.33990 -3.30013 -0.24264 151 154 150
0.33562 -3.30882 -0.23575 155 151 138
0.33134 -3.31751 -0.22885 142 138 132
0.32705 -3.32620 -0.22196 162 157 154
0.32277 -3.33489 -0.21506 160 141 132
0.31849 -3.34357 -0.20817 164 165 155
0.31421 -3.35226 -0.20128 164 170 157
0.30993 -3.36094 -0.19438 157 164 156
0.30565 -3.36963 -0.18749 156 159 152
0.30137 -3.37831 -0.18060 152 156 146
0.29709 -3.38699 -0.17371 152 160 162
0.29281 -3.39567 -0.16683 173 182 167
0.28853 -3.40435 -0.15994 158 160 163
0.28426 -3.41303 -0.15305 152 162 164
0.27998 -3.42170 -0.14617 156 168 159
0.27570 -3.43038 -0.13928 157 165 153
0.27143 -3.43905 -0.13240 153 156 152
0.26715 -3.44773 -0.12551 147 146 147
0.26288 -3.45640 -0.11863 151 150 151
0.25860 -3.46507 -0.11175 159 163 157
0.25433 -3.47374 -0.10487 153 159 150
0.25006 -3.48241 -0.09799 146 153 147
0.24578 -3.49108 -0.09111 151 155 154
0.24151 -3.49975 -0.08423 152 149 158
0.23724 -3.50842 -0.07735 147 148 153
0.23297 -3.51708 -0.07048 150 156 146
0.22870 -3.52575 -0.06360 157 161 139
0.22443 -3.53441 -0.05673 157 161 145
0.22016 -3.54307 -0.04985 143 144 148
0.21589 -3.55173 -0.04298 142 144 144
0.16471 -3.65558 0.03943 145 142 128
0.16044 -3.66423 0.04629 132 127 118
0.15618 -3.67288 0.05316 138 137 120
0.15192 -3.68152 0.06002 140 145 117
0.14766 -3.69016 0.06688 124 123 118
0.13062 -3.72473 0.09431 135 128 123
0.12637 -3.73337 0.10116 121 125 113
0.12211 -3.74201 0.10802 118 112 94
0.11785 -3.75064 0.11487 120 117 113
0.11360 -3.75928 0.12172 127 130 128
0.10934 -3.76791 0.12858 127 132 123
0.10509 -3.77655 0.13543 135 138 124
0.10083 -3.78518 0.14228 136 134 133
0.09658 -3.79381 0.14913 138 142 135
0.09232 -3.80244 0.15598 146 150 126
0.08807 -3.81107 0.16282 138 130 114
0.08382 -3.81970 0.16967 140 141 120
0.07956 -3.82833 0.17652 130 135 123
0.07531 -3.83695 0.18336 132 134 131
0.07106 -3.84558 0.19021 137 137 131
0.06681 -3.85420 0.19705 139 138 127
0.06256 -3.86283 0.20389 144 144 132
0.05831 -3.87145 0.21074 150 149 141
0.05406 -3.88007 0.21758 149 147 133
0.04981 -3.88869 0.22442 136 135 129
0.04557 -3.89731 0.23126 129 131 127
0.04132 -3.90592 0.23810 134 137 129
0.03707 -3.91454 0.24494 142 144 129
0.03282 -3.92316 0.25177 137 140 122
0.02858 -3.93177 0.25861 134 138 124
0.02433 -3.94038 0.26544 138 140 128
0.02009 -3.94900 0.27228 137 139 129
0.01584 -3.95761 0.27911 138 140 131
0.01160 -3.96622 0.28595 136 137 131
0.00736 -3.97483 0.29278 128 132 123
0.00311 -3.98344 0.29961 125 127 117
-0.00113 -3.99204 0.30644 126 123 111
-0.00537 -4.00065 0.31327 120 122 107
-0.00961 -4.00925 0.32010 118 123 112
-0.01385 -4.01786 0.32693 131 133 127
-0.01809 -4.02646 0.33375 136 135 127
-0.02233 -4.03506 0.34058 129 125 116
-0.02657 -4.04366 0.34740 120 115 119
-0.03081 -4.05226 0.35423 121 122 120
-0.03505 -4.06086 0.36105 130 135 128
-0.03929 -4.06946 0.36788 124 123 119
-0.04352 -4.07806 0.37470 121 121 107
-0.04776 -4.08665 0.38152 115 118 118
-0.05200 -4.09525 0.38834 122 124 127
-0.05623 -4.10384 0.39516 124 128 125
-0.06047 -4.11243 0.40198 131 133 126
-0.06470 -4.12103 0.40880 126 116 118
-0.06893 -4.12962 0.41561 120 119 124
-0.07317 -4.13821 0.42243 121 126 118
-0.07740 -4.14679 0.42924 114 116 118
-0.08163 -4.15538 0.43606 114 111 117
-0.08587 -4.16397 0.44287 117 113 113
-0.09010 -4.17255 0.44969 117 110 108
-0.09433 -4.18114 0.45650 118 114 116
-0.09856 -4.18972 0.46331 117 115 102
-0.10279 -4.19830 0.47012 110 105 103
-0.10702 -4.20688 0.47693 108 110 103
-0.11125 -4.21546 0.48374 102 104 103
-0.11547 -4.22404 0.49055 107 111 115
-0.11970 -4.23262 0.49735 109 110 116
-0.12393 -4.24120 0.50416 115 115 115
-0.12816 -4.24977 0.51096 117 115 117
-0.13238 -4.25835 0.51777 122 119 116
-0.13661 -4.26692 0.52457 118 110 107
-0.14083 -4.27549 0.53138 109 103 103
-0.14506 -4.28406 0.53818 105 106 104
-0.14928 -4.29263 0.54498 116 118 120
-0.15351 -4.30120 0.55178 122 113 124
-0.15773 -4.30977 0.55858 118 112 113
-0.16195 -4.31834 0.56538 119 115 112
0.72368 -2.49425 -0.88296 179 188 191
0.71936 -2.50301 -0.87600 168 171 185
0.71505 -2.51177 -0.86905 180 184 189
0.71073 -2.52054 -0.86209 179 182 185
0.70641 -2.52930 -0.85514 182 184 182
0.70209 -2.53806 -0.84819 184 187 189
0.69778 -2.54682 -0.84124 184 189 183
0.69346 -2.55557 -0.83429 181 189 183
0.68915 -2.56433 -0.82734 182 182 185
0.68483 -2.57308 -0.82039 170 174 189
0.68052 -2.58184 -0.81344 178 185 188
0.67620 -2.59059 -0.80650 186 190 188
0.67189 -2.59934 -0.79955 176 176 174
0.66758 -2.60810 -0.79261 178 176 176
0.66327 -2.61685 -0.78566 179 184 177
0.65896 -2.62559 -0.77872 177 179 177
0.65465 -2.63434 -0.77178 170 174 176
0.65034 -2.64309 -0.76484 167 176 180
0.64603 -2.65183 -0.75790 170 178 181
0.64172 -2.66058 -0.75096 175 183 182
0.63741 -2.66932 -0.74402 172 183 186
0.63310 -2.67807 -0.73708 175 184 186
0.62879 -2.68681 -0.73014 184 188 189
0.62448 -2.69555 -0.72321 181 180 184
0.62018 -2.70429 -0.71627 173 175 179
0.61587 -2.71302 -0.70934 172 175 182
0.61157 -2.72176 -0.70240 168 173 178
0.60726 -2.73050 -0.69547 164 173 177
0.60296 -2.73923 -0.68854 170 180 185
0.59865 -2.74797 -0.68161 179 187 191
0.59435 -2.75670 -0.67468 186 189 192
0.59005 -2.76543 -0.66775 185 193 188
0.58574 -2.77416 -0.66082 167 177 180
0.58144 -2.78289 -0.65389 160 169 177
0.57714 -2.79162 -0.64697 172 181 182
0.57284 -2.80035 -0.64004 178 186 193
0.56854 -2.80907 -0.63312 176 183 186
0.56424 -2.81780 -0.62619 169 173 181
0.55994 -2.82652 -0.61927 167 175 184
0.55564 -2.83525 -0.61235 176 192 193
0.55134 -2.84397 -0.60542 171 179 182
0.54705 -2.85269 -0.59850 178 185 185
0.54275 -2.86141 -0.59158 180 187 188
0.53845 -2.87013 -0.58466 180 185 186
0.53416 -2.87885 -0.57775 177 177 185
0.52986 -2.88756 -0.57083 168 153 180
0.52557 -2.89628 -0.56391 186 193 183
0.52127 -2.90499 -0.55700 192 194 172
0.51698 -2.91371 -0.55008 174 170 175
0.51269 -2.92242 -0.54317 172 174 179
0.50839 -2.93113 -0.53625 178 181 175
0.50410 -2.93984 -0.52934 181 191 188
0.49981 -2.94855 -0.52243 171 175 184
0.49552 -2.95726 -0.51552 168 185 181
0.49123 -2.96597 -0.50861 166 176 177
0.48694 -2.97467 -0.50170 165 166 173
0.48265 -2.98338 -0.49479 172 176 181
0.47836 -2.99208 -0.48789 171 179 185
0.47407 -3.00078 -0.48098 162 174 186
0.46978 -3.00949 -0.47407 161 170 176
0.46549 -3.01819 -0.46717 163 173 171
0.46121 -3.02689 -0.46027 169 179 156
0.45692 -3.03558 -0.45336 174 187 171
0.45263 -3.04428 -0.44646 167 175 171
0.44835 -3.05298 -0.43956 164 177 171
0.44406 -3.06167 -0.43266 165 177 172
0.43978 -3.07037 -0.42576 172 180 161
0.43549 -3.07906 -0.41886 169 178 150
0.43121 -3.08775 -0.41196 161 167 148
0.42693 -3.09645 -0.40506 168 176 161
0.42265 -3.10514 -0.39817 158 169 168
0.41836 -3.11382 -0.39127 152 160 170
0.41408 -3.12251 -0.38438 163 170 169
0.40980 -3.13120 -0.37748 151 159 156
0.40552 -3.13988 -0.37059 154 169 162
0.40124 -3.14857 -0.36370 170 182 166
0.39696 -3.15725 -0.35681 161 163 164
0.39268 -3.16594 -0.34992 158 164 168
0.38841 -3.17462 -0.34303 159 163 156
0.38413 -3.18330 -0.33614 151 143 152
0.37985 -3.19198 -0.32925 146 151 165
0.37558 -3.20066 -0.32237 167 179 177
0.37130 -3.20933 -0.31548 166 160 160
0.36702 -3.21801 -0.30859 158 165 160
0.36275 -3.22668 -0.30171 164 171 171
0.35847 -3.23536 -0.29483 181 189 177
0.35420 -3.24403 -0.28794 168 171 154
0.34993 -3.25270 -0.28106 145 144 147
0.34565 -3.26137 -0.27418 154 155 162
0.34138 -3.27004 -0.26730 163 176 166
0.33711 -3.27871 -0.26042 160 155 153
0.33284 -3.28738 -0.25354 163 160 143
0.32857 -3.29605 -0.24667 160 154 145
0.32430 -3.30471 -0.23979 165 170 158
0.32003 -3.31338 -0.23291 158 161 160
0.31576 -3.32204 -0.22604 159 150 158
0.31149 -3.33070 -0.21916 160 149 134
0.30722 -3.33937 -0.21229 164 169 166
0.30295 -3.34803 -0.20542 168 172 162
0.29869 -3.35668 -0.19854 155 160 152
0.29442 -3.36534 -0.19167 157 162 165
0.29015 -3.37400 -0.18480 153 157 152
0.28589 -3.38266 -0.17793 150 161 154
0.28162 -3.39131 -0.17107 161 171 157
0.27736 -3.39997 -0.16420 153 160 159
0.27309 -3.40862 -0.15733 148 161 164
0.26883 -3.41727 -0.15047 152 166 165
0.26457 -3.42592 -0.14360 160 164 158
0.26031 -3.43457 -0.13674 155 156 147
0.25604 -3.44322 -0.12987 147 146 144
0.25178 -3.45187 -0.12301 143 143 156
0.24752 -3.46051 -0.11615 149 154 166
0.24326 -3.46916 -0.10929 160 170 174
0.23900 -3.47780 -0.10243 160 169 168
0.23474 -3.48645 -0.09557 152 156 154
0.23048 -3.49509 -0.08871 151 152 153
0.22622 -3.50373 -0.08185 158 160 155
0.22197 -3.51237 -0.07500 165 169 161
0.21771 -3.52101 -0.06814 166 170 161
0.21345 -3.52965 -0.06129 157 160 153
0.20920 -3.53828 -0.05443 143 145 141
0.20494 -3.54692 -0.04758 144 142 133
0.15391 -3.65047 0.03460 134 128 120
0.14966 -3.65909 0.04144 135 132 123
0.13692 -3.68495 0.06196 131 134 118
0.11994 -3.71942 0.08931 130 130 130
0.11569 -3.72803 0.09615 124 131 120
0.11145 -3.73665 0.10298 126 126 112
0.10720 -3.74526 0.10982 128 123 115
0.10296 -3.75387 0.11665 132 134 125
0.09872 -3.76248 0.12348 138 134 111
0.09448 -3.77109 0.13032 144 139 121
0.09023 -3.77969 0.13715 137 132 131
0.08599 -3.78830 0.14398 127 133 130
0.08175 -3.79691 0.15081 136 140 127
0.07751 -3.80551 0.15763 138 138 124
0.07327 -3.81411 0.16446 141 143 128
0.06903 -3.82272 0.17129 137 137 133
0.06479 -3.83132 0.17811 138 139 134
0.06056 -3.83992 0.18494 136 136 129
0.05632 -3.84852 0.19176 131 129 124
0.05208 -3.85712 0.19859 129 128 126
0.04785 -3.86571 0.20541 140 139 137
0.04361 -3.87431 0.21223 142 140 137
0.03937 -3.88290 0.21905 133 134 122
0.03514 -3.89150 0.22587 126 131 114
0.03090 -3.90009 0.23269 127 131 121
0.02667 -3.90868 0.23951 135 139 129
0.02244 -3.91727 0.24633 135 142 123
0.01820 -3.92586 0.25314 134 133 119
0.01397 -3.93445 0.25996 133 128 123
0.00974 -3.94304 0.26677 133 134 125
0.00551 -3.95163 0.27359 140 142 132
0.00128 -3.96021 0.28040 141 141 134
-0.00295 -3.96880 0.28721 135 137 126
-0.00718 -3.97738 0.29402 131 135 120
-0.01141 -3.98596 0.30083 126 126 110
-0.01564 -3.99454 0.30764 127 129 112
-0.01987 -4.00312 0.31445 124 125 111
-0.02410 -4.01170 0.32126 124 128 126
-0.02832 -4.02028 0.32807 130 128 128
-0.03255 -4.02886 0.33488 129 126 121
-0.03678 -4.03743 0.34168 127 130 126
-0.04100 -4.04601 0.34849 130 136 132
-0.04523 -4.05458 0.35529 135 141 133
-0.04945 -4.06316 0.36210 129 130 114
-0.05368 -4.07173 0.36890 123 124 105
-0.05790 -4.08030 0.37570 119 128 124
-0.06212 -4.08887 0.38250 122 129 131
-0.06635 -4.09744 0.38930 118 122 121
-0.07057 -4.10601 0.39610 132 137 125
-0.07479 -4.11457 0.40290 128 122 123
-0.07901 -4.12314 0.40970 123 123 130
-0.08323 -4.13170 0.41649 116 119 116
-0.08745 -4.14027 0.42329 106 110 114
-0.09167 -4.14883 0.43008 112 114 118
-0.09589 -4.15739 0.43688 121 123 120
-0.10011 -4.16595 0.44367 121 127 117
-0.10433 -4.17451 0.45046 113 113 118
-0.10854 -4.18307 0.45726 116 110 104
-0.11276 -4.19163 0.46405 110 103 95
-0.11698 -4.20018 0.47084 105 105 99
-0.12119 -4.20874 0.47763 104 107 106
-0.12541 -4.21729 0.48441 111 114 118
-0.12962 -4.22585 0.49120 111 114 118
-0.13384 -4.23440 0.49799 118 122 118
-0.13805 -4.24295 0.50477 125 126 120
-0.14226 -4.25150 0.51156 129 127 119
-0.14648 -4.26005 0.51834 118 114 111
-0.15069 -4.26860 0.52513 107 105 113
-0.15490 -4.27714 0.53191 96 91 102
-0.15911 -4.28569 0.53869 93 86 101
-0.16332 -4.29423 0.54547 101 92 102
-0.16753 -4.30278 0.55225 113 110 106
-0.17174 -4.31132 0.55903 117 119 115
0.71119 -2.49253 -0.88510 173 176 175
0.70688 -2.50126 -0.87817 169 170 180
0.70258 -2.51000 -0.87123 185 189 196
0.69827 -2.51874 -0.86430 179 179 189
0.69397 -2.52747 -0.85737 179 180 183
0.68967 -2.53621 -0.85044 180 187 188
0.68536 -2.54494 -0.84351 181 181 186
0.68106 -2.55367 -0.83658 177 182 189
0.67676 -2.56240 -0.82965 186 193 185
0.67246 -2.57113 -0.82272 171 171 189
0.66816 -2.57986 -0.81579 178 182 184
0.66386 -2.58859 -0.80887 188 191 186
0.65956 -2.59732 -0.80194 174 177 179
0.65526 -2.60604 -0.79502 177 179 179
0.65096 -2.61477 -0.78810 181 183 180
0.64666 -2.62349 -0.78117 183 188 182
0.64237 -2.63221 -0.77425 172 176 175
0.63807 -2.64093 -0.76733 179 184 183
0.63377 -2.64965 -0.76041 180 193 187
0.62948 -2.65837 -0.75349 170 179 180
0.62518 -2.66709 -0.74657 170 175 184
0.62089 -2.67581 -0.73965 178 181 187
0.61659 -2.68452 -0.73274 184 188 187
0.61230 -2.69324 -0.72582 183 185 180
0.60801 -2.70195 -0.71891 170 174 181
0.60371 -2.71066 -0.71199 169 177 189
0.59942 -2.71938 -0.70508 173 183 184
0.59513 -2.72809 -0.69817 171 184 178
0.59084 -2.73679 -0.69125 176 189 179
0.58655 -2.74550 -0.68434 175 184 179
0.58226 -2.75421 -0.67743 178 182 183
0.57797 -2.76292 -0.67052 180 188 195
0.57368 -2.77162 -0.66362 165 179 183
0.56939 -2.78033 -0.65671 159 171 172
0.56510 -2.78903 -0.64980 169 170 176
0.56082 -2.79773 -0.64290 176 180 182
0.55653 -2.80643 -0.63599 179 186 180
0.55224 -2.81513 -0.62909 178 178 177
0.54796 -2.82383 -0.62218 180 179 177
0.54367 -2.83253 -0.61528 177 183 186
0.53939 -2.84123 -0.60838 163 161 170
0.53510 -2.84992 -0.60148 182 187 185
0.53082 -2.85862 -0.59458 195 196 198
0.52654 -2.86731 -0.58768 179 187 190
0.52225 -2.87600 -0.58078 167 160 173
0.51797 -2.88469 -0.57389 172 170 180
0.51369 -2.89338 -0.56699 189 197 192
0.50941 -2.90207 -0.56009 193 197 184
0.50513 -2.91076 -0.55320 180 173 177
0.50085 -2.91945 -0.54630 189 188 193
0.49657 -2.92813 -0.53941 183 186 185
0.49229 -2.93682 -0.53252 178 187 183
0.48801 -2.94550 -0.52563 173 180 180
0.48373 -2.95419 -0.51874 173 182 180
0.47946 -2.96287 -0.51185 173 180 176
0.47518 -2.97155 -0.50496 164 168 167
0.47090 -2.98023 -0.49807 172 164 164
0.46663 -2.98891 -0.49118 185 186 177
0.46235 -2.99758 -0.48430 159 149 171
0.45808 -3.00626 -0.47741 150 150 170
0.45380 -3.01494 -0.47053 159 165 170
0.44953 -3.02361 -0.46364 172 187 166
0.44526 -3.03228 -0.45676 168 184 170
0.44098 -3.04096 -0.44988 172 180 170
0.43671 -3.04963 -0.44300 167 180 172
0.43244 -3.05830 -0.43612 166 180 176
0.42817 -3.06697 -0.42924 179 194 179
0.42390 -3.07563 -0.42236 184 197 180
0.41963 -3.08430 -0.41548 181 187 171
0.41536 -3.09297 -0.40860 172 178 166
0.41109 -3.10163 -0.40173 155 163 167
0.40682 -3.11030 -0.39485 150 162 163
0.40255 -3.11896 -0.38798 161 168 157
0.39828 -3.12762 -0.38110 154 151 145
0.39402 -3.13628 -0.37423 148 152 152
0.38975 -3.14494 -0.36736 155 163 164
0.38548 -3.15360 -0.36049 155 160 171
0.38122 -3.16226 -0.35362 166 169 171
0.37695 -3.17091 -0.34675 160 163 157
0.37269 -3.17957 -0.33988 146 150 156
0.36843 -3.18822 -0.33301 142 147 162
0.36416 -3.19687 -0.32614 166 162 168
0.35990 -3.20553 -0.31928 167 168 171
0.35564 -3.21418 -0.31241 159 168 167
0.35138 -3.22283 -0.30555 162 171 173
0.34711 -3.23148 -0.29868 173 180 173
0.34285 -3.24012 -0.29182 176 181 157
0.33859 -3.24877 -0.28496 149 153 160
0.33433 -3.25742 -0.27810 149 160 164
0.33007 -3.26606 -0.27124 159 171 175
0.32582 -3.27471 -0.26438 171 170 169
0.32156 -3.28335 -0.25752 187 191 174
0.31730 -3.29199 -0.25066 186 174 160
0.31304 -3.30063 -0.24380 165 172 173
0.30879 -3.30927 -0.23695 166 176 171
0.30453 -3.31791 -0.23009 157 152 164
0.30027 -3.32655 -0.22324 169 178 166
0.29602 -3.33518 -0.21639 164 167 173
0.29177 -3.34382 -0.20953 164 168 161
0.28751 -3.35245 -0.20268 151 157 160
0.28326 -3.36108 -0.19583 158 159 166
0.27900 -3.36972 -0.18898 153 152 150
0.27475 -3.37835 -0.18213 158 163 153
0.27050 -3.38698 -0.17528 162 165 156
0.26625 -3.39561 -0.16843 150 157 151
0.26200 -3.40423 -0.16159 132 143 146
0.25775 -3.41286 -0.15474 144 155 164
0.25350 -3.42149 -0.14790 168 178 179
0.24925 -3.43011 -0.14105 161 167 159
0.24500 -3.43874 -0.13421 152 156 151
0.24075 -3.44736 -0.12736 146 150 159
0.23650 -3.45598 -0.12052 146 152 165
0.23226 -3.46460 -0.11368 155 165 176
0.22801 -3.47322 -0.10684 158 166 170
0.22376 -3.48184 -0.10000 152 157 155
0.21952 -3.49046 -0.09316 154 159 152
0.21527 -3.49907 -0.08633 159 168 159
0.21103 -3.50769 -0.07949 150 158 167
0.20678 -3.51630 -0.07265 147 153 157
0.20254 -3.52491 -0.06582 150 156 147
0.19830 -3.53353 -0.05898 145 149 144
0.19405 -3.54214 -0.05215 147 146 135
0.18981 -3.55075 -0.04532 143 135 128
0.14318 -3.64539 0.02979 133 132 125
0.13895 -3.65399 0.03661 137 143 123
0.12624 -3.67977 0.05708 141 147 124
0.10931 -3.71414 0.08435 125 125 124
0.10508 -3.72273 0.09116 121 125 118
0.10085 -3.73132 0.09798 123 128 131
0.09662 -3.73990 0.10479 131 137 133
0.09239 -3.74849 0.11161 136 143 142
0.08816 -3.75707 0.11842 149 149 133
0.08393 -3.76566 0.12523 146 138 123
0.07970 -3.77424 0.13204 135 136 126
0.07547 -3.78282 0.13885 123 129 124
0.07124 -3.79140 0.14566 129 131 130
0.06702 -3.79998 0.15247 138 145 143
0.06279 -3.80856 0.15928 143 147 143
0.05856 -3.81714 0.16609 146 145 140
0.05434 -3.82572 0.17289 144 145 134
0.05011 -3.83429 0.17970 139 144 134
0.04589 -3.84287 0.18650 131 129 124
0.04166 -3.85144 0.19331 125 121 118
0.03744 -3.86001 0.20011 132 129 121
0.03322 -3.86858 0.20691 139 136 127
0.02900 -3.87715 0.21371 129 128 115
0.02477 -3.88572 0.22051 122 126 113
0.02055 -3.89429 0.22731 125 131 124
0.01633 -3.90286 0.23411 135 142 134
0.01211 -3.91142 0.24091 135 147 138
0.00789 -3.91999 0.24771 129 135 132
0.00367 -3.92855 0.25450 127 124 126
-0.00055 -3.93712 0.26130 131 131 126
-0.00477 -3.94568 0.26809 140 142 131
-0.00898 -3.95424 0.27489 138 139 132
-0.01320 -3.96280 0.28168 128 133 120
-0.01742 -3.97136 0.28847 130 137 119
-0.02163 -3.97992 0.29526 129 137 119
-0.02585 -3.98847 0.30205 137 138 125
-0.03007 -3.99703 0.30884 136 131 126
-0.03428 -4.00558 0.31563 124 121 123
-0.03850 -4.01414 0.32242 126 120 120
-0.04271 -4.02269 0.32921 131 128 119
-0.04692 -4.03124 0.33599 129 132 126
-0.05113 -4.03979 0.34278 128 132 131
-0.05535 -4.04834 0.34956 130 133 130
-0.05956 -4.05689 0.35635 131 134 123
-0.06377 -4.06544 0.36313 127 129 127
-0.06798 -4.07398 0.36991 125 134 131
-0.07219 -4.08253 0.37670 121 129 135
-0.07640 -4.09107 0.38348 121 128 122
-0.08061 -4.09962 0.39026 131 133 122
-0.08482 -4.10816 0.39703 129 129 129
-0.08903 -4.11670 0.40381 130 134 132
-0.09323 -4.12524 0.41059 126 127 122
-0.09744 -4.13378 0.41737 123 128 122
-0.10165 -4.14232 0.42414 126 130 126
-0.10585 -4.15085 0.43092 128 132 123
-0.11006 -4.15939 0.43769 122 128 120
-0.11427 -4.16792 0.44446 105 108 120
-0.11847 -4.17646 0.45124 112 110 113
-0.12267 -4.18499 0.45801 117 116 111
-0.12688 -4.19352 0.46478 113 111 107
-0.13108 -4.20205 0.47155 123 124 112
-0.13528 -4.21058 0.47832 120 123 118
-0.13949 -4.21911 0.48509 111 116 114
-0.14369 -4.22764 0.49185 119 121 119
-0.14789 -4.23617 0.49862 120 118 116
-0.15209 -4.24469 0.50539 120 117 108
-0.15629 -4.25322 0.51215 117 110 103
-0.16049 -4.26174 0.51892 114 110 109
-0.16469 -4.27026 0.52568 113 115 108
-0.16889 -4.27879 0.53244 115 114 107
-0.17308 -4.28731 0.53920 117 108 107
-0.17728 -4.29583 0.54596 117 112 108
-0.18148 -4.30434 0.55272 113 109 103
0.69877 -2.49081 -0.88724 176 176 172
0.69448 -2.49953 -0.88032 176 176 172
0.69018 -2.50824 -0.87341 178 180 179
0.68589 -2.51695 -0.86650 176 180 187
0.68160 -2.52566 -0.85958 177 180 183
0.67731 -2.53437 -0.85267 177 183 180
0.67302 -2.54308 -0.84576 180 179 185
0.66874 -2.55178 -0.83885 167 171 187
0.66445 -2.56049 -0.83195 179 189 184
0.66016 -2.56919 -0.82504 178 180 184
0.65587 -2.57789 -0.81813 172 179 179
0.65159 -2.58660 -0.81123 180 182 176
0.64730 -2.59530 -0.80432 178 179 180
0.64301 -2.60400 -0.79742 176 176 179
0.63873 -2.61270 -0.79051 176 177 176
0.63444 -2.62139 -0.78361 180 186 185
0.63016 -2.63009 -0.77671 173 178 184
0.62588 -2.63879 -0.76981 183 190 184
0.62159 -2.64748 -0.76291 177 184 178
0.61731 -2.65618 -0.75601 162 166 169
0.61303 -2.66487 -0.74911 163 171 182
0.60875 -2.67356 -0.74221 169 177 185
0.60447 -2.68225 -0.73532 171 180 179
0.60019 -2.69094 -0.72842 169 174 179
0.59591 -2.69963 -0.72153 167 173 187
0.59163 -2.70832 -0.71463 174 183 193
0.58735 -2.71700 -0.70774 174 184 187
0.58307 -2.72569 -0.70085 173 187 180
0.57879 -2.73437 -0.69395 176 188 180
0.57452 -2.74305 -0.68706 172 183 177
0.57024 -2.75174 -0.68017 174 184 177
0.56596 -2.76042 -0.67328 175 182 179
0.56169 -2.76910 -0.66640 172 179 174
0.55741 -2.77778 -0.65951 171 176 174
0.55314 -2.78645 -0.65262 170 175 179
0.54886 -2.79513 -0.64574 174 183 187
0.54459 -2.80381 -0.63885 178 191 192
0.54032 -2.81248 -0.63197 183 194 197
0.53604 -2.82115 -0.62508 183 189 184
0.53177 -2.82983 -0.61820 173 179 177
0.52750 -2.83850 -0.61132 157 164 163
0.52323 -2.84717 -0.60444 176 187 187
0.51896 -2.85584 -0.59756 185 192 200
0.51469 -2.86451 -0.59068 177 186 188
0.51042 -2.87317 -0.58380 164 172 175
0.50615 -2.88184 -0.57693 170 176 183
0.50188 -2.89050 -0.57005 188 196 189
0.49761 -2.89917 -0.56317 183 182 188
0.49335 -2.90783 -0.55630 165 161 173
0.48908 -2.91649 -0.54942 176 176 180
0.48481 -2.92515 -0.54255 181 187 192
0.48055 -2.93381 -0.53568 171 170 177
0.47628 -2.94247 -0.52881 161 162 167
0.47202 -2.95113 -0.52194 169 172 172
0.46775 -2.95979 -0.51507 180 193 176
0.46349 -2.96844 -0.50820 169 176 174
0.45923 -2.97710 -0.50133 177 186 183
0.45496 -2.98575 -0.49446 186 192 187
0.45070 -2.99440 -0.48760 149 151 158
0.44644 -3.00305 -0.48073 137 154 168
0.44218 -3.01170 -0.47387 148 162 176
0.43792 -3.02035 -0.46700 160 171 176
0.43366 -3.02900 -0.46014 162 172 172
0.42940 -3.03765 -0.45328 171 178 169
0.42514 -3.04629 -0.44642 174 183 175
0.42088 -3.05494 -0.43955 172 179 178
0.41662 -3.06358 -0.43270 173 184 184
0.41237 -3.07223 -0.42584 176 188 185
0.40811 -3.08087 -0.41898 179 184 169
0.40385 -3.08951 -0.41212 168 168 154
0.39960 -3.09815 -0.40526 148 150 155
0.39534 -3.10679 -0.39841 152 161 162
0.39109 -3.11542 -0.39155 163 169 160
0.38683 -3.12406 -0.38470 151 151 150
0.38258 -3.13270 -0.37785 145 150 146
0.37833 -3.14133 -0.37100 153 159 159
0.37407 -3.14996 -0.36414 149 157 165
0.36982 -3.15860 -0.35729 160 168 167
0.36557 -3.16723 -0.35044 161 163 161
0.36132 -3.17586 -0.34359 160 166 176
0.35707 -3.18449 -0.33675 157 163 168
0.35282 -3.19312 -0.32990 168 177 177
0.34857 -3.20174 -0.32305 168 166 168
0.34432 -3.21037 -0.31621 180 176 181
0.34007 -3.21899 -0.30936 163 167 170
0.33582 -3.22762 -0.30252 166 168 165
0.33157 -3.23624 -0.29568 160 157 161
0.32733 -3.24486 -0.28883 143 150 164
0.32308 -3.25348 -0.28199 152 158 156
0.31883 -3.26210 -0.27515 153 156 157
0.31459 -3.27072 -0.26831 156 164 152
0.31034 -3.27934 -0.26147 165 175 171
0.30610 -3.28796 -0.25464 163 172 176
0.30185 -3.29657 -0.24780 160 159 160
0.29761 -3.30519 -0.24096 154 163 162
0.29337 -3.31380 -0.23413 156 166 164
0.28913 -3.32241 -0.22729 157 159 162
0.28488 -3.33102 -0.22046 146 148 162
0.28064 -3.33963 -0.21362 149 159 158
0.27640 -3.34824 -0.20679 144 153 157
0.27216 -3.35685 -0.19996 161 169 167
0.26792 -3.36546 -0.19313 144 151 158
0.26368 -3.37406 -0.18630 146 160 159
0.25944 -3.38267 -0.17947 157 164 160
0.25520 -3.39127 -0.17264 151 155 150
0.25097 -3.39988 -0.16582 134 143 126
0.24673 -3.40848 -0.15899 139 147 133
0.24249 -3.41708 -0.15216 158 163 164
0.23826 -3.42568 -0.14534 158 157 162
0.23402 -3.43428 -0.13852 156 160 156
0.22978 -3.44288 -0.13169 157 163 151
0.22555 -3.45147 -0.12487 154 156 152
0.22132 -3.46007 -0.11805 146 147 158
0.21708 -3.46866 -0.11123 150 152 158
0.21285 -3.47726 -0.10441 153 157 158
0.20862 -3.48585 -0.09759 155 162 157
0.20438 -3.49444 -0.09077 155 164 161
0.20015 -3.50303 -0.08395 140 142 163
0.19592 -3.51162 -0.07714 139 143 154
0.19169 -3.52021 -0.07032 151 160 151
0.18746 -3.52880 -0.06351 157 161 155
0.18323 -3.53738 -0.05669 158 163 155
0.17900 -3.54597 -0.04988 153 158 147
0.11563 -3.67462 0.05222 142 143 122
0.09875 -3.70889 0.07941 116 115 111
0.09453 -3.71745 0.08621 118 121 114
0.09031 -3.72602 0.09300 129 127 131
0.08609 -3.73458 0.09980 131 132 134
0.08187 -3.74314 0.10659 133 143 148
0.07766 -3.75170 0.11339 149 159 155
0.07344 -3.76026 0.12018 146 147 133
0.06923 -3.76882 0.12697 131 138 121
0.06501 -3.77738 0.13376 118 124 119
0.06080 -3.78593 0.14055 119 120 122
0.05658 -3.79449 0.14734 135 138 142
0.05237 -3.80304 0.15413 143 144 141
0.04816 -3.81159 0.16092 143 142 134
0.04394 -3.82015 0.16770 141 142 133
0.03973 -3.82870 0.17449 143 148 141
0.03552 -3.83725 0.18127 139 140 129
0.03131 -3.84580 0.18806 137 135 120
0.02710 -3.85434 0.19484 134 135 121
0.02289 -3.86289 0.20163 131 133 123
0.01868 -3.87144 0.20841 116 114 118
0.01447 -3.87998 0.21519 109 111 119
0.01026 -3.88852 0.22197 120 127 123
0.00605 -3.89707 0.22875 129 134 124
0.00184 -3.90561 0.23553 126 129 129
-0.00236 -3.91415 0.24230 122 126 133
-0.00657 -3.92269 0.24908 128 132 135
-0.01078 -3.93123 0.25586 134 137 129
-0.01498 -3.93976 0.26263 136 136 125
-0.01919 -3.94830 0.26941 132 133 123
-0.02339 -3.95684 0.27618 124 127 114
-0.02759 -3.96537 0.28295 124 130 115
-0.03180 -3.97390 0.28972 128 133 126
-0.03600 -3.98244 0.29650 136 133 130
-0.04020 -3.99097 0.30327 139 132 133
-0.04441 -3.99950 0.31004 134 129 128
-0.04861 -4.00803 0.31680 129 123 117
-0.05281 -4.01656 0.32357 129 125 113
-0.05701 -4.02508 0.33034 126 126 119
-0.06121 -4.03361 0.33711 125 126 123
-0.06541 -4.04213 0.34387 125 126 125
-0.06961 -4.05066 0.35064 125 125 130
-0.07381 -4.05918 0.35740 124 124 134
-0.07800 -4.06770 0.36416 123 124 125
-0.08220 -4.07622 0.37092 116 120 123
-0.08640 -4.08474 0.37769 130 132 126
-0.09059 -4.09326 0.38445 130 125 124
-0.09479 -4.10178 0.39121 126 127 121
-0.09899 -4.11030 0.39796 128 129 119
-0.10318 -4.11881 0.40472 131 135 128
-0.10737 -4.12733 0.41148 134 136 132
-0.11157 -4.13584 0.41824 134 134 139
-0.11576 -4.14435 0.42499 129 130 128
-0.11995 -4.15287 0.43175 122 123 124
-0.12415 -4.16138 0.43850 113 113 121
-0.12834 -4.16989 0.44525 114 116 114
-0.13253 -4.17839 0.45201 115 122 110
-0.13672 -4.18690 0.45876 109 109 107
-0.14091 -4.19541 0.46551 116 117 114
-0.14510 -4.20391 0.47226 116 119 114
-0.14929 -4.21242 0.47901 116 118 115
-0.15348 -4.22092 0.48575 124 122 122
-0.15767 -4.22942 0.49250 118 118 118
-0.16185 -4.23793 0.49925 117 117 113
-0.16604 -4.24643 0.50599 122 121 117
-0.17023 -4.25493 0.51274 123 121 117
-0.17442 -4.26342 0.51948 122 120 113
-0.17860 -4.27192 0.52623 116 116 122
-0.18279 -4.28042 0.53297 116 115 119
-0.18697 -4.28891 0.53971 117 115 112
-0.19116 -4.29741 0.54645 114 110 105
0.69070 -2.48042 -0.89625 174 165 166
0.68642 -2.48911 -0.88936 185 184 179
0.68214 -2.49780 -0.88247 190 190 172
0.67786 -2.50649 -0.87557 178 178 170
0.67359 -2.51517 -0.86868 179 188 182
0.66931 -2.52386 -0.86179 179 185 179
0.66503 -2.53254 -0.85490 180 179 174
0.66076 -2.54122 -0.84801 180 183 186
0.65648 -2.54990 -0.84112 176 185 187
0.65221 -2.55858 -0.83423 178 184 193
0.64793 -2.56726 -0.82734 182 187 185
0.64366 -2.57594 -0.82045 174 184 181
0.63938 -2.58462 -0.81357 178 180 176
0.63511 -2.59329 -0.80668 185 183 181
0.63084 -2.60197 -0.79980 180 180 178
0.62657 -2.61064 -0.79292 175 178 176
0.62230 -2.61931 -0.78603 172 175 182
0.61803 -2.62799 -0.77915 168 169 184
0.61375 -2.63666 -0.77227 183 185 190
0.60949 -2.64533 -0.76539 182 183 179
0.60522 -2.65399 -0.75851 173 175 171
0.60095 -2.66266 -0.75163 167 173 178
0.59668 -2.67133 -0.74476 167 178 184
0.59241 -2.67999 -0.73788 176 184 181
0.58814 -2.68866 -0.73100 177 175 179
0.58388 -2.69732 -0.72413 171 168 181
0.57961 -2.70598 -0.71725 176 178 186
0.57535 -2.71464 -0.71038 179 185 188
0.57108 -2.72330 -0.70351 173 181 186
0.56682 -2.73196 -0.69664 168 176 184
0.56255 -2.74062 -0.68977 172 183 181
0.55829 -2.74928 -0.68290 182 194 187
0.55403 -2.75793 -0.67603 182 193 187
0.54976 -2.76659 -0.66916 173 179 177
0.54550 -2.77524 -0.66229 171 173 175
0.54124 -2.78389 -0.65542 169 172 175
0.53698 -2.79254 -0.64856 175 176 180
0.53272 -2.80119 -0.64169 175 179 188
0.52846 -2.80984 -0.63483 178 183 195
0.52420 -2.81849 -0.62797 174 179 180
0.51994 -2.82714 -0.62110 162 172 170
0.51568 -2.83579 -0.61424 154 168 164
0.51142 -2.84443 -0.60738 177 191 176
0.50717 -2.85308 -0.60052 176 179 176
0.50291 -2.86172 -0.59366 165 169 177
0.49865 -2.87036 -0.58680 159 169 171
0.49440 -2.87900 -0.57995 153 154 168
0.49014 -2.88764 -0.57309 181 197 186
0.48589 -2.89628 -0.56623 184 187 189
0.48163 -2.90492 -0.55938 177 185 192
0.47738 -2.91356 -0.55253 178 183 192
0.47313 -2.92219 -0.54567 178 188 197
0.46887 -2.93083 -0.53882 165 161 179
0.46462 -2.93946 -0.53197 166 170 176
0.46037 -2.94809 -0.52512 171 175 176
0.45612 -2.95672 -0.51827 184 188 179
0.45187 -2.96535 -0.51142 170 167 176
0.44762 -2.97398 -0.50457 175 177 177
0.44337 -2.98261 -0.49772 180 180 180
0.43912 -2.99124 -0.49088 171 175 166
0.43487 -2.99987 -0.48403 169 171 171
0.43062 -3.00849 -0.47719 166 164 176
0.42638 -3.01712 -0.47034 173 175 174
0.42213 -3.02574 -0.46350 176 179 170
0.41788 -3.03436 -0.45666 162 170 168
0.41364 -3.04298 -0.44981 166 173 178
0.40939 -3.05160 -0.44297 174 179 183
0.40515 -3.06022 -0.43613 179 188 185
0.40090 -3.06884 -0.42929 186 191 181
0.39666 -3.07746 -0.42246 174 171 164
0.39242 -3.08607 -0.41562 149 142 161
0.38817 -3.09469 -0.40878 144 145 170
0.38393 -3.10330 -0.40195 159 169 164
0.37969 -3.11191 -0.39511 171 176 166
0.37545 -3.12052 -0.38828 165 169 167
0.37121 -3.12913 -0.38144 152 160 152
0.36697 -3.13774 -0.37461 151 161 150
0.36273 -3.14635 -0.36778 145 158 157
0.35849 -3.15496 -0.36095 159 170 171
0.35425 -3.16357 -0.35412 159 165 166
0.35001 -3.17217 -0.34729 163 161 172
0.34577 -3.18078 -0.34046 173 175 180
0.34154 -3.18938 -0.33363 169 176 179
0.33730 -3.19798 -0.32681 162 163 154
0.33306 -3.20658 -0.31998 172 170 159
0.32883 -3.21518 -0.31316 170 172 169
0.32459 -3.22378 -0.30633 158 161 165
0.32036 -3.23238 -0.29951 159 159 154
0.31612 -3.24098 -0.29269 160 162 162
0.31189 -3.24957 -0.28586 164 163 160
0.30766 -3.25817 -0.27904 150 152 152
0.30342 -3.26676 -0.27222 155 163 145
0.29919 -3.27535 -0.26540 156 152 145
0.29496 -3.28395 -0.25859 144 156 160
0.29073 -3.29254 -0.25177 153 160 151
0.28650 -3.30113 -0.24495 150 150 152
0.28227 -3.30972 -0.23814 155 158 156
0.27804 -3.31830 -0.23132 147 149 139
0.27381 -3.32689 -0.22451 133 133 136
0.26958 -3.33547 -0.21769 153 162 159
0.26535 -3.34406 -0.21088 155 161 151
0.26113 -3.35264 -0.20407 166 174 162
0.25690 -3.36123 -0.19726 140 142 157
0.25267 -3.36981 -0.19045 139 144 159
0.24845 -3.37839 -0.18364 151 158 158
0.24422 -3.38697 -0.17683 152 151 150
0.24000 -3.39554 -0.17002 147 148 142
0.23577 -3.40412 -0.16322 148 156 140
0.23155 -3.41270 -0.15641 154 158 149
0.22733 -3.42127 -0.14960 158 160 156
0.22310 -3.42985 -0.14280 163 169 162
0.21888 -3.43842 -0.13600 162 161 149
0.21466 -3.44699 -0.12919 151 144 141
0.21044 -3.45556 -0.12239 138 138 146
0.20622 -3.46413 -0.11559 142 147 153
0.20200 -3.47270 -0.10879 154 153 158
0.19778 -3.48127 -0.10199 154 153 156
0.19356 -3.48984 -0.09519 151 158 158
0.18934 -3.49840 -0.08839 151 157 154
0.18512 -3.50697 -0.08160 155 154 149
0.18090 -3.51553 -0.07480 159 156 153
0.17669 -3.52409 -0.06801 162 165 155
0.17247 -3.53266 -0.06121 161 167 159
0.16825 -3.54122 -0.05442 154 159 148
0.10507 -3.66950 0.04739 140 136 117
0.10087 -3.67804 0.05417 129 120 120
0.09245 -3.69513 0.06773 149 149 146
0.08824 -3.70367 0.07450 120 122 110
0.08404 -3.71221 0.08128 125 138 122
0.07983 -3.72075 0.08806 139 141 131
0.07563 -3.72929 0.09483 130 127 121
0.07142 -3.73782 0.10161 128 133 131
0.06722 -3.74636 0.10838 140 155 148
0.06302 -3.75489 0.11516 141 149 141
0.05881 -3.76343 0.12193 127 130 113
0.05461 -3.77196 0.12870 115 115 119
0.05041 -3.78049 0.13547 115 116 120
0.04621 -3.78902 0.14224 128 134 134
0.04201 -3.79755 0.14901 137 139 133
0.03781 -3.80608 0.15578 143 143 128
0.03361 -3.81461 0.16254 143 144 133
0.02941 -3.82314 0.16931 142 144 143
0.02521 -3.83166 0.17608 137 138 130
0.02101 -3.84019 0.18284 130 128 121
0.01681 -3.84871 0.18961 127 128 123
0.01262 -3.85723 0.19637 126 128 121
0.00842 -3.86575 0.20313 118 117 120
0.00422 -3.87427 0.20989 115 115 120
0.00003 -3.88279 0.21665 119 121 115
-0.00417 -3.89131 0.22341 116 114 109
-0.00836 -3.89983 0.23017 118 113 121
-0.01256 -3.90834 0.23693 127 130 139
-0.01675 -3.91686 0.24369 135 142 141
-0.02094 -3.92537 0.25045 135 136 130
-0.02514 -3.93389 0.25720 130 128 121
-0.02933 -3.94240 0.26396 132 132 120
-0.03352 -3.95091 0.27071 132 131 116
-0.03771 -3.95942 0.27746 127 126 117
-0.04190 -3.96793 0.28422 126 125 122
-0.04609 -3.97644 0.29097 125 125 121
-0.05028 -3.98494 0.29772 122 123 124
-0.05447 -3.99345 0.30447 126 131 131
-0.05866 -4.00195 0.31122 124 123 115
-0.06285 -4.01046 0.31797 123 117 109
-0.06704 -4.01896 0.32472 123 123 115
-0.07122 -4.02746 0.33146 123 122 117
-0.07541 -4.03596 0.33821 122 122 122
-0.07960 -4.04446 0.34495 117 118 128
-0.08378 -4.05296 0.35170 114 115 130
-0.08797 -4.06146 0.35844 120 121 120
-0.09215 -4.06996 0.36519 119 122 118
-0.09634 -4.07845 0.37193 127 130 129
-0.10052 -4.08695 0.37867 124 118 126
-0.10470 -4.09544 0.38541 121 119 121
-0.10889 -4.10393 0.39215 123 126 115
-0.11307 -4.11242 0.39889 128 132 124
-0.11725 -4.12091 0.40563 129 130 129
-0.12143 -4.12940 0.41236 129 131 137
-0.12561 -4.13789 0.41910 125 123 123
-0.12979 -4.14638 0.42584 122 121 114
-0.13397 -4.15487 0.43257 121 120 114
-0.13815 -4.16335 0.43930 117 116 108
-0.14233 -4.17184 0.44604 117 118 110
-0.14651 -4.18032 0.45277 120 122 118
-0.15068 -4.18880 0.45950 119 124 111
-0.15486 -4.19728 0.46623 115 117 105
-0.15904 -4.20576 0.47296 113 116 117
-0.16321 -4.21424 0.47969 120 120 115
-0.16739 -4.22272 0.48642 118 121 110
-0.17157 -4.23120 0.49315 121 121 112
-0.17574 -4.23967 0.49987 124 122 113
-0.17991 -4.24815 0.50660 122 121 102
-0.18409 -4.25662 0.51332 122 119 95
-0.18826 -4.26510 0.52005 116 112 109
-0.19243 -4.27357 0.52677 117 115 113
-0.19661 -4.28204 0.53349 119 115 117
-0.20078 -4.29051 0.54022 119 114 112
0.68268 -2.47009 -0.90522 189 191 199
0.67841 -2.47876 -0.89834 183 180 186
0.67414 -2.48742 -0.89147 188 191 183
0.66988 -2.49608 -0.88460 191 194 187
0.66561 -2.50475 -0.87772 190 196 185
0.66135 -2.51341 -0.87085 188 191 183
0.65709 -2.52206 -0.86398 183 182 183
0.65282 -2.53072 -0.85711 189 192 178
0.64856 -2.53938 -0.85024 180 182 184
0.64430 -2.54804 -0.84337 180 187 185
0.64004 -2.55669 -0.83650 178 184 195
0.63577 -2.56534 -0.82963 181 185 184
0.63151 -2.57400 -0.82276 186 195 184
0.62725 -2.58265 -0.81590 184 190 182
0.62299 -2.59130 -0.80903 181 181 182
0.61873 -2.59995 -0.80217 177 176 176
0.61448 -2.60860 -0.79531 169 172 173
0.61022 -2.61724 -0.78844 160 163 172
0.60596 -2.62589 -0.78158 158 163 177
0.60170 -2.63454 -0.77472 174 178 190
0.59745 -2.64318 -0.76786 180 186 190
0.59319 -2.65182 -0.76100 178 180 181
0.58894 -2.66047 -0.75414 172 175 179
0.58468 -2.66911 -0.74728 172 183 186
0.58043 -2.67775 -0.74043 177 188 189
0.57617 -2.68639 -0.73357 178 187 186
0.57192 -2.69502 -0.72672 171 176 174
0.56767 -2.70366 -0.71986 177 181 178
0.56341 -2.71230 -0.71301 186 188 191
0.55916 -2.72093 -0.70616 180 177 187
0.55491 -2.72957 -0.69930 174 180 186
0.55066 -2.73820 -0.69245 180 189 189
0.54641 -2.74683 -0.68560 194 198 193
0.54216 -2.75546 -0.67875 192 196 188
0.53791 -2.76409 -0.67191 176 182 180
0.53366 -2.77272 -0.66506 169 171 175
0.52941 -2.78135 -0.65821 167 168 173
0.52516 -2.78997 -0.65136 180 181 180
0.52092 -2.79860 -0.64452 184 189 192
0.51667 -2.80722 -0.63768 175 174 182
0.51242 -2.81585 -0.63083 161 164 168
0.50818 -2.82447 -0.62399 164 173 170
0.50393 -2.83309 -0.61715 171 179 170
0.49969 -2.84171 -0.61031 188 197 192
0.49544 -2.85033 -0.60347 196 202 198
0.49120 -2.85895 -0.59663 169 177 186
0.48696 -2.86757 -0.58979 155 167 163
0.48271 -2.87618 -0.58295 162 166 171
0.47847 -2.88480 -0.57611 174 179 191
0.47423 -2.89341 -0.56928 173 182 189
0.46999 -2.90202 -0.56244 182 185 190
0.46575 -2.91063 -0.55561 178 182 191
0.46151 -2.91925 -0.54877 172 169 186
0.45727 -2.92786 -0.54194 168 167 186
0.45303 -2.93646 -0.53511 162 172 184
0.44879 -2.94507 -0.52828 172 187 177
0.44455 -2.95368 -0.52145 178 183 175
0.44032 -2.96228 -0.51462 169 167 159
0.43608 -2.97089 -0.50779 168 167 164
0.43184 -2.97949 -0.50096 168 164 169
0.42761 -2.98809 -0.49414 167 172 175
0.42337 -2.99670 -0.48731 177 190 189
0.41914 -3.00530 -0.48049 177 186 180
0.41490 -3.01390 -0.47366 174 180 174
0.41067 -3.02249 -0.46684 168 171 172
0.39797 -3.04828 -0.44637 157 171 173
0.39374 -3.05688 -0.43955 157 165 170
0.38951 -3.06547 -0.43273 160 155 167
0.38528 -3.07406 -0.42591 158 155 162
0.38104 -3.08265 -0.41910 162 175 169
0.37682 -3.09124 -0.41228 175 188 181
0.37259 -3.09983 -0.40546 181 181 171
0.36836 -3.10842 -0.39865 174 175 166
0.36413 -3.11701 -0.39183 168 171 166
0.35990 -3.12559 -0.38502 174 177 161
0.35567 -3.13418 -0.37821 173 178 161
0.35145 -3.14276 -0.37139 157 163 163
0.34722 -3.15134 -0.36458 161 165 163
0.34300 -3.15992 -0.35777 164 172 164
0.33877 -3.16851 -0.35096 177 185 181
0.33455 -3.17709 -0.34415 173 175 175
0.33032 -3.18566 -0.33735 166 173 181
