ply
format ascii 1.0
element face 0
property list uchar int vertex_indices
element vertex 1291
property float x
property float y
property float z
property uchar diffuse_red
property uchar diffuse_green
property uchar diffuse_blue
end_header
0.53228 -4.53162 0.74796 122 117 113
0.53067 -4.54134 0.75541 125 132 134
0.52905 -4.55107 0.76286 107 116 114
0.52744 -4.56078 0.77031 102 98 100
0.52583 -4.57050 0.77776 110 112 112
0.52422 -4.58022 0.78521 125 123 114
0.51755 -4.53623 0.75012 115 116 138
0.51594 -4.54592 0.75755 119 121 116
0.51433 -4.55561 0.76498 119 122 104
0.51272 -4.56530 0.77241 121 120 116
0.51112 -4.57499 0.77984 120 117 114
0.51091 -4.49248 0.71522 121 129 122
0.50931 -4.50215 0.72263 121 124 126
0.50771 -4.51182 0.73005 124 118 112
0.50610 -4.52148 0.73746 123 124 117
0.50450 -4.53115 0.74487 137 143 141
0.50290 -4.54081 0.75228 136 128 111
0.50130 -4.55048 0.75969 115 113 103
0.49970 -4.56014 0.76709 122 121 119
0.49810 -4.56980 0.77450 111 100 91
0.49792 -4.48754 0.71008 113 106 117
0.49632 -4.49718 0.71747 118 117 115
0.49473 -4.50682 0.72487 122 115 112
0.49313 -4.51646 0.73226 121 118 110
0.49153 -4.52610 0.73965 122 123 117
0.48994 -4.53573 0.74703 125 115 120
0.48834 -4.54537 0.75442 118 120 114
0.48675 -4.55500 0.76181 136 123 125
0.48515 -4.56463 0.76919 112 100 93
0.48342 -4.49224 0.71235 121 109 117
0.48182 -4.50186 0.71972 109 109 121
0.48023 -4.51147 0.72708 115 120 115
0.47864 -4.52108 0.73445 122 122 122
0.47705 -4.53068 0.74182 132 131 122
0.47546 -4.54029 0.74918 119 115 92
0.47387 -4.54989 0.75655 124 118 116
0.47228 -4.55950 0.76391 120 106 110
0.46900 -4.49692 0.71460 130 126 125
0.46741 -4.50650 0.72194 116 116 106
0.46583 -4.51608 0.72929 119 129 119
0.46424 -4.52566 0.73663 128 136 116
0.46266 -4.53524 0.74398 128 126 107
0.46107 -4.54482 0.75132 130 129 114
0.45949 -4.55439 0.75866 128 125 105
0.49581 -4.25265 0.52597 123 121 114
0.48630 -4.31018 0.57009 119 129 118
0.48472 -4.31977 0.57743 126 123 124
0.48314 -4.32935 0.58478 123 124 114
0.48155 -4.33893 0.59213 113 119 109
0.47997 -4.34851 0.59947 104 109 90
0.45625 -4.49201 0.70951 137 134 126
0.45467 -4.50157 0.71683 107 110 69
0.45309 -4.51112 0.72416 115 120 115
0.45151 -4.52067 0.73148 119 122 121
0.44993 -4.53022 0.73880 134 129 127
0.44835 -4.53977 0.74613 131 136 136
0.44677 -4.54932 0.75345 132 128 113
0.48300 -4.24846 0.52144 124 124 109
0.48142 -4.25803 0.52877 118 120 111
0.47984 -4.26759 0.53611 122 120 118
0.47826 -4.27715 0.54344 119 115 107
0.47668 -4.28671 0.55077 130 128 116
0.47510 -4.29627 0.55810 112 109 108
0.47352 -4.30583 0.56543 117 127 120
0.47194 -4.31538 0.57275 123 124 125
0.47036 -4.32494 0.58008 133 132 121
0.46878 -4.33449 0.58740 111 113 91
0.46721 -4.34404 0.59473 100 102 88
0.46563 -4.35359 0.60205 103 98 112
0.46248 -4.37268 0.61669 107 111 116
0.46090 -4.38223 0.62401 112 121 106
0.44829 -4.45854 0.68252 123 123 116
0.44672 -4.46807 0.68983 120 108 121
0.44357 -4.48713 0.70445 131 140 144
0.44200 -4.49666 0.71175 126 131 109
0.44042 -4.50619 0.71905 123 118 106
0.43885 -4.51571 0.72636 104 110 111
0.43728 -4.52523 0.73366 131 133 128
0.43570 -4.53475 0.74096 130 124 132
0.43413 -4.54427 0.74826 128 125 120
0.47025 -4.24430 0.51693 119 117 108
0.46868 -4.25383 0.52425 130 136 123
0.46711 -4.26337 0.53156 124 123 117
0.46553 -4.27290 0.53887 108 109 109
0.46396 -4.28244 0.54618 114 117 112
0.46238 -4.29197 0.55349 117 120 119
0.46081 -4.30150 0.56079 124 137 139
0.45924 -4.31103 0.56810 120 121 124
0.45767 -4.32055 0.57540 127 132 116
0.45609 -4.33008 0.58271 111 113 94
0.45452 -4.33960 0.59001 114 110 97
0.45295 -4.34912 0.59731 107 113 108
0.45138 -4.35864 0.60461 112 114 111
0.42940 -4.49178 0.70670 132 134 132
0.42783 -4.50128 0.71398 137 139 134
0.42626 -4.51078 0.72126 119 112 101
0.42470 -4.52027 0.72855 108 95 97
0.42313 -4.52977 0.73583 124 118 125
0.42156 -4.53926 0.74310 126 120 114
0.45759 -4.24016 0.51245 111 107 114
0.45602 -4.24967 0.51975 115 120 126
0.45445 -4.25918 0.52704 120 118 115
0.45288 -4.26868 0.53433 115 113 117
0.45131 -4.27819 0.54161 122 123 119
0.41531 -4.49640 0.70894 122 120 113
0.41375 -4.50587 0.71620 128 133 107
0.44655 -4.22656 0.50073 141 142 131
0.44499 -4.23604 0.50800 130 129 126
0.44343 -4.24552 0.51527 128 126 119
0.43403 -4.22249 0.49632 129 124 106
0.43247 -4.23195 0.50357 121 118 104
0.40150 -4.18230 0.46167 119 124 122
0.39078 -4.16905 0.45025 108 110 112
0.38925 -4.17841 0.45742 118 116 118
0.37859 -4.16521 0.44605 117 120 108
0.37706 -4.17454 0.45320 123 123 118
0.36647 -4.16139 0.44187 121 126 113
0.36494 -4.17069 0.44900 126 132 123
0.35441 -4.15759 0.43771 109 115 112
0.35289 -4.16686 0.44483 126 131 128
0.35137 -4.17614 0.45194 136 134 131
0.34242 -4.15381 0.43358 103 110 106
0.34091 -4.16306 0.44068 116 124 121
0.33939 -4.17231 0.44777 126 125 124
0.33050 -4.15005 0.42948 115 117 104
0.32899 -4.15928 0.43655 110 112 115
0.32748 -4.16850 0.44362 114 113 120
0.32597 -4.17772 0.45070 121 117 119
0.31865 -4.14631 0.42539 120 115 100
0.31715 -4.15551 0.43245 111 105 109
0.31564 -4.16471 0.43950 117 120 122
0.31413 -4.17391 0.44655 124 127 124
0.30687 -4.14260 0.42133 121 121 114
0.30537 -4.15177 0.42836 118 113 115
0.30386 -4.16094 0.43540 122 122 123
0.30236 -4.17011 0.44243 124 127 126
0.25745 -4.44461 0.65295 127 115 112
0.25596 -4.45374 0.65995 115 101 107
0.25446 -4.46287 0.66695 103 106 108
0.29365 -4.14805 0.42431 122 120 123
0.29215 -4.15720 0.43132 120 118 123
0.29066 -4.16634 0.43834 118 120 124
0.28916 -4.17549 0.44535 123 126 123
0.24738 -4.43098 0.64129 118 117 117
0.24590 -4.44008 0.64827 105 93 103
0.24441 -4.44919 0.65526 96 87 96
0.24292 -4.45829 0.66224 99 98 96
0.24143 -4.46739 0.66922 104 108 113
0.28051 -4.15347 0.42727 115 111 122
0.27902 -4.16259 0.43426 116 116 126
0.27753 -4.17171 0.44125 121 125 125
0.27604 -4.18083 0.44825 125 132 116
0.23441 -4.43558 0.64362 105 103 100
0.23292 -4.44466 0.65059 104 108 100
0.23144 -4.45373 0.65755 111 113 114
0.22996 -4.46281 0.66451 112 104 122
0.26745 -4.15886 0.43021 110 113 123
0.26596 -4.16796 0.43718 121 129 127
0.22002 -4.44921 0.65289 105 103 106
0.21855 -4.45826 0.65983 111 107 113
0.20867 -4.44470 0.64825 115 114 115
0.20720 -4.45373 0.65517 123 120 126
0.19885 -4.43122 0.63674 115 114 104
0.19591 -4.44923 0.65054 120 123 118
0.18762 -4.42679 0.63217 111 116 114
0.17791 -4.41343 0.62076 123 124 117
0.16825 -4.40014 0.60941 127 130 109
0.15864 -4.38693 0.59812 111 103 99
0.23620 -3.83818 0.17608 133 134 116
0.23474 -3.84714 0.18295 132 129 125
0.14908 -4.37378 0.58689 120 127 117
0.14763 -4.38266 0.59371 117 115 92
0.14619 -4.39155 0.60052 106 114 96
0.14474 -4.40044 0.60734 119 112 104
0.23805 -3.75488 0.11105 138 135 141
0.22496 -3.83541 0.17281 141 138 110
0.22351 -3.84435 0.17967 141 146 138
0.22684 -3.75234 0.10796 135 137 143
0.21524 -3.82373 0.16272 125 126 127
0.21379 -3.83265 0.16956 137 138 115
0.21234 -3.84157 0.17640 132 136 138
0.21090 -3.85048 0.18323 141 142 130
0.21569 -3.74982 0.10489 137 142 148
0.20701 -3.80322 0.14585 136 124 112
0.20557 -3.81212 0.15268 129 129 124
0.20413 -3.82101 0.15950 133 138 120
0.20268 -3.82991 0.16632 140 137 115
0.20124 -3.83880 0.17314 128 135 132
0.19979 -3.84769 0.17996 134 136 130
0.20459 -3.74731 0.10184 128 130 136
0.20315 -3.75619 0.10865 138 133 138
0.20171 -3.76506 0.11546 140 139 136
0.20027 -3.77394 0.12227 125 120 127
0.19883 -3.78282 0.12908 124 127 124
0.19595 -3.80057 0.14269 136 128 122
0.19451 -3.80944 0.14950 132 135 121
0.19307 -3.81831 0.15630 148 155 124
0.19163 -3.82718 0.16311 150 146 111
0.19019 -3.83605 0.16991 146 144 130
0.18875 -3.84491 0.17671 145 142 134
0.19356 -3.74481 0.09880 145 141 138
0.19212 -3.75366 0.10560 136 130 138
0.19069 -3.76252 0.11239 145 144 144
0.18925 -3.77137 0.11918 124 128 128
0.18781 -3.78022 0.12597 119 112 112
0.18638 -3.78907 0.13276 140 141 132
0.18494 -3.79792 0.13955 131 128 120
0.18351 -3.80677 0.14634 133 130 124
0.18207 -3.81562 0.15312 145 150 123
0.18064 -3.82447 0.15991 136 139 105
0.17920 -3.83331 0.16669 149 153 142
0.17777 -3.84216 0.17348 145 148 137
1.64820 -2.43605 1.18810 171 159 142
1.63684 -2.44034 1.19556 170 154 135
1.62553 -2.44461 1.20298 170 153 139
1.61428 -2.44886 1.21037 169 152 134
1.60309 -2.45308 1.21771 169 151 126
1.59195 -2.45729 1.22502 167 149 130
1.58087 -2.46147 1.23230 168 148 132
1.56985 -2.46563 1.23954 168 147 127
1.55888 -2.46978 1.24674 166 147 127
1.54797 -2.47390 1.25390 166 146 126
1.53710 -2.47800 1.26103 165 142 122
1.52630 -2.48208 1.26813 165 143 120
1.49420 -2.49420 1.28920 172 148 127
1.48360 -2.49820 1.29616 171 149 125
1.47306 -2.50218 1.30308 175 150 124
1.46257 -2.50614 1.30997 172 152 130
1.45213 -2.51008 1.31682 172 152 128
1.44174 -2.51400 1.32365 172 148 129
1.43140 -2.51791 1.33043 171 147 129
1.42111 -2.52179 1.33719 172 148 128
1.41087 -2.52566 1.34391 170 147 127
1.65011 -2.44528 1.17818 171 158 142
1.63871 -2.44956 1.18569 171 153 137
1.62736 -2.45382 1.19316 170 152 137
1.61607 -2.45805 1.20059 169 150 133
1.60484 -2.46227 1.20799 169 149 129
1.59367 -2.46646 1.21534 169 148 126
1.58255 -2.47064 1.22267 168 149 126
1.57149 -2.47479 1.22995 167 148 123
1.56048 -2.47892 1.23720 165 147 127
1.54953 -2.48303 1.24441 166 145 130
1.53863 -2.48712 1.25158 170 145 125
1.52779 -2.49119 1.25872 169 146 124
1.51700 -2.49524 1.26583 168 146 125
1.50626 -2.49927 1.27290 171 146 121
1.49558 -2.50328 1.27993 175 149 127
1.48495 -2.50727 1.28693 173 150 126
1.47437 -2.51124 1.29390 174 150 125
1.46385 -2.51519 1.30083 174 152 137
1.45337 -2.51912 1.30773 171 153 123
1.44295 -2.52304 1.31459 172 149 121
1.43258 -2.52693 1.32142 176 151 130
1.42225 -2.53080 1.32822 174 151 130
1.41198 -2.53466 1.33498 173 153 127
1.40176 -2.53850 1.34171 170 155 115
1.65204 -2.45456 1.16820 174 156 139
1.64059 -2.45883 1.17575 173 152 139
1.62921 -2.46308 1.18327 171 153 138
1.61788 -2.46731 1.19076 169 151 135
1.60661 -2.47151 1.19820 170 149 130
1.59539 -2.47570 1.20560 168 149 120
1.58424 -2.47986 1.21297 167 149 120
1.57314 -2.48400 1.22030 168 148 117
1.56209 -2.48812 1.22760 167 148 123
1.55110 -2.49222 1.23486 167 146 126
1.54017 -2.49630 1.24208 168 147 125
1.52929 -2.50036 1.24926 167 146 124
1.51846 -2.50440 1.25641 168 146 127
1.50769 -2.50842 1.26353 170 149 126
1.49697 -2.51242 1.27060 172 152 131
1.48631 -2.51640 1.27765 170 150 133
1.47569 -2.52036 1.28466 173 152 129
1.46513 -2.52430 1.29163 176 153 133
1.45462 -2.52822 1.29857 171 153 125
1.44417 -2.53212 1.30548 172 155 126
1.43376 -2.53600 1.31235 174 155 132
1.42340 -2.53987 1.31919 174 152 132
1.41310 -2.54371 1.32600 174 152 131
1.40284 -2.54754 1.33277 171 150 115
1.65397 -2.46390 1.15815 176 156 133
1.64249 -2.46816 1.16576 174 153 133
1.63106 -2.47240 1.17333 171 153 133
1.61969 -2.47662 1.18086 169 152 131
1.60838 -2.48081 1.18835 170 151 130
1.59713 -2.48499 1.19580 169 150 126
1.58593 -2.48914 1.20322 169 149 124
1.57480 -2.49327 1.21060 169 148 123
1.56371 -2.49738 1.21794 169 148 123
1.55269 -2.50147 1.22524 169 147 125
1.54171 -2.50554 1.23251 168 146 133
1.53080 -2.50959 1.23974 167 146 127
1.51993 -2.51361 1.24694 168 147 129
1.50913 -2.51762 1.25410 170 150 130
1.49837 -2.52161 1.26122 172 152 132
1.48767 -2.52558 1.26831 174 153 131
1.47702 -2.52953 1.27536 174 153 134
1.46643 -2.53346 1.28238 175 153 137
1.45588 -2.53737 1.28936 175 151 128
1.44539 -2.54126 1.29631 174 153 137
1.43495 -2.54513 1.30323 172 152 133
1.42456 -2.54898 1.31011 174 152 134
1.41422 -2.55282 1.31696 176 152 127
1.40393 -2.55663 1.32378 172 147 107
1.65592 -2.47331 1.14805 172 156 129
1.64440 -2.47755 1.15570 172 153 128
1.63293 -2.48178 1.16332 172 152 130
1.62152 -2.48599 1.17090 170 150 132
1.61017 -2.49017 1.17844 168 150 136
1.59888 -2.49433 1.18594 168 150 137
1.58764 -2.49847 1.19341 169 151 130
1.57646 -2.50259 1.20083 169 150 126
1.56534 -2.50669 1.20822 170 149 127
1.55428 -2.51077 1.21557 170 146 129
1.54327 -2.51483 1.22289 169 146 132
1.53231 -2.51887 1.23016 169 147 128
1.52142 -2.52288 1.23741 169 148 126
1.51057 -2.52688 1.24461 171 149 130
1.49978 -2.53086 1.25178 174 150 134
1.48904 -2.53482 1.25891 174 153 124
1.47836 -2.53875 1.26601 174 153 134
1.46773 -2.54267 1.27307 176 152 135
1.45715 -2.54657 1.28010 176 152 132
1.44662 -2.55045 1.28709 175 155 131
1.43615 -2.55431 1.29405 173 154 125
1.42572 -2.55816 1.30098 175 153 134
1.41535 -2.56198 1.30787 175 151 132
1.40503 -2.56578 1.31473 168 144 123
1.65788 -2.48277 1.13787 170 156 134
1.64631 -2.48700 1.14558 169 152 132
1.63481 -2.49122 1.15325 170 151 133
1.62336 -2.49541 1.16088 169 148 134
1.61197 -2.49959 1.16847 169 148 134
1.60064 -2.50374 1.17602 169 148 133
1.58936 -2.50787 1.18353 168 149 127
1.57814 -2.51198 1.19101 168 149 124
1.56698 -2.51606 1.19844 167 147 131
1.55588 -2.52013 1.20584 169 146 133
1.54483 -2.52418 1.21320 169 146 130
1.53384 -2.52821 1.22053 170 149 130
1.52291 -2.53221 1.22782 169 149 126
1.51202 -2.53620 1.23507 171 148 129
1.50120 -2.54016 1.24228 170 148 135
1.49042 -2.54411 1.24946 171 149 129
1.47970 -2.54804 1.25660 174 151 130
1.46904 -2.55194 1.26371 175 150 121
1.45842 -2.55583 1.27078 172 152 129
1.44786 -2.55970 1.27782 174 156 128
1.43735 -2.56355 1.28482 172 155 129
1.42689 -2.56738 1.29179 174 153 140
1.41649 -2.57119 1.29872 174 150 131
1.65986 -2.49229 1.12764 172 156 137
1.64825 -2.49651 1.13540 171 152 135
1.63670 -2.50072 1.14312 169 151 134
1.62521 -2.50490 1.15080 167 150 135
1.61378 -2.50906 1.15844 169 149 132
1.60240 -2.51320 1.16604 169 147 127
1.59109 -2.51732 1.17360 169 147 131
1.57983 -2.52142 1.18112 167 147 131
1.56864 -2.52549 1.18860 166 146 131
1.55749 -2.52955 1.19605 169 146 129
1.54641 -2.53359 1.20346 169 148 129
1.53538 -2.53760 1.21083 172 151 136
1.52440 -2.54160 1.21817 171 148 124
1.51349 -2.54557 1.22546 173 146 131
1.50262 -2.54953 1.23272 170 147 135
1.49181 -2.55346 1.23995 172 150 134
1.48106 -2.55738 1.24714 174 151 139
1.47035 -2.56127 1.25429 175 151 127
1.45970 -2.56515 1.26141 174 154 129
1.44911 -2.56901 1.26849 177 154 131
1.43856 -2.57284 1.27554 177 154 130
1.42807 -2.57666 1.28255 176 152 129
1.41763 -2.58046 1.28953 175 151 127
1.66184 -2.50187 1.11734 173 156 140
1.65019 -2.50608 1.12515 172 153 135
1.63860 -2.51028 1.13292 169 151 134
1.62707 -2.51445 1.14065 166 149 133
1.61560 -2.51860 1.14834 167 150 129
1.60418 -2.52272 1.15599 168 148 127
1.59283 -2.52683 1.16360 169 147 131
1.58153 -2.53092 1.17117 168 148 130
1.57030 -2.53498 1.17870 167 147 128
1.55912 -2.53903 1.18620 166 148 126
1.54799 -2.54305 1.19366 169 149 126
1.53692 -2.54706 1.20108 171 151 130
1.52591 -2.55104 1.20846 170 149 125
1.51496 -2.55500 1.21580 172 149 130
1.50406 -2.55894 1.22311 172 148 132
1.49321 -2.56287 1.23038 174 152 132
1.48242 -2.56677 1.23761 175 153 136
1.47168 -2.57066 1.24481 175 154 131
1.46099 -2.57452 1.25197 173 154 132
1.45036 -2.57837 1.25910 178 156 131
1.43978 -2.58219 1.26619 177 155 129
1.42926 -2.58600 1.27325 177 153 127
1.41878 -2.58979 1.28027 175 151 128
1.66384 -2.51151 1.10697 173 155 135
1.65215 -2.51571 1.11484 174 153 131
1.64051 -2.51989 1.12266 171 152 132
1.62894 -2.52405 1.13044 169 150 130
1.61743 -2.52819 1.13818 169 149 128
1.60598 -2.53231 1.14588 168 147 128
1.59458 -2.53640 1.15354 167 147 128
1.58325 -2.54048 1.16116 166 148 129
1.57197 -2.54453 1.16874 166 147 124
1.56075 -2.54856 1.17629 166 149 122
1.54959 -2.55258 1.18379 170 151 125
1.53848 -2.55657 1.19126 174 152 128
1.52743 -2.56054 1.19869 171 151 126
1.51644 -2.56449 1.20608 171 150 127
1.50550 -2.56842 1.21343 171 150 133
1.49461 -2.57233 1.22075 173 149 136
1.48379 -2.57623 1.22803 175 151 135
1.47301 -2.58010 1.23528 177 154 135
1.46229 -2.58395 1.24248 177 154 135
1.45162 -2.58779 1.24966 178 157 134
1.44101 -2.59160 1.25679 176 157 133
1.43045 -2.59540 1.26389 177 154 133
1.41994 -2.59917 1.27096 175 152 129
1.66585 -2.52121 1.09654 172 154 140
1.65412 -2.52541 1.10446 174 153 137
1.64244 -2.52957 1.11233 172 151 131
1.63083 -2.53372 1.12016 171 149 128
1.61927 -2.53785 1.12795 172 147 129
1.60778 -2.54195 1.13570 169 147 128
1.59634 -2.54604 1.14342 166 149 121
1.58497 -2.55010 1.15109 165 151 126
1.57365 -2.55414 1.15872 167 150 125
1.56239 -2.55816 1.16631 169 150 125
1.55119 -2.56216 1.17387 171 152 131
1.54005 -2.56614 1.18138 172 153 137
1.52896 -2.57010 1.18886 168 152 129
1.51793 -2.57404 1.19630 170 151 130
1.50695 -2.57796 1.20370 172 151 134
1.49603 -2.58186 1.21106 174 153 137
1.48516 -2.58574 1.21839 176 155 138
1.47435 -2.58960 1.22568 178 154 141
1.46360 -2.59344 1.23294 179 154 134
1.45289 -2.59726 1.24015 180 156 128
1.44224 -2.60106 1.24734 180 155 132
1.43165 -2.60485 1.25448 179 154 131
1.42110 -2.60861 1.26159 175 152 125
1.66788 -2.53098 1.08604 171 153 132
1.65610 -2.53516 1.09401 171 153 134
1.64438 -2.53932 1.10194 169 151 132
1.63272 -2.54345 1.10982 168 148 131
1.62113 -2.54756 1.11766 168 148 128
1.60959 -2.55166 1.12547 166 147 124
1.59812 -2.55573 1.13323 164 148 121
1.58670 -2.55978 1.14095 166 151 126
1.57534 -2.56381 1.14863 168 150 128
1.56404 -2.56782 1.15627 170 151 127
1.55280 -2.57180 1.16388 172 151 131
1.54162 -2.57577 1.17144 174 153 128
1.53049 -2.57972 1.17897 171 148 119
1.51942 -2.58364 1.18646 172 149 131
1.50841 -2.58755 1.19391 173 152 134
1.49745 -2.59144 1.20132 174 155 135
1.48655 -2.59531 1.20869 175 155 138
1.47570 -2.59915 1.21603 178 156 138
1.46491 -2.60298 1.22333 179 157 136
1.45417 -2.60679 1.23059 180 156 140
1.44349 -2.61058 1.23782 179 155 133
1.43285 -2.61436 1.24501 181 153 131
1.42227 -2.61811 1.25217 175 149 126
1.66991 -2.54081 1.07548 173 154 127
1.65809 -2.54498 1.08350 170 153 126
1.64633 -2.54912 1.09148 167 151 128
1.63463 -2.55324 1.09941 166 149 133
1.62299 -2.55734 1.10731 166 148 131
1.61142 -2.56142 1.11516 164 146 119
1.59990 -2.56548 1.12298 162 148 116
1.58844 -2.56952 1.13075 165 151 125
1.57705 -2.57354 1.13848 170 150 125
1.56571 -2.57753 1.14617 170 149 123
1.55443 -2.58151 1.15383 172 152 130
1.54321 -2.58546 1.16144 172 154 127
1.53204 -2.58940 1.16902 171 150 124
1.52093 -2.59331 1.17655 174 151 129
1.50988 -2.59721 1.18405 174 152 134
1.49888 -2.60108 1.19151 175 156 134
1.48795 -2.60494 1.19893 176 156 132
1.47706 -2.60877 1.20632 178 154 133
1.46623 -2.61259 1.21366 180 157 131
1.45546 -2.61639 1.22097 181 157 136
1.44473 -2.62016 1.22825 179 154 131
1.43407 -2.62392 1.23549 177 154 136
1.67196 -2.55070 1.06484 174 155 130
1.66010 -2.55486 1.07292 171 153 122
1.64829 -2.55899 1.08095 169 151 121
1.63655 -2.56310 1.08894 168 149 128
1.62487 -2.56718 1.09689 165 147 129
1.61326 -2.57125 1.10479 163 146 122
1.60170 -2.57530 1.11266 164 146 122
1.59020 -2.57932 1.12048 167 149 126
1.57876 -2.58333 1.12827 172 150 129
1.56738 -2.58731 1.13601 171 149 131
1.55606 -2.59127 1.14371 172 152 133
1.54480 -2.59521 1.15138 172 152 131
1.53360 -2.59914 1.15900 170 150 127
1.52245 -2.60304 1.16659 172 149 128
1.51136 -2.60692 1.17413 174 151 131
1.50033 -2.61078 1.18164 177 154 134
1.48935 -2.61462 1.18911 179 157 133
1.47843 -2.61845 1.19654 180 153 134
1.46756 -2.62225 1.20394 179 156 134
1.45675 -2.62604 1.21130 181 158 139
1.44599 -2.62980 1.21862 180 156 132
1.43529 -2.63355 1.22590 177 152 130
1.67403 -2.56066 1.05414 172 154 133
1.66212 -2.56480 1.06227 169 151 128
1.65027 -2.56892 1.07035 166 150 127
1.63849 -2.57301 1.07840 164 148 131
1.62676 -2.57709 1.08640 163 147 133
1.61510 -2.58114 1.09436 162 145 125
1.60350 -2.58518 1.10227 164 146 122
1.59196 -2.58919 1.11015 167 148 124
1.58049 -2.59318 1.11799 169 148 126
1.56907 -2.59715 1.12578 172 149 129
1.55771 -2.60110 1.13354 173 152 133
1.54640 -2.60503 1.14125 173 151 133
1.53516 -2.60894 1.14892 172 150 119
1.52398 -2.61283 1.15656 173 149 128
1.51285 -2.61669 1.16416 175 151 130
1.50178 -2.62054 1.17171 179 155 133
1.49076 -2.62437 1.17923 179 154 134
1.47980 -2.62818 1.18671 181 155 131
1.46890 -2.63197 1.19415 178 159 127
1.45805 -2.63575 1.20156 180 157 134
1.44726 -2.63950 1.20893 179 155 132
1.67610 -2.57068 1.04336 170 154 132
1.66415 -2.57481 1.05155 167 153 132
1.65226 -2.57891 1.05969 166 149 129
1.64043 -2.58300 1.06779 167 148 127
1.62867 -2.58706 1.07584 168 148 128
1.61696 -2.59110 1.08385 168 150 126
1.60532 -2.59512 1.09183 166 149 124
1.59374 -2.59912 1.09975 167 150 121
1.58222 -2.60309 1.10764 169 151 119
1.57076 -2.60705 1.11549 173 150 127
1.55936 -2.61099 1.12329 174 153 130
1.54802 -2.61490 1.13106 173 152 133
1.53674 -2.61880 1.13878 172 149 129
1.52551 -2.62267 1.14647 173 149 134
1.51434 -2.62653 1.15411 173 152 125
1.50323 -2.63037 1.16172 177 154 131
1.49218 -2.63418 1.16929 178 155 131
1.48118 -2.63798 1.17682 179 157 131
1.47024 -2.64176 1.18431 180 158 130
1.45936 -2.64552 1.19176 182 158 134
1.44853 -2.64926 1.19918 179 155 132
1.67819 -2.58077 1.03252 171 153 140
1.66620 -2.58488 1.04076 167 153 137
1.65426 -2.58897 1.04896 165 150 129
1.64239 -2.59304 1.05711 169 148 121
1.63058 -2.59709 1.06522 170 149 120
1.61884 -2.60112 1.07328 171 151 130
1.60715 -2.60512 1.08131 166 150 135
1.59553 -2.60911 1.08929 168 151 126
1.58397 -2.61307 1.09723 170 151 123
1.57247 -2.61702 1.10513 173 151 130
1.56103 -2.62094 1.11299 173 153 133
1.54964 -2.62484 1.12080 171 153 130
1.53832 -2.62872 1.12858 171 152 130
1.52706 -2.63259 1.13631 173 152 130
1.51585 -2.63643 1.14401 176 155 129
1.50470 -2.64025 1.15167 177 155 131
1.49361 -2.64405 1.15928 176 156 130
1.48258 -2.64784 1.16686 179 154 134
1.47160 -2.65160 1.17440 180 156 137
1.46068 -2.65535 1.18190 179 155 143
1.44981 -2.65907 1.18937 177 153 134
1.68030 -2.59092 1.02161 173 154 136
1.66826 -2.59502 1.02990 169 152 134
1.65628 -2.59910 1.03815 167 150 129
1.64436 -2.60315 1.04636 168 150 125
1.63251 -2.60719 1.05453 169 150 124
1.62072 -2.61120 1.06265 168 151 130
1.60900 -2.61519 1.07072 168 151 131
1.59733 -2.61916 1.07876 171 150 126
1.58573 -2.62312 1.08675 171 150 128
1.57419 -2.62705 1.09470 175 150 130
1.56270 -2.63095 1.10261 174 152 131
1.55128 -2.63484 1.11048 172 151 128
1.53992 -2.63871 1.11831 170 151 130
1.52861 -2.64256 1.12610 172 152 132
1.51737 -2.64639 1.13384 175 153 135
1.50618 -2.65020 1.14155 178 155 131
1.49505 -2.65399 1.14922 176 157 131
1.48398 -2.65776 1.15684 180 157 144
1.47296 -2.66151 1.16443 180 156 141
1.46200 -2.66524 1.17198 178 154 139
1.68242 -2.60114 1.01062 170 154 135
1.67033 -2.60522 1.01897 169 152 135
1.65831 -2.60929 1.02728 168 151 129
1.64635 -2.61333 1.03554 170 151 129
1.63445 -2.61735 1.04376 170 151 131
1.62262 -2.62135 1.05194 166 152 135
1.61085 -2.62533 1.06007 167 152 131
1.59914 -2.62929 1.06816 169 151 131
1.58750 -2.63322 1.07621 169 151 134
1.57591 -2.63714 1.08421 171 150 135
1.56439 -2.64103 1.09217 172 153 132
1.55293 -2.64491 1.10009 174 151 129
1.54152 -2.64876 1.10797 173 151 128
1.53018 -2.65260 1.11581 172 150 132
1.51889 -2.65641 1.12361 174 153 134
1.50767 -2.66021 1.13137 177 158 132
1.49650 -2.66398 1.13909 177 157 131
1.48539 -2.66774 1.14676 178 157 138
1.47433 -2.67148 1.15440 179 156 133
1.46333 -2.67519 1.16200 177 154 131
1.68455 -2.61142 0.99956 171 154 134
1.67242 -2.61550 1.00797 169 151 133
1.66035 -2.61954 1.01634 168 150 128
1.64834 -2.62357 1.02466 168 151 128
1.63640 -2.62758 1.03293 169 152 130
1.62453 -2.63156 1.04116 168 152 131
1.61272 -2.63553 1.04935 168 150 130
1.60097 -2.63947 1.05749 170 150 134
1.58928 -2.64339 1.06559 173 149 141
1.57765 -2.64730 1.07365 172 150 137
1.56609 -2.65118 1.08167 173 154 133
1.55458 -2.65504 1.08964 174 152 127
1.54314 -2.65888 1.09757 173 150 122
1.53175 -2.66270 1.10546 171 151 129
1.52043 -2.66650 1.11331 175 152 134
1.50916 -2.67028 1.12112 176 155 133
1.49795 -2.67404 1.12889 175 157 132
1.48680 -2.67778 1.13662 178 157 130
1.47571 -2.68151 1.14431 179 155 124
1.46468 -2.68521 1.15196 178 153 129
1.68669 -2.62178 0.98843 169 153 133
1.67452 -2.62583 0.99690 167 150 131
1.66240 -2.62987 1.00532 166 147 125
1.65035 -2.63388 1.01370 166 149 123
1.63837 -2.63788 1.02203 168 151 126
1.62645 -2.64185 1.03032 171 150 125
1.61459 -2.64580 1.03856 169 151 128
1.60280 -2.64972 1.04676 169 149 126
1.59107 -2.65363 1.05491 170 150 128
1.57940 -2.65752 1.06303 172 153 136
1.56780 -2.66139 1.07109 173 158 135
1.55625 -2.66523 1.07912 172 153 127
1.54476 -2.66906 1.08711 173 150 124
1.53334 -2.67286 1.09505 174 151 131
1.52197 -2.67665 1.10295 178 153 140
1.51067 -2.68042 1.11081 177 154 135
1.49942 -2.68416 1.11863 176 156 135
1.48823 -2.68789 1.12641 179 156 131
1.47710 -2.69160 1.13415 179 155 128
1.46603 -2.69529 1.14185 177 153 136
1.68885 -2.63220 0.97723 168 151 131
1.67663 -2.63624 0.98575 167 149 130
1.66447 -2.64026 0.99423 165 147 127
1.65238 -2.64426 1.00267 165 148 127
1.64035 -2.64824 1.01105 168 150 128
1.62838 -2.65220 1.01940 173 149 126
1.61648 -2.65613 1.02770 170 151 127
1.60465 -2.66004 1.03595 168 152 127
1.59287 -2.66394 1.04416 169 152 127
1.58116 -2.66781 1.05233 171 154 133
1.56951 -2.67166 1.06045 173 156 133
1.55793 -2.67549 1.06853 171 152 129
1.54640 -2.67930 1.07657 172 149 130
1.53494 -2.68309 1.08457 174 151 134
1.52353 -2.68687 1.09252 177 152 135
1.51218 -2.69062 1.10044 177 155 138
1.50090 -2.69435 1.10831 175 157 143
1.48967 -2.69806 1.11614 179 156 136
1.47850 -2.70176 1.12393 178 155 134
1.46739 -2.70543 1.13168 177 154 135
1.69103 -2.64269 0.96595 168 152 128
1.67876 -2.64672 0.97453 165 150 125
1.66655 -2.65073 0.98307 166 148 125
1.65441 -2.65471 0.99156 166 149 128
1.64234 -2.65867 1.00001 167 150 130
1.63033 -2.66261 1.00841 168 149 131
1.61839 -2.66653 1.01676 168 151 131
1.60651 -2.67043 1.02507 170 153 128
1.59469 -2.67431 1.03334 172 154 130
1.58294 -2.67816 1.04156 172 155 134
1.57125 -2.68200 1.04974 176 156 134
1.55962 -2.68582 1.05788 171 152 131
1.54805 -2.68961 1.06597 171 151 133
1.53654 -2.69339 1.07402 175 151 133
1.52509 -2.69715 1.08203 176 154 128
1.51371 -2.70088 1.08999 178 156 133
1.50238 -2.70460 1.09792 177 157 134
1.49111 -2.70830 1.10580 178 156 135
1.47990 -2.71198 1.11364 178 156 133
1.46875 -2.71564 1.12144 178 156 130
1.45766 -2.71928 1.12920 178 153 128
1.69322 -2.65325 0.95459 167 151 134
1.68090 -2.65727 0.96324 163 150 129
1.66865 -2.66126 0.97183 165 149 127
1.65646 -2.66522 0.98038 167 150 126
1.64434 -2.66917 0.98889 167 148 124
1.63229 -2.67310 0.99735 165 147 122
1.62030 -2.67700 1.00576 167 149 126
1.60838 -2.68088 1.01413 170 153 126
1.59652 -2.68475 1.02245 175 154 133
1.58472 -2.68859 1.03073 174 154 138
1.57299 -2.69241 1.03896 173 155 142
1.56132 -2.69621 1.04715 169 153 131
1.54971 -2.69999 1.05530 171 150 138
1.53816 -2.70375 1.06340 175 151 141
1.52667 -2.70749 1.07146 177 154 133
1.51524 -2.71122 1.07948 179 155 131
1.50388 -2.71492 1.08746 178 156 133
1.49257 -2.71860 1.09539 178 154 134
1.48132 -2.72226 1.10329 178 156 131
1.47013 -2.72591 1.11114 179 155 131
1.45900 -2.72953 1.11895 178 152 130
1.69542 -2.66389 0.94316 169 151 130
1.68306 -2.66788 0.95187 165 150 126
1.67076 -2.67186 0.96052 165 149 125
1.65853 -2.67581 0.96913 167 149 127
1.64636 -2.67974 0.97769 166 149 128
1.63426 -2.68365 0.98621 164 145 125
1.62223 -2.68754 0.99468 165 148 126
1.61026 -2.69141 1.00311 169 153 126
1.59836 -2.69525 1.01149 172 154 133
1.58652 -2.69908 1.01982 174 155 135
1.57474 -2.70289 1.02811 174 154 139
1.56303 -2.70667 1.03636 172 151 134
1.55137 -2.71044 1.04456 172 150 137
1.53978 -2.71418 1.05272 175 153 137
1.52826 -2.71791 1.06083 178 154 131
1.51679 -2.72161 1.06891 177 155 132
1.50538 -2.72530 1.07694 176 157 136
1.49403 -2.72897 1.08492 178 157 131
1.48274 -2.73262 1.09287 178 156 127
1.47151 -2.73624 1.10078 180 155 132
1.46034 -2.73985 1.10864 172 151 133
1.69764 -2.67459 0.93165 168 152 128
1.68523 -2.67857 0.94042 165 150 124
1.67288 -2.68253 0.94914 163 150 124
1.66060 -2.68647 0.95781 164 149 130
1.64839 -2.69038 0.96643 165 147 135
1.63625 -2.69428 0.97500 164 145 129
1.62417 -2.69815 0.98353 166 148 128
1.61216 -2.70200 0.99201 169 152 132
1.60021 -2.70583 1.00045 171 155 136
1.58833 -2.70964 1.00884 175 155 135
1.57651 -2.71343 1.01719 173 153 136
1.56475 -2.71720 1.02549 172 151 132
1.55305 -2.72095 1.03375 171 151 132
1.54142 -2.72468 1.04196 174 152 131
1.52985 -2.72839 1.05013 178 154 124
1.51834 -2.73208 1.05826 178 155 130
1.50689 -2.73575 1.06634 175 155 137
1.49551 -2.73940 1.07439 179 155 133
1.48418 -2.74303 1.08239 180 156 133
1.47291 -2.74665 1.09034 181 155 137
1.46170 -2.75024 1.09826 169 146 133
1.69987 -2.68537 0.92007 169 150 131
1.68741 -2.68933 0.92889 168 149 123
1.67502 -2.69327 0.93767 167 150 120
1.66270 -2.69719 0.94640 166 149 122
1.65044 -2.70109 0.95508 165 146 130
1.63825 -2.70497 0.96372 163 145 126
1.62612 -2.70883 0.97231 165 150 122
1.61407 -2.71266 0.98085 168 152 131
1.60207 -2.71648 0.98934 171 154 134
1.59015 -2.72027 0.99779 173 154 135
1.57828 -2.72404 1.00620 169 154 129
1.56648 -2.72780 1.01456 169 150 122
1.55474 -2.73153 1.02287 169 150 130
1.54307 -2.73525 1.03114 174 152 132
1.53146 -2.73894 1.03936 175 154 130
1.51991 -2.74261 1.04755 176 154 131
1.50842 -2.74627 1.05568 177 154 133
1.49699 -2.74990 1.06378 179 154 133
1.48562 -2.75352 1.07183 179 156 132
1.47431 -2.75712 1.07984 179 155 132
1.46306 -2.76069 1.08781 170 146 134
1.70212 -2.69622 0.90840 168 150 127
1.68961 -2.70016 0.91729 168 149 121
1.67717 -2.70409 0.92613 167 149 121
1.66480 -2.70799 0.93492 167 149 122
1.65250 -2.71188 0.94367 166 147 125
1.64026 -2.71574 0.95236 165 147 126
1.62809 -2.71958 0.96101 167 153 124
1.61599 -2.72340 0.96961 169 154 129
1.60395 -2.72719 0.97816 171 154 136
1.59198 -2.73097 0.98667 174 155 141
1.58007 -2.73473 0.99513 172 155 129
1.56823 -2.73847 1.00355 170 152 124
1.55645 -2.74218 1.01192 172 152 131
1.54473 -2.74588 1.02024 175 153 136
1.53307 -2.74956 1.02853 174 155 141
1.52148 -2.75321 1.03676 175 153 134
1.50995 -2.75685 1.04496 177 154 132
1.49848 -2.76047 1.05311 177 155 132
1.48707 -2.76407 1.06121 179 157 131
1.47572 -2.76765 1.06928 178 155 124
1.46443 -2.77122 1.07730 170 148 124
1.70439 -2.70714 0.89666 168 150 122
1.69183 -2.71107 0.90561 167 150 121
1.67934 -2.71498 0.91452 166 151 128
1.66692 -2.71887 0.92337 167 150 126
1.65457 -2.72273 0.93217 167 149 116
1.64229 -2.72657 0.94093 165 148 125
1.63007 -2.73040 0.94963 167 151 126
1.61792 -2.73420 0.95829 168 153 129
1.60584 -2.73798 0.96691 171 155 133
1.59382 -2.74174 0.97547 175 157 135
1.58187 -2.74548 0.98399 172 154 125
1.56998 -2.74920 0.99247 171 151 122
1.55816 -2.75290 1.00089 171 152 131
1.54640 -2.75658 1.00928 174 154 136
1.53470 -2.76024 1.01762 173 153 139
1.52307 -2.76389 1.02591 174 154 135
1.51149 -2.76751 1.03416 177 155 135
1.49998 -2.77111 1.04236 175 155 134
1.48853 -2.77469 1.05052 176 157 133
1.47714 -2.77826 1.05864 178 155 125
1.46581 -2.78180 1.06672 173 150 126
1.70667 -2.71814 0.88484 168 149 123
1.69406 -2.72205 0.89385 166 149 124
1.68152 -2.72594 0.90282 165 150 129
1.66906 -2.72981 0.91173 166 151 128
1.65666 -2.73366 0.92060 167 149 123
1.64433 -2.73749 0.92942 166 147 127
1.63206 -2.74129 0.93818 169 149 129
1.61987 -2.74508 0.94690 169 152 134
1.60774 -2.74884 0.95558 171 154 136
1.59568 -2.75258 0.96420 174 155 134
1.58368 -2.75631 0.97278 171 154 128
1.57175 -2.76001 0.98131 168 150 128
1.55988 -2.76369 0.98980 171 150 137
1.54808 -2.76736 0.99824 175 153 141
1.53634 -2.77100 1.00663 175 152 137
1.52466 -2.77463 1.01498 175 152 134
1.51305 -2.77823 1.02329 176 154 134
1.50149 -2.78182 1.03155 176 155 133
1.49000 -2.78538 1.03977 177 157 134
1.46720 -2.79246 1.05607 177 156 136
1.70896 -2.72921 0.87294 167 150 132
1.69630 -2.73311 0.88201 167 150 134
1.68372 -2.73698 0.89104 167 150 130
1.67120 -2.74083 0.90002 168 149 128
1.65876 -2.74466 0.90895 169 148 127
1.64638 -2.74847 0.91783 166 147 130
1.63407 -2.75226 0.92666 168 148 135
1.62183 -2.75603 0.93544 169 152 138
1.60965 -2.75977 0.94417 172 156 139
1.59755 -2.76350 0.95286 176 155 141
1.58550 -2.76721 0.96149 171 152 133
1.57353 -2.77089 0.97009 167 151 130
1.56162 -2.77456 0.97863 169 150 136
1.54977 -2.77820 0.98713 172 151 139
1.53799 -2.78183 0.99558 173 150 133
1.52627 -2.78544 1.00399 174 152 132
1.51461 -2.78902 1.01235 176 153 131
1.50302 -2.79259 1.02067 177 151 133
1.49148 -2.79614 1.02894 177 154 135
1.46860 -2.80318 1.04535 182 165 144
1.71127 -2.74036 0.86095 167 150 129
1.69857 -2.74424 0.87009 167 152 129
1.68593 -2.74809 0.87919 168 151 131
1.67337 -2.75192 0.88823 167 148 130
1.66087 -2.75574 0.89722 165 145 129
1.64845 -2.75953 0.90616 164 145 129
1.63609 -2.76330 0.91505 168 148 133
1.62380 -2.76705 0.92389 170 153 135
1.61158 -2.77078 0.93269 171 157 135
1.59943 -2.77449 0.94143 173 156 137
1.58734 -2.77818 0.95013 169 151 132
1.57532 -2.78184 0.95878 168 150 127
1.56336 -2.78549 0.96739 170 151 130
1.55147 -2.78912 0.97594 170 151 132
1.53965 -2.79273 0.98445 171 151 128
1.52788 -2.79632 0.99292 173 152 136
1.51618 -2.79989 1.00134 175 152 132
1.50455 -2.80344 1.00971 175 152 135
1.49297 -2.80697 1.01804 176 154 139
1.47001 -2.81398 1.03457 183 169 150
1.71360 -2.75158 0.84888 166 151 133
1.70084 -2.75544 0.85809 164 151 135
1.68816 -2.75928 0.86725 166 150 132
1.67554 -2.76310 0.87635 165 148 128
1.66300 -2.76689 0.88541 164 146 125
1.65053 -2.77066 0.89441 163 145 123
1.63812 -2.77442 0.90337 171 149 128
1.62579 -2.77815 0.91227 171 153 131
1.61352 -2.78186 0.92113 170 155 135
1.60132 -2.78555 0.92994 171 156 142
1.58919 -2.78922 0.93869 167 151 134
1.57712 -2.79287 0.94741 168 149 126
1.56512 -2.79650 0.95607 170 149 122
1.55319 -2.80011 0.96468 171 150 129
1.54132 -2.80370 0.97325 170 152 130
1.52951 -2.80727 0.98178 173 151 134
1.51777 -2.81082 0.99025 175 150 131
1.50609 -2.81436 0.99868 174 151 134
1.49447 -2.81787 1.00707 175 153 136
1.47143 -2.82484 1.02371 183 170 155
1.71594 -2.76289 0.83673 168 149 131
1.70313 -2.76673 0.84601 167 149 136
1.69040 -2.77054 0.85523 168 150 133
1.67774 -2.77434 0.86440 166 148 130
1.66514 -2.77812 0.87352 165 147 126
1.65262 -2.78187 0.88259 164 146 123
1.64017 -2.78561 0.89161 168 149 127
1.62779 -2.78932 0.90057 170 151 129
1.61547 -2.79301 0.90949 171 153 131
1.60323 -2.79668 0.91836 170 154 140
1.59105 -2.80034 0.92718 168 149 134
1.57894 -2.80397 0.93595 169 148 127
1.56689 -2.80758 0.94468 169 148 124
1.55491 -2.81117 0.95335 169 149 132
1.54300 -2.81475 0.96198 170 149 136
1.53115 -2.81830 0.97056 171 149 132
1.51936 -2.82183 0.97910 173 149 127
1.50764 -2.82535 0.98759 172 151 132
1.49598 -2.82884 0.99603 172 153 133
1.47285 -2.83578 1.01278 182 170 159
1.71830 -2.77427 0.82450 166 149 131
1.70544 -2.77809 0.83384 167 150 133
1.69266 -2.78189 0.84313 167 150 132
1.67994 -2.78567 0.85236 167 150 131
1.66730 -2.78942 0.86155 165 149 132
1.65473 -2.79316 0.87068 164 149 129
1.64223 -2.79687 0.87976 166 150 135
1.62980 -2.80057 0.88879 168 151 140
1.61744 -2.80424 0.89777 172 154 135
1.60515 -2.80790 0.90671 171 154 141
1.59292 -2.81153 0.91559 167 150 134
1.58076 -2.81514 0.92442 168 149 128
1.56867 -2.81874 0.93321 168 150 126
1.55665 -2.82231 0.94194 167 150 130
1.54469 -2.82586 0.95063 168 150 135
1.53280 -2.82940 0.95927 167 149 130
1.52097 -2.83291 0.96786 169 149 126
1.50920 -2.83641 0.97641 168 150 130
1.49750 -2.83989 0.98491 168 150 129
1.47429 -2.84679 1.00178 181 171 161
1.72067 -2.78573 0.81218 165 149 131
1.70777 -2.78953 0.82159 166 149 131
1.69493 -2.79331 0.83094 166 149 128
1.68217 -2.79707 0.84025 166 149 125
1.66948 -2.80081 0.84949 165 149 132
1.65686 -2.80452 0.85869 165 149 131
1.64431 -2.80822 0.86784 167 151 131
1.63183 -2.81189 0.87693 166 153 135
1.61942 -2.81555 0.88598 170 154 138
1.60708 -2.81918 0.89497 169 154 138
1.59481 -2.82280 0.90392 163 150 131
1.58260 -2.82639 0.91281 168 150 128
1.57047 -2.82997 0.92166 169 151 126
1.55840 -2.83352 0.93046 167 150 128
1.54639 -2.83706 0.93920 167 149 129
1.53446 -2.84057 0.94791 167 147 128
1.52258 -2.84407 0.95656 167 147 126
1.51078 -2.84755 0.96517 165 147 128
1.49903 -2.85100 0.97373 164 146 129
1.47573 -2.85787 0.99071 181 175 167
1.72307 -2.79727 0.79977 166 150 136
1.71011 -2.80105 0.80925 165 150 132
1.69722 -2.80481 0.81867 165 150 130
1.68441 -2.80855 0.82804 165 150 125
1.67166 -2.81227 0.83736 164 149 132
1.65900 -2.81596 0.84662 166 149 135
1.64640 -2.81964 0.85583 168 150 131
1.63387 -2.82330 0.86499 167 151 133
1.62141 -2.82693 0.87410 169 154 137
1.60903 -2.83055 0.88316 168 153 128
1.59671 -2.83414 0.89217 165 149 117
1.58446 -2.83772 0.90113 167 150 127
1.57227 -2.84127 0.91003 169 150 128
1.56016 -2.84481 0.91889 167 148 128
1.54811 -2.84832 0.92770 167 147 126
1.53613 -2.85182 0.93646 166 147 127
1.52421 -2.85530 0.94518 164 146 124
1.51236 -2.85876 0.95384 163 144 129
1.50057 -2.86220 0.96246 161 141 128
1.47719 -2.86902 0.97956 182 178 171
1.72547 -2.80889 0.78728 165 150 134
1.71246 -2.81265 0.79683 165 150 129
1.69952 -2.81639 0.80632 165 150 127
1.68666 -2.82011 0.81575 166 149 128
1.67387 -2.82381 0.82514 164 148 132
1.66115 -2.82748 0.83447 167 149 134
1.64850 -2.83114 0.84375 168 150 131
1.63593 -2.83478 0.85297 168 150 136
1.62342 -2.83839 0.86214 170 153 137
1.61098 -2.84199 0.87127 167 152 126
1.59862 -2.84556 0.88034 167 147 118
1.58632 -2.84912 0.88936 166 148 129
1.57409 -2.85265 0.89833 169 148 136
1.56193 -2.85617 0.90725 167 147 131
1.54984 -2.85967 0.91612 167 146 129
1.53781 -2.86314 0.92495 164 146 132
1.52585 -2.86660 0.93372 162 145 127
1.51395 -2.87004 0.94245 162 142 127
1.50212 -2.87346 0.95113 159 140 121
1.47865 -2.88025 0.96834 182 180 173
1.72790 -2.82059 0.77470 165 150 132
1.71483 -2.82433 0.78432 165 149 128
1.70184 -2.82805 0.79388 165 149 126
1.68893 -2.83175 0.80338 164 149 127
1.67609 -2.83543 0.81283 164 148 127
1.66332 -2.83908 0.82223 168 149 130
1.65062 -2.84272 0.83157 167 150 132
1.63799 -2.84634 0.84087 167 149 137
1.62544 -2.84993 0.85010 169 152 136
1.61296 -2.85351 0.85929 166 150 129
1.60054 -2.85706 0.86843 166 147 124
1.58820 -2.86060 0.87751 165 148 129
1.57592 -2.86411 0.88655 167 147 132
1.56371 -2.86761 0.89553 165 146 130
1.55157 -2.87109 0.90447 165 145 128
1.53950 -2.87454 0.91335 162 143 132
1.52750 -2.87798 0.92219 161 143 130
1.51556 -2.88140 0.93097 160 142 130
1.50368 -2.88480 0.93971 158 140 123
1.48012 -2.89155 0.95705 183 184 173
1.73034 -2.83237 0.76203 165 149 131
1.71722 -2.83609 0.77172 164 148 120
1.70418 -2.83979 0.78135 164 149 127
1.69121 -2.84347 0.79092 163 149 127
1.67832 -2.84713 0.80044 164 148 125
1.66550 -2.85076 0.80991 167 148 129
1.65275 -2.85438 0.81932 164 148 133
1.64008 -2.85798 0.82868 165 148 136
1.62747 -2.86155 0.83798 168 150 134
1.61494 -2.86511 0.84723 167 148 129
1.60248 -2.86864 0.85644 167 146 126
1.59009 -2.87215 0.86559 164 146 134
1.57777 -2.87565 0.87468 166 145 129
1.56551 -2.87913 0.88373 165 146 130
1.55333 -2.88258 0.89273 165 144 126
1.54121 -2.88602 0.90168 162 143 129
1.52916 -2.88944 0.91057 161 143 129
1.51717 -2.89284 0.91942 158 140 131
1.50525 -2.89622 0.92822 157 140 125
1.48161 -2.90292 0.94568 188 189 173
1.73280 -2.84424 0.74927 165 148 130
1.71963 -2.84794 0.75903 163 148 120
1.70653 -2.85162 0.76873 163 149 128
1.69352 -2.85528 0.77837 162 150 127
1.68057 -2.85891 0.78796 165 150 126
1.66770 -2.86253 0.79750 166 149 129
1.65490 -2.86612 0.80698 165 149 131
1.64218 -2.86970 0.81640 166 149 133
1.62952 -2.87325 0.82578 169 150 132
1.61694 -2.87678 0.83509 168 147 129
1.60443 -2.88030 0.84436 166 144 128
1.59199 -2.88379 0.85358 164 144 135
1.57962 -2.88727 0.86274 166 144 128
1.56732 -2.89072 0.87185 165 145 126
1.55509 -2.89416 0.88091 164 145 127
1.54292 -2.89757 0.88992 163 145 128
1.53083 -2.90097 0.89888 161 143 126
1.51880 -2.90435 0.90779 159 140 128
1.50683 -2.90771 0.91666 158 141 125
1.48310 -2.91438 0.93423 191 192 177
1.73528 -2.85619 0.73642 165 148 129
1.72205 -2.85987 0.74625 164 148 121
1.70891 -2.86353 0.75602 164 149 128
1.69583 -2.86716 0.76574 164 149 129
1.68284 -2.87078 0.77540 167 150 127
1.66991 -2.87437 0.78500 166 150 129
1.65706 -2.87795 0.79455 168 151 130
1.64429 -2.88150 0.80404 167 150 130
1.63159 -2.88503 0.81348 170 150 130
1.61895 -2.88854 0.82287 167 146 127
1.60640 -2.89204 0.83220 166 145 127
1.59391 -2.89551 0.84148 165 143 131
1.58149 -2.89896 0.85071 166 143 126
1.56914 -2.90240 0.85989 164 144 124
1.55686 -2.90581 0.86902 164 145 128
1.54465 -2.90921 0.87809 164 146 129
1.53251 -2.91258 0.88711 162 143 127
1.52043 -2.91594 0.89609 160 141 127
1.50842 -2.91928 0.90501 158 143 127
1.48461 -2.92591 0.92271 188 192 178
1.73777 -2.86823 0.72348 166 147 129
1.72449 -2.87189 0.73338 165 148 125
1.71129 -2.87552 0.74323 165 149 131
1.69817 -2.87913 0.75301 165 149 133
1.68512 -2.88273 0.76274 166 150 133
1.67214 -2.88630 0.77242 165 150 132
1.65924 -2.88985 0.78204 167 150 134
1.64642 -2.89338 0.79160 167 151 131
1.63366 -2.89689 0.80111 169 150 132
1.62098 -2.90038 0.81056 165 146 128
1.60837 -2.90386 0.81996 166 144 124
1.59584 -2.90731 0.82931 165 142 126
1.58337 -2.91074 0.83860 164 142 124
1.57097 -2.91415 0.84785 163 143 123
1.55865 -2.91755 0.85704 164 145 129
1.54639 -2.92092 0.86618 165 146 131
1.53420 -2.92428 0.87526 161 144 129
1.52208 -2.92761 0.88430 160 142 129
1.51003 -2.93093 0.89329 160 143 131
1.48612 -2.93751 0.91111 181 185 177
1.74029 -2.88035 0.71045 165 147 128
1.72695 -2.88399 0.72042 164 148 128
1.71370 -2.88760 0.73034 164 149 132
1.70052 -2.89119 0.74020 164 149 131
1.68741 -2.89476 0.75000 164 149 134
1.67439 -2.89831 0.75975 164 149 133
1.66144 -2.90184 0.76943 166 149 134
1.64856 -2.90535 0.77907 169 149 131
1.63575 -2.90884 0.78864 168 149 133
1.62302 -2.91231 0.79817 165 145 128
1.61037 -2.91576 0.80764 164 144 125
1.59778 -2.91919 0.81705 163 143 126
1.58526 -2.92260 0.82641 162 143 124
1.57282 -2.92599 0.83572 160 143 125
1.56045 -2.92936 0.84498 164 146 132
1.54814 -2.93271 0.85418 165 146 136
1.53591 -2.93605 0.86333 163 145 131
1.52374 -2.93936 0.87243 162 144 128
1.51164 -2.94266 0.88149 163 144 131
1.74282 -2.89256 0.69732 164 147 128
1.72943 -2.89617 0.70737 164 147 129
1.71612 -2.89976 0.71736 163 149 130
1.70288 -2.90333 0.72729 164 149 128
1.68973 -2.90688 0.73717 165 149 130
1.67665 -2.91041 0.74698 164 148 129
1.66364 -2.91391 0.75674 165 149 129
1.65071 -2.91740 0.76645 169 149 128
1.63786 -2.92087 0.77609 167 149 128
1.62508 -2.92431 0.78569 164 145 125
1.61237 -2.92774 0.79522 162 143 125
1.59974 -2.93115 0.80471 162 143 124
1.58717 -2.93454 0.81413 161 143 125
1.57468 -2.93791 0.82351 161 143 129
1.56226 -2.94126 0.83283 164 146 134
1.54991 -2.94459 0.84210 165 147 138
1.53762 -2.94790 0.85132 164 147 130
1.52541 -2.95119 0.86049 164 145 126
1.51326 -2.95447 0.86960 165 145 129
1.74537 -2.90486 0.68410 163 146 130
1.73192 -2.90845 0.69423 165 146 128
1.71856 -2.91202 0.70429 163 148 128
1.70527 -2.91556 0.71430 165 149 129
1.69206 -2.91909 0.72424 167 148 130
1.67893 -2.92259 0.73413 165 147 127
1.66587 -2.92607 0.74396 166 148 128
1.65289 -2.92954 0.75374 167 150 130
1.63998 -2.93298 0.76345 167 150 126
1.62715 -2.93641 0.77312 163 146 125
1.61439 -2.93981 0.78272 161 144 124
1.60171 -2.94319 0.79228 161 143 121
1.58909 -2.94656 0.80177 161 143 125
1.57655 -2.94991 0.81122 163 143 130
1.56408 -2.95323 0.82061 165 147 135
1.55168 -2.95654 0.82994 165 149 138
1.53935 -2.95983 0.83923 164 147 131
1.52709 -2.96310 0.84846 165 145 126
1.51490 -2.96636 0.85764 168 146 129
1.74793 -2.91725 0.67079 163 146 131
1.73443 -2.92081 0.68099 164 147 128
1.72101 -2.92436 0.69112 163 148 128
1.70767 -2.92788 0.70120 165 148 131
1.69441 -2.93138 0.71122 167 148 131
1.68122 -2.93486 0.72119 165 146 127
1.66811 -2.93832 0.73109 166 147 127
1.65508 -2.94176 0.74094 168 150 131
1.64212 -2.94518 0.75073 167 150 127
1.62923 -2.94858 0.76046 163 147 130
1.61642 -2.95196 0.77014 162 145 127
1.60369 -2.95532 0.77976 162 144 124
1.59103 -2.95867 0.78932 162 144 127
1.57844 -2.96199 0.79884 163 145 132
1.56592 -2.96530 0.80829 165 149 136
1.55347 -2.96858 0.81770 166 149 138
1.54109 -2.97185 0.82705 165 146 131
1.52879 -2.97510 0.83634 166 145 128
1.51655 -2.97833 0.84559 168 146 129
1.75052 -2.92973 0.65737 162 147 133
1.73696 -2.93327 0.66765 163 148 130
1.72349 -2.93678 0.67786 164 149 131
1.71009 -2.94028 0.68802 164 148 130
1.69677 -2.94376 0.69811 164 146 125
1.68353 -2.94722 0.70815 164 145 127
1.67036 -2.95065 0.71813 165 147 126
1.65728 -2.95407 0.72805 168 150 128
1.64427 -2.95747 0.73791 166 150 129
1.63133 -2.96084 0.74771 164 145 133
1.61847 -2.96420 0.75746 162 144 128
1.60569 -2.96754 0.76715 162 144 126
1.59297 -2.97086 0.77679 162 143 127
1.58033 -2.97416 0.78637 161 147 133
1.56777 -2.97744 0.79589 167 150 136
1.55527 -2.98070 0.80537 168 149 135
1.54284 -2.98395 0.81478 166 147 128
1.53049 -2.98717 0.82415 166 146 127
1.51821 -2.99038 0.83346 167 148 128
1.75312 -2.94229 0.64386 161 145 132
1.73951 -2.94581 0.65422 162 146 129
1.72598 -2.94930 0.66451 163 147 131
1.71252 -2.95278 0.67474 162 146 130
1.69915 -2.95623 0.68491 162 143 121
1.68585 -2.95966 0.69502 163 144 128
1.67264 -2.96307 0.70507 165 147 129
1.65950 -2.96647 0.71506 168 150 130
1.64643 -2.96984 0.72500 166 149 127
1.63345 -2.97319 0.73488 164 142 131
1.62054 -2.97653 0.74470 162 141 127
1.60770 -2.97984 0.75446 161 142 126
1.59493 -2.98314 0.76416 161 143 126
1.58224 -2.98641 0.77381 162 148 133
1.56963 -2.98967 0.78341 167 150 139
1.55708 -2.99291 0.79295 169 149 135
1.54461 -2.99613 0.80244 167 147 127
1.53221 -2.99933 0.81187 167 147 128
1.51987 -3.00252 0.82125 168 149 133
1.75575 -2.95495 0.63025 160 143 129
1.74208 -2.95844 0.64068 162 143 127
1.72849 -2.96191 0.65105 161 143 129
1.71498 -2.96536 0.66136 160 142 131
1.70155 -2.96879 0.67161 161 142 127
1.68820 -2.97220 0.68180 163 144 126
1.67493 -2.97558 0.69192 164 147 133
1.66173 -2.97895 0.70199 166 149 135
1.64862 -2.98230 0.71200 166 148 127
1.63558 -2.98563 0.72195 163 142 128
1.62261 -2.98894 0.73184 160 141 126
1.60972 -2.99223 0.74167 160 143 126
1.59691 -2.99550 0.75145 162 144 128
1.58417 -2.99875 0.76117 164 149 134
1.57150 -3.00199 0.77084 166 151 140
1.55891 -3.00520 0.78045 167 150 133
1.54639 -3.00840 0.79000 167 147 126
1.53394 -3.01158 0.79950 168 147 129
1.52156 -3.01474 0.80895 169 149 136
1.75839 -2.96771 0.61654 159 141 129
1.74466 -2.97117 0.62705 162 141 126
1.73101 -2.97461 0.63750 160 141 125
1.71745 -2.97804 0.64789 160 140 127
1.70396 -2.98144 0.65821 161 141 130
1.69056 -2.98482 0.66848 162 143 124
1.67723 -2.98819 0.67868 162 147 136
1.66398 -2.99153 0.68882 164 149 137
1.65081 -2.99485 0.69890 165 148 128
1.63772 -2.99816 0.70893 162 144 128
1.62470 -3.00144 0.71889 159 143 127
1.61176 -3.00471 0.72880 160 146 126
1.59890 -3.00795 0.73865 163 147 129
1.58611 -3.01118 0.74844 164 149 133
1.57339 -3.01439 0.75818 165 150 134
1.56075 -3.01758 0.76786 165 150 131
1.54818 -3.02075 0.77748 166 148 129
1.53568 -3.02391 0.78705 167 147 130
1.52325 -3.02704 0.79657 170 148 132
1.76105 -2.98055 0.60273 159 140 129
1.74727 -2.98399 0.61332 160 140 127
1.73356 -2.98741 0.62385 158 141 121
1.71994 -2.99081 0.63432 160 141 121
1.70640 -2.99418 0.64472 163 141 128
1.69293 -2.99754 0.65506 162 143 127
1.67955 -3.00088 0.66534 161 147 134
1.66625 -3.00419 0.67556 163 148 132
1.65303 -3.00749 0.68571 163 147 129
1.63988 -3.01077 0.69581 163 145 126
1.62681 -3.01403 0.70585 161 145 124
1.61382 -3.01727 0.71583 162 146 127
1.60090 -3.02049 0.72575 164 146 132
1.58806 -3.02369 0.73562 165 148 133
1.57529 -3.02688 0.74543 167 148 130
1.56260 -3.03004 0.75518 165 148 130
1.54998 -3.03319 0.76487 165 147 131
1.53743 -3.03632 0.77451 168 148 131
1.52495 -3.03943 0.78409 170 149 130
1.76374 -2.99349 0.58882 160 141 128
1.74989 -2.99690 0.59949 159 142 130
1.73613 -3.00030 0.61010 158 144 123
1.72245 -3.00367 0.62065 160 145 125
1.70885 -3.00702 0.63113 163 144 126
1.69533 -3.01035 0.64154 162 143 130
1.68189 -3.01366 0.65190 162 147 137
1.66853 -3.01695 0.66220 164 147 133
1.65526 -3.02022 0.67243 162 146 129
1.64206 -3.02348 0.68260 162 146 123
1.62893 -3.02671 0.69272 162 146 118
1.61589 -3.02993 0.70277 162 145 127
1.60292 -3.03312 0.71277 165 146 132
1.59003 -3.03630 0.72271 167 148 131
1.57721 -3.03946 0.73259 168 148 127
1.56446 -3.04260 0.74241 165 148 127
1.55179 -3.04572 0.75217 166 147 131
1.53920 -3.04882 0.76188 169 148 131
1.52667 -3.05191 0.77154 172 150 127
