ply
format ascii 1.0
element face 0
property list uchar int vertex_indices
element vertex 1259
property float x
property float y
property float z
property uchar diffuse_red
property uchar diffuse_green
property uchar diffuse_blue
end_header
1.71222 -2.84307 0.83359 162 140 128
1.70274 -2.85094 0.83447 162 139 132
1.69324 -2.85882 0.83535 164 138 134
1.68372 -2.86672 0.83624 163 138 134
1.67419 -2.87463 0.83712 162 138 138
1.66463 -2.88256 0.83801 162 139 142
1.65506 -2.89050 0.83890 162 141 145
1.64548 -2.89846 0.83979 160 140 140
1.63587 -2.90643 0.84069 160 137 136
1.62625 -2.91441 0.84158 158 136 135
1.68091 -2.88553 0.82047 162 137 137
1.67132 -2.89350 0.82134 162 139 135
1.66172 -2.90148 0.82222 162 141 137
1.65211 -2.90948 0.82310 161 141 135
1.64247 -2.91749 0.82398 162 136 132
1.68768 -2.89651 0.80368 162 138 135
1.67806 -2.90452 0.80455 163 139 129
1.66843 -2.91254 0.80542 164 141 133
1.65879 -2.92058 0.80628 162 140 137
1.68485 -2.91562 0.78763 161 139 132
1.67519 -2.92368 0.78848 164 140 133
0.68937 -3.86655 0.22190 116 112 130
0.66237 -3.87741 0.22665 109 120 132
0.67000 -3.86111 0.21456 120 117 123
0.90038 -3.71602 0.13150 128 129 135
0.89391 -3.70573 0.12217 133 140 144
0.90079 -3.69013 0.11055 144 152 153
0.88747 -3.69550 0.11291 126 134 152
-0.59528 -4.57847 2.77909 128 125 121
-0.58546 -4.54610 2.75508 126 119 120
-0.60017 -4.54988 2.75631 129 120 118
-0.57576 -4.51411 2.73135 124 116 115
-0.59040 -4.51789 2.73259 123 117 117
-0.60501 -4.52166 2.73383 125 119 115
-0.61960 -4.52543 2.73507 128 122 120
-0.56617 -4.48249 2.70789 127 118 111
-0.58073 -4.48627 2.70914 126 119 114
-0.59526 -4.49004 2.71039 126 120 114
-0.60978 -4.49381 2.71164 127 120 115
-0.62427 -4.49757 2.71288 129 121 120
-0.63875 -4.50133 2.71413 128 123 125
-0.49858 -4.43606 2.67965 138 131 126
-0.51314 -4.43986 2.68092 130 117 110
-0.52768 -4.44365 2.68218 128 115 106
-0.54220 -4.44744 2.68345 129 116 105
-0.55669 -4.45123 2.68471 129 117 110
-0.57117 -4.45501 2.68597 128 119 114
-0.58563 -4.45879 2.68723 129 123 116
-0.60007 -4.46255 2.68848 128 125 121
-0.61449 -4.46632 2.68974 129 124 119
-0.48952 -4.40516 2.65670 138 131 125
-0.50400 -4.40896 2.65798 137 127 121
-0.51846 -4.41276 2.65925 133 124 114
-0.53290 -4.41655 2.66052 131 122 111
-0.54733 -4.42033 2.66179 130 119 112
-0.56173 -4.42411 2.66306 130 119 116
-0.57611 -4.42789 2.66433 131 120 116
-0.59047 -4.43166 2.66559 131 121 112
-0.60482 -4.43542 2.66685 130 123 118
-0.49497 -4.37842 2.63529 137 126 122
-0.50935 -4.38221 2.63658 135 124 121
-0.52372 -4.38600 2.63786 133 125 117
-0.53806 -4.38979 2.63914 132 125 115
-0.55239 -4.39357 2.64041 131 123 117
-0.56670 -4.39734 2.64169 132 123 119
-0.58098 -4.40111 2.64296 136 122 117
-0.59525 -4.40487 2.64423 135 123 116
-0.60950 -4.40863 2.64550 134 124 119
-0.26898 -4.29067 2.59330 145 134 131
-0.45735 -4.34062 2.61029 136 131 123
-0.47170 -4.34442 2.61158 137 131 121
-0.48603 -4.34822 2.61287 139 130 120
-0.50035 -4.35202 2.61416 138 128 121
-0.51464 -4.35580 2.61545 133 126 121
-0.52891 -4.35959 2.61674 132 125 120
-0.54316 -4.36337 2.61802 133 124 121
-0.55739 -4.36714 2.61930 132 124 119
-0.57160 -4.37091 2.62059 132 125 120
-0.58580 -4.37467 2.62187 134 125 121
-0.59997 -4.37843 2.62314 134 126 119
-0.61412 -4.38218 2.62442 136 125 118
-0.26130 -4.26083 2.57102 142 130 129
-0.27583 -4.26470 2.57234 147 138 132
-0.29035 -4.26857 2.57366 150 142 139
-0.30484 -4.27243 2.57499 153 147 144
-0.44868 -4.31076 2.58810 142 131 126
-0.46295 -4.31457 2.58940 140 130 126
-0.47721 -4.31837 2.59070 139 130 131
-0.49144 -4.32216 2.59200 138 130 128
-0.50566 -4.32595 2.59330 137 129 124
-0.51985 -4.32973 2.59459 136 127 122
-0.53403 -4.33351 2.59588 134 125 124
-0.54819 -4.33728 2.59717 133 124 128
-0.56233 -4.34105 2.59846 132 125 124
-0.57645 -4.34481 2.59975 132 127 123
-0.59055 -4.34857 2.60104 133 126 126
-0.60463 -4.35232 2.60232 135 127 126
-0.61869 -4.35607 2.60360 135 125 126
-0.25371 -4.23133 2.54898 140 132 130
-0.26816 -4.23521 2.55031 143 134 130
-0.28260 -4.23907 2.55164 146 137 133
-0.29702 -4.24293 2.55297 150 142 136
-0.31141 -4.24679 2.55430 153 145 141
-0.32579 -4.25064 2.55563 156 149 147
-0.41164 -4.27363 2.56354 153 140 142
-0.42587 -4.27744 2.56485 150 138 135
-0.44009 -4.28125 2.56617 146 136 129
-0.45429 -4.28505 2.56747 144 133 124
-0.46848 -4.28885 2.56878 142 131 122
-0.48264 -4.29264 2.57009 141 131 128
-0.49678 -4.29643 2.57139 140 130 127
-0.51090 -4.30021 2.57269 139 129 124
-0.52501 -4.30399 2.57399 139 127 122
-0.53909 -4.30776 2.57529 137 125 121
-0.55316 -4.31153 2.57659 135 125 120
-0.56720 -4.31529 2.57788 134 126 114
-0.58123 -4.31904 2.57918 134 128 120
-0.59524 -4.32279 2.58047 132 128 125
-0.60923 -4.32654 2.58176 133 127 123
-0.62320 -4.33028 2.58305 134 124 120
-0.24620 -4.20217 2.52719 141 132 130
-0.26058 -4.20604 2.52854 143 134 133
-0.27494 -4.20990 2.52987 144 137 132
-0.28928 -4.21376 2.53121 147 140 135
-0.30360 -4.21762 2.53254 150 142 136
-0.31790 -4.22146 2.53388 152 145 140
-0.33218 -4.22531 2.53521 153 149 146
-0.34644 -4.22914 2.53654 155 151 153
-0.36069 -4.23298 2.53786 158 152 152
-0.37491 -4.23680 2.53919 158 151 146
-0.38911 -4.24063 2.54051 157 147 142
-0.40330 -4.24444 2.54184 156 145 137
-0.41746 -4.24826 2.54316 154 143 134
-0.43161 -4.25206 2.54448 151 138 131
-0.44574 -4.25586 2.54579 147 136 130
-0.45984 -4.25966 2.54711 144 133 128
-0.47393 -4.26345 2.54842 143 133 126
-0.48800 -4.26724 2.54973 143 133 130
-0.50205 -4.27102 2.55104 143 130 128
-0.51608 -4.27479 2.55235 141 129 125
-0.53009 -4.27856 2.55365 139 128 124
-0.54409 -4.28233 2.55496 139 125 122
-0.55806 -4.28609 2.55626 137 125 120
-0.57202 -4.28984 2.55756 135 127 119
-0.58596 -4.29359 2.55886 135 128 122
-0.59987 -4.29734 2.56016 135 127 124
-0.61377 -4.30108 2.56145 135 128 122
-0.62765 -4.30482 2.56275 135 125 119
-0.22445 -4.16946 2.50430 142 133 129
-0.23878 -4.17333 2.50565 143 133 127
-0.25308 -4.17720 2.50700 144 133 127
-0.26736 -4.18106 2.50835 145 134 129
-0.28163 -4.18492 2.50969 144 137 131
-0.29587 -4.18877 2.51103 148 140 137
-0.31010 -4.19262 2.51237 151 143 143
-0.32431 -4.19646 2.51371 153 148 140
-0.33849 -4.20029 2.51505 152 151 146
-0.35266 -4.20413 2.51638 153 149 150
-0.36681 -4.20795 2.51771 156 148 150
-0.38094 -4.21177 2.51904 155 146 148
-0.39505 -4.21559 2.52037 154 144 143
-0.40915 -4.21940 2.52170 154 143 139
-0.42322 -4.22320 2.52303 153 141 136
-0.43727 -4.22700 2.52435 153 139 132
-0.45131 -4.23080 2.52567 149 137 131
-0.46532 -4.23458 2.52699 147 135 128
-0.47932 -4.23837 2.52831 145 131 125
-0.49330 -4.24215 2.52963 144 132 128
-0.50726 -4.24592 2.53094 143 133 126
-0.52120 -4.24969 2.53226 142 133 127
-0.53512 -4.25346 2.53357 140 131 132
-0.54902 -4.25721 2.53488 141 128 130
-0.56291 -4.26097 2.53618 138 128 130
-0.57677 -4.26472 2.53749 137 129 127
-0.59062 -4.26846 2.53879 137 129 124
-0.60445 -4.27220 2.54010 137 129 123
-0.61826 -4.27593 2.54140 136 129 122
-0.63205 -4.27966 2.54270 136 127 120
-0.64583 -4.28339 2.54399 137 125 115
0.14540 -4.04246 2.44849 166 160 152
0.13066 -4.04647 2.44989 164 158 155
0.11594 -4.05047 2.45129 163 157 153
0.10123 -4.05446 2.45269 162 156 146
0.08655 -4.05845 2.45409 163 155 144
0.07189 -4.06243 2.45548 161 154 141
0.05725 -4.06641 2.45688 158 151 138
0.04262 -4.07038 2.45827 157 150 138
0.02802 -4.07435 2.45966 156 148 142
0.01344 -4.07831 2.46105 155 146 145
-0.00112 -4.08226 2.46243 154 145 132
-0.01567 -4.08621 2.46382 153 144 130
-0.03019 -4.09016 2.46520 152 143 130
-0.04469 -4.09410 2.46658 151 141 128
-0.05917 -4.09803 2.46796 152 140 129
-0.07364 -4.10196 2.46933 152 140 132
-0.08808 -4.10588 2.47071 151 139 131
-0.10250 -4.10980 2.47208 148 140 129
-0.11691 -4.11371 2.47345 148 140 127
-0.13129 -4.11762 2.47482 148 141 128
-0.14566 -4.12152 2.47619 147 141 127
-0.16000 -4.12542 2.47755 147 139 127
-0.17433 -4.12931 2.47892 147 137 130
-0.18863 -4.13319 2.48028 147 138 130
-0.20292 -4.13707 2.48164 147 138 129
-0.21719 -4.14095 2.48300 146 136 131
-0.23144 -4.14482 2.48435 146 138 132
-0.24566 -4.14869 2.48571 147 137 129
-0.25987 -4.15255 2.48706 147 136 126
-0.27406 -4.15640 2.48841 146 136 126
-0.28824 -4.16025 2.48976 147 136 130
-0.30239 -4.16409 2.49111 149 139 137
-0.31652 -4.16793 2.49245 151 141 140
-0.33063 -4.17177 2.49379 153 146 136
-0.34473 -4.17559 2.49514 154 149 139
-0.35881 -4.17942 2.49648 155 147 141
-0.37286 -4.18324 2.49781 156 146 149
-0.38690 -4.18705 2.49915 155 145 147
-0.40092 -4.19086 2.50048 153 145 141
-0.41492 -4.19466 2.50182 152 143 138
-0.42890 -4.19846 2.50315 151 140 136
-0.44286 -4.20225 2.50448 150 138 133
-0.45681 -4.20604 2.50580 149 139 130
-0.47073 -4.20982 2.50713 149 140 130
-0.48464 -4.21360 2.50845 148 137 134
-0.49853 -4.21737 2.50977 145 135 134
-0.51240 -4.22114 2.51109 144 134 127
-0.52625 -4.22490 2.51241 142 133 121
-0.54008 -4.22866 2.51373 140 131 125
-0.55390 -4.23241 2.51504 140 130 127
-0.56769 -4.23616 2.51636 139 130 128
-0.58147 -4.23990 2.51767 139 131 128
-0.59523 -4.24364 2.51898 140 131 126
-0.60897 -4.24737 2.52028 139 130 125
-0.62269 -4.25110 2.52159 136 130 122
-0.63640 -4.25482 2.52289 136 130 121
-0.65008 -4.25854 2.52420 136 128 117
-0.66375 -4.26225 2.52550 135 125 113
-0.67740 -4.26596 2.52680 134 123 114
-0.69103 -4.26966 2.52809 133 124 117
-0.70464 -4.27336 2.52939 131 127 118
-0.71824 -4.27705 2.53068 131 128 115
-0.73182 -4.28074 2.53198 134 128 111
0.16534 -4.01033 2.42584 169 162 153
0.15066 -4.01434 2.42725 168 160 155
0.13600 -4.01834 2.42866 165 157 153
0.12135 -4.02234 2.43007 164 157 155
0.10673 -4.02633 2.43148 164 156 154
0.09213 -4.03031 2.43288 162 156 150
0.07754 -4.03429 2.43428 162 156 147
0.06298 -4.03827 2.43568 161 155 146
0.04843 -4.04223 2.43708 161 154 144
0.03391 -4.04620 2.43848 160 152 144
0.01941 -4.05016 2.43987 159 152 145
0.00492 -4.05411 2.44126 158 150 145
-0.00954 -4.05806 2.44265 157 149 141
-0.02399 -4.06200 2.44404 157 149 139
-0.03841 -4.06593 2.44543 155 147 139
-0.05282 -4.06986 2.44681 156 146 139
-0.06721 -4.07379 2.44820 156 147 138
-0.08157 -4.07771 2.44958 155 146 137
-0.09592 -4.08163 2.45096 153 146 137
-0.11025 -4.08554 2.45234 151 144 138
-0.12456 -4.08944 2.45371 152 143 138
-0.13885 -4.09334 2.45509 151 145 133
-0.15312 -4.09723 2.45646 150 144 132
-0.16737 -4.10112 2.45783 151 143 131
-0.18160 -4.10501 2.45920 151 141 136
-0.19581 -4.10888 2.46056 151 142 142
-0.21000 -4.11276 2.46193 150 141 135
-0.22418 -4.11662 2.46329 150 140 134
-0.23833 -4.12049 2.46465 149 140 138
-0.25247 -4.12434 2.46601 149 141 137
-0.26658 -4.12820 2.46737 148 139 135
-0.28068 -4.13204 2.46872 147 140 132
-0.29476 -4.13588 2.47008 149 140 130
-0.30882 -4.13972 2.47143 151 142 134
-0.32286 -4.14355 2.47278 152 144 137
-0.33688 -4.14738 2.47412 152 144 137
-0.35089 -4.15120 2.47547 154 146 139
-0.36487 -4.15502 2.47682 154 147 138
-0.37884 -4.15883 2.47816 156 148 143
-0.39278 -4.16263 2.47950 155 147 143
-0.40671 -4.16643 2.48084 151 147 141
-0.42062 -4.17023 2.48218 151 143 140
-0.43452 -4.17402 2.48351 150 140 136
-0.44839 -4.17781 2.48485 149 139 131
-0.46224 -4.18159 2.48618 148 138 126
-0.47608 -4.18536 2.48751 148 138 123
-0.48990 -4.18913 2.48884 147 139 130
-0.50370 -4.19290 2.49016 147 138 131
-0.51748 -4.19666 2.49149 146 137 129
-0.53124 -4.20041 2.49281 144 135 125
-0.54498 -4.20416 2.49413 143 132 125
-0.55871 -4.20791 2.49545 143 131 122
-0.57242 -4.21165 2.49677 142 131 117
-0.58611 -4.21539 2.49809 141 131 124
-0.59978 -4.21912 2.49940 140 131 129
-0.61343 -4.22284 2.50071 139 131 131
-0.62707 -4.22656 2.50202 138 131 127
-0.64069 -4.23028 2.50333 138 130 123
-0.65429 -4.23399 2.50464 138 130 121
-0.66787 -4.23770 2.50595 137 128 117
-0.68143 -4.24140 2.50725 137 127 119
-0.69498 -4.24509 2.50855 135 126 121
-0.70851 -4.24879 2.50985 133 126 123
-0.72202 -4.25247 2.51115 133 127 121
-0.73551 -4.25615 2.51245 134 127 118
-0.74898 -4.25983 2.51375 132 129 115
-0.76244 -4.26350 2.51504 133 131 113
-0.77588 -4.26717 2.51633 132 132 111
0.17046 -3.98253 2.40484 164 161 152
0.15586 -3.98654 2.40625 165 160 158
0.14127 -3.99053 2.40767 165 158 160
0.12671 -3.99453 2.40908 164 158 156
0.11216 -3.99851 2.41050 165 158 156
0.09764 -4.00249 2.41191 165 158 154
0.08313 -4.00647 2.41332 165 157 152
0.06865 -4.01044 2.41472 164 157 149
0.05418 -4.01441 2.41613 163 157 148
0.03973 -4.01837 2.41753 164 155 151
0.02531 -4.02232 2.41893 162 155 152
0.01090 -4.02627 2.42033 162 156 151
-0.00349 -4.03021 2.42173 161 156 150
-0.01786 -4.03415 2.42312 160 155 148
-0.03221 -4.03809 2.42452 159 153 146
-0.04654 -4.04201 2.42591 159 151 144
-0.06085 -4.04594 2.42730 159 150 144
-0.07514 -4.04985 2.42868 159 151 142
-0.08941 -4.05377 2.43007 157 152 142
-0.10366 -4.05767 2.43145 156 150 145
-0.11790 -4.06157 2.43284 154 148 145
-0.13211 -4.06547 2.43422 154 146 143
-0.14631 -4.06936 2.43559 153 147 138
-0.16048 -4.07325 2.43697 153 147 136
-0.17464 -4.07713 2.43834 154 146 135
-0.18878 -4.08100 2.43972 154 144 134
-0.20290 -4.08487 2.44109 153 143 136
-0.21700 -4.08874 2.44246 154 145 139
-0.23108 -4.09260 2.44383 153 144 139
-0.24514 -4.09645 2.44519 151 143 142
-0.25919 -4.10030 2.44655 150 141 145
-0.27321 -4.10415 2.44792 150 141 143
-0.28722 -4.10799 2.44928 148 142 141
-0.30120 -4.11182 2.45063 149 144 136
-0.31517 -4.11565 2.45199 152 145 137
-0.32912 -4.11947 2.45335 154 145 139
-0.34306 -4.12329 2.45470 154 146 143
-0.35697 -4.12711 2.45605 154 146 145
-0.37086 -4.13091 2.45740 155 147 137
-0.38474 -4.13472 2.45875 155 149 139
-0.39860 -4.13852 2.46009 154 147 141
-0.41244 -4.14231 2.46143 153 145 142
-0.42626 -4.14610 2.46278 153 142 146
-0.44006 -4.14988 2.46412 151 140 138
-0.45384 -4.15366 2.46546 150 139 131
-0.46761 -4.15743 2.46679 148 138 128
-0.48136 -4.16120 2.46813 147 138 125
-0.49509 -4.16497 2.46946 146 138 128
-0.50880 -4.16872 2.47079 145 137 130
-0.52249 -4.17248 2.47212 145 138 131
-0.53617 -4.17623 2.47345 144 138 129
-0.54983 -4.17997 2.47478 144 137 127
-0.56347 -4.18371 2.47610 144 136 125
-0.57709 -4.18744 2.47742 143 135 123
-0.59069 -4.19117 2.47874 140 134 126
-0.60428 -4.19489 2.48006 140 132 126
-0.61784 -4.19861 2.48138 140 131 121
-0.63139 -4.20233 2.48270 139 131 123
-0.64493 -4.20604 2.48401 138 131 124
-0.65844 -4.20974 2.48532 138 130 124
-0.67194 -4.21344 2.48663 137 130 124
-0.68542 -4.21714 2.48794 138 128 125
-0.69888 -4.22083 2.48925 137 127 127
-0.71232 -4.22451 2.49055 134 127 127
-0.72575 -4.22819 2.49186 134 127 125
-0.73916 -4.23187 2.49316 135 126 121
-0.75255 -4.23554 2.49446 133 127 114
-0.76592 -4.23920 2.49576 132 128 115
-0.77928 -4.24286 2.49706 132 129 114
-0.79262 -4.24652 2.49835 131 128 107
-0.80594 -4.25017 2.49964 131 128 109
-0.81924 -4.25382 2.50094 131 127 114
0.14649 -3.96304 2.38691 159 152 148
0.11754 -3.97101 2.38975 165 158 155
0.10309 -3.97499 2.39117 167 159 156
0.08866 -3.97896 2.39258 167 159 156
0.07425 -3.98293 2.39400 168 158 157
0.05986 -3.98689 2.39541 166 158 153
0.04549 -3.99084 2.39682 164 157 153
0.03114 -3.99480 2.39822 164 156 154
0.01681 -3.99874 2.39963 164 157 154
0.00250 -4.00268 2.40103 164 159 155
-0.01180 -4.00662 2.40243 164 160 153
-0.02607 -4.01055 2.40383 163 159 154
-0.04032 -4.01447 2.40523 163 158 153
-0.05456 -4.01839 2.40663 162 156 148
-0.06878 -4.02231 2.40802 162 153 149
-0.08297 -4.02621 2.40941 161 153 147
-0.09715 -4.03012 2.41080 159 153 150
-0.11131 -4.03402 2.41219 159 153 154
-0.12545 -4.03791 2.41358 158 151 147
-0.13957 -4.04180 2.41496 157 150 143
-0.15368 -4.04568 2.41634 156 151 141
-0.16776 -4.04956 2.41772 155 151 139
-0.18182 -4.05343 2.41910 156 149 138
-0.19587 -4.05730 2.42048 156 148 131
-0.20990 -4.06116 2.42186 155 147 126
-0.22391 -4.06502 2.42323 155 145 141
-0.23790 -4.06887 2.42460 155 146 141
-0.25187 -4.07271 2.42597 153 145 143
-0.26582 -4.07656 2.42734 152 143 147
-0.27976 -4.08039 2.42870 153 143 143
-0.29367 -4.08422 2.43007 151 143 142
-0.30757 -4.08805 2.43143 152 144 140
-0.32145 -4.09187 2.43279 153 144 137
-0.33531 -4.09569 2.43415 154 144 135
-0.34915 -4.09950 2.43551 154 146 140
-0.36298 -4.10331 2.43686 155 147 143
-0.37678 -4.10711 2.43822 156 148 141
-0.39057 -4.11090 2.43957 155 148 145
-0.40434 -4.11469 2.44092 154 145 140
-0.41809 -4.11848 2.44227 153 141 136
-0.43182 -4.12226 2.44361 153 140 139
-0.44554 -4.12604 2.44496 152 139 137
-0.45923 -4.12981 2.44630 150 139 133
-0.47291 -4.13357 2.44764 148 138 131
-0.48657 -4.13734 2.44898 147 138 131
-0.50022 -4.14109 2.45032 146 138 131
-0.51384 -4.14484 2.45166 146 138 131
-0.52745 -4.14859 2.45299 144 138 135
-0.54104 -4.15233 2.45432 144 138 134
-0.55461 -4.15607 2.45565 143 138 130
-0.56816 -4.15980 2.45698 145 137 129
-0.58170 -4.16353 2.45831 144 137 130
-0.59522 -4.16725 2.45963 143 136 132
-0.60872 -4.17097 2.46096 142 134 131
-0.62220 -4.17468 2.46228 143 132 125
-0.63567 -4.17838 2.46360 142 131 124
-0.64911 -4.18209 2.46492 140 131 124
-0.66254 -4.18578 2.46624 138 130 123
-0.67596 -4.18948 2.46755 137 130 130
-0.68935 -4.19317 2.46886 139 128 131
-0.70273 -4.19685 2.47018 139 127 130
-0.71609 -4.20053 2.47149 137 128 133
-0.72943 -4.20420 2.47279 135 126 131
-0.74276 -4.20787 2.47410 135 125 126
-0.75607 -4.21153 2.47541 134 126 122
-0.76936 -4.21519 2.47671 132 127 121
-0.78263 -4.21885 2.47801 133 127 120
-0.79589 -4.22250 2.47931 133 125 115
-0.80913 -4.22614 2.48061 131 124 113
-0.82235 -4.22978 2.48190 130 123 114
-0.83556 -4.23342 2.48320 129 122 113
0.09413 -3.95175 2.37208 166 157 153
0.07980 -3.95571 2.37350 167 159 154
0.06548 -3.95967 2.37492 169 161 154
0.05119 -3.96363 2.37633 168 162 153
0.03691 -3.96757 2.37774 167 161 154
0.02266 -3.97152 2.37916 167 159 152
0.00842 -3.97545 2.38056 167 159 151
-0.00580 -3.97938 2.38197 167 158 153
-0.02000 -3.98331 2.38338 167 159 150
-0.03418 -3.98723 2.38478 167 160 158
-0.04834 -3.99115 2.38618 166 159 161
-0.06248 -3.99506 2.38758 165 157 154
-0.07661 -3.99896 2.38898 165 157 152
-0.09071 -4.00286 2.39038 164 155 147
-0.10480 -4.00676 2.39177 162 155 148
-0.11886 -4.01065 2.39316 161 154 152
-0.13291 -4.01453 2.39455 160 155 148
-0.14694 -4.01841 2.39594 160 155 146
-0.16095 -4.02229 2.39733 160 154 145
-0.17495 -4.02616 2.39871 158 153 144
-0.18892 -4.03002 2.40010 158 152 143
-0.20288 -4.03388 2.40148 157 150 140
-0.21681 -4.03774 2.40286 156 148 135
-0.23073 -4.04158 2.40424 156 147 141
-0.24463 -4.04543 2.40561 156 146 142
-0.25851 -4.04927 2.40699 155 147 141
-0.27238 -4.05310 2.40836 154 146 145
-0.28622 -4.05693 2.40973 151 146 144
-0.30005 -4.06075 2.41110 152 145 142
-0.31386 -4.06457 2.41246 154 146 140
-0.32765 -4.06838 2.41383 155 146 139
-0.34142 -4.07219 2.41519 153 145 139
-0.35517 -4.07600 2.41655 154 146 141
-0.36891 -4.07980 2.41791 154 147 136
-0.38263 -4.08359 2.41927 153 149 139
-0.39633 -4.08738 2.42063 155 148 143
-0.41001 -4.09116 2.42198 154 146 141
-0.42367 -4.09494 2.42333 154 143 138
-0.43732 -4.09871 2.42468 153 141 141
-0.45095 -4.10248 2.42603 151 139 144
-0.46456 -4.10625 2.42738 149 140 137
-0.47815 -4.11000 2.42873 147 140 129
-0.49173 -4.11376 2.43007 148 140 132
-0.50528 -4.11751 2.43141 150 139 135
-0.51882 -4.12125 2.43275 149 137 133
-0.53234 -4.12499 2.43409 146 137 135
-0.54585 -4.12872 2.43543 145 137 134
-0.55934 -4.13245 2.43676 144 137 135
-0.57280 -4.13618 2.43809 146 136 135
-0.58626 -4.13990 2.43943 146 136 136
-0.59969 -4.14361 2.44076 144 136 137
-0.61311 -4.14732 2.44208 144 135 138
-0.62651 -4.15103 2.44341 145 134 131
-0.63989 -4.15473 2.44473 145 134 126
-0.65325 -4.15842 2.44606 143 133 132
-0.66660 -4.16212 2.44738 141 131 127
-0.67993 -4.16580 2.44870 139 129 126
-0.69324 -4.16948 2.45002 139 128 124
-0.70654 -4.17316 2.45133 139 128 125
-0.71981 -4.17683 2.45265 138 130 128
-0.73308 -4.18050 2.45396 136 129 129
-0.74632 -4.18416 2.45527 135 127 129
-0.75955 -4.18782 2.45658 135 126 132
-0.77276 -4.19147 2.45789 133 126 128
-0.78595 -4.19512 2.45919 132 125 125
-0.79912 -4.19876 2.46050 133 123 126
-0.81228 -4.20240 2.46180 132 122 121
-0.82543 -4.20604 2.46310 130 121 116
0.04262 -3.94065 2.35749 167 163 153
0.02844 -3.94459 2.35891 170 162 154
0.01427 -3.94852 2.36032 171 162 157
0.00013 -3.95245 2.36174 170 160 157
-0.01400 -3.95637 2.36315 170 161 155
-0.02810 -3.96029 2.36456 170 161 153
-0.04219 -3.96420 2.36596 169 160 157
-0.05626 -3.96811 2.36737 168 158 159
-0.07031 -3.97201 2.36877 168 159 155
-0.08434 -3.97591 2.37017 168 159 154
-0.09835 -3.97980 2.37157 167 160 151
-0.11235 -3.98369 2.37297 167 159 150
-0.12632 -3.98757 2.37437 165 157 154
-0.14028 -3.99145 2.37576 164 156 153
-0.15422 -3.99532 2.37716 163 156 151
-0.16814 -3.99918 2.37855 162 156 146
-0.18204 -4.00304 2.37994 160 155 144
-0.19593 -4.00690 2.38132 160 154 147
-0.20979 -4.01075 2.38271 159 153 147
-0.22364 -4.01460 2.38409 159 152 145
-0.23747 -4.01844 2.38547 158 151 146
-0.25128 -4.02227 2.38685 158 150 145
-0.26508 -4.02610 2.38823 157 149 144
-0.27885 -4.02993 2.38961 156 150 145
-0.29261 -4.03375 2.39098 155 147 146
-0.30635 -4.03757 2.39235 156 148 144
-0.32007 -4.04138 2.39372 155 147 144
-0.33377 -4.04518 2.39509 156 148 142
-0.34746 -4.04898 2.39646 157 149 145
-0.36112 -4.05278 2.39783 156 148 145
-0.37477 -4.05657 2.39919 156 149 141
-0.38840 -4.06035 2.40055 155 149 141
-0.40202 -4.06414 2.40191 156 147 142
-0.41561 -4.06791 2.40327 155 146 143
-0.42919 -4.07168 2.40463 155 144 146
-0.44275 -4.07545 2.40598 154 143 142
-0.45629 -4.07921 2.40733 151 142 139
-0.46982 -4.08297 2.40869 149 142 137
-0.48333 -4.08672 2.41004 146 141 134
-0.49682 -4.09046 2.41138 145 140 135
-0.51029 -4.09420 2.41273 145 140 132
-0.52374 -4.09794 2.41407 143 139 134
-0.53718 -4.10167 2.41542 142 139 134
-0.55060 -4.10540 2.41676 140 139 131
-0.56400 -4.10912 2.41810 139 137 133
-0.57739 -4.11284 2.41943 139 136 134
-0.59076 -4.11655 2.42077 138 134 135
-0.60411 -4.12026 2.42210 136 134 134
-0.61744 -4.12396 2.42343 136 133 136
-0.63076 -4.12766 2.42477 138 133 134
-0.64406 -4.13136 2.42609 137 133 131
-0.65734 -4.13504 2.42742 137 134 135
-0.67061 -4.13873 2.42875 136 133 130
-0.68385 -4.14241 2.43007 134 131 123
-0.69708 -4.14608 2.43139 132 129 124
-0.71030 -4.14975 2.43271 131 127 124
-0.72349 -4.15342 2.43403 134 130 125
-0.73667 -4.15708 2.43535 136 131 127
-0.74984 -4.16073 2.43666 136 129 129
-0.81540 -4.17894 2.44321 132 121 123
-0.82846 -4.18257 2.44452 130 119 115
0.00600 -3.92581 2.34172 170 162 162
-0.00806 -3.92973 2.34314 172 163 164
-0.02209 -3.93364 2.34455 171 165 158
-0.03611 -3.93755 2.34596 171 165 157
-0.05010 -3.94146 2.34738 170 164 156
-0.06408 -3.94536 2.34878 171 161 155
-0.07804 -3.94925 2.35019 169 158 152
-0.09198 -3.95314 2.35160 168 159 158
-0.10590 -3.95702 2.35300 168 160 158
-0.11981 -3.96090 2.35440 168 161 156
-0.13369 -3.96477 2.35580 168 160 157
-0.14756 -3.96864 2.35720 168 161 157
-0.16141 -3.97250 2.35860 166 161 156
-0.17524 -3.97636 2.35999 166 158 154
-0.18906 -3.98021 2.36138 162 157 151
-0.20285 -3.98406 2.36278 161 156 152
-0.21663 -3.98790 2.36416 162 154 153
-0.23039 -3.99174 2.36555 163 154 154
-0.24413 -3.99557 2.36694 161 155 152
-0.25786 -3.99940 2.36832 159 153 150
-0.27156 -4.00322 2.36970 158 151 148
-0.28525 -4.00704 2.37108 158 151 146
-0.29892 -4.01085 2.37246 158 150 145
-0.31257 -4.01466 2.37384 157 151 147
-0.32620 -4.01846 2.37521 155 151 147
-0.33982 -4.02226 2.37658 156 151 146
-0.35342 -4.02605 2.37796 158 152 143
-0.36700 -4.02984 2.37933 157 152 142
-0.38056 -4.03362 2.38069 158 151 144
-0.39411 -4.03740 2.38206 158 150 140
-0.40764 -4.04117 2.38342 159 148 138
-0.42115 -4.04494 2.38478 157 147 140
-0.43464 -4.04870 2.38614 155 146 142
-0.44812 -4.05246 2.38750 154 146 137
-0.46158 -4.05622 2.38886 152 145 134
-0.47502 -4.05996 2.39022 148 140 130
-0.72713 -4.13028 2.41563 123 122 130
-0.74023 -4.13393 2.41695 133 131 131
-0.75331 -4.13758 2.41827 138 130 131
-0.81848 -4.15576 2.42484 132 121 123
-0.83146 -4.15938 2.42615 131 121 116
-0.03009 -3.91119 2.32618 169 167 163
-0.04401 -3.91509 2.32760 171 168 166
-0.05792 -3.91899 2.32901 170 167 160
-0.07181 -3.92287 2.33043 172 165 160
-0.08568 -3.92676 2.33184 171 163 157
-0.09953 -3.93064 2.33325 167 162 160
-0.11336 -3.93451 2.33465 168 161 160
-0.12718 -3.93838 2.33606 168 161 158
-0.14098 -3.94225 2.33746 169 162 163
-0.15476 -3.94611 2.33886 169 163 166
-0.16852 -3.94996 2.34026 169 163 161
-0.18226 -3.95381 2.34166 171 161 157
-0.19599 -3.95765 2.34306 167 161 153
-0.20969 -3.96149 2.34445 164 160 152
-0.22338 -3.96533 2.34584 165 156 154
-0.23706 -3.96915 2.34724 165 154 154
-0.25071 -3.97298 2.34862 164 156 152
-0.26435 -3.97680 2.35001 162 156 154
-0.27797 -3.98061 2.35140 162 155 152
-0.29157 -3.98442 2.35278 162 155 149
-0.30515 -3.98823 2.35416 161 154 146
-0.31872 -3.99202 2.35554 160 153 147
-0.33227 -3.99582 2.35692 160 152 142
-0.34580 -3.99961 2.35830 160 153 145
-0.35931 -4.00339 2.35967 160 153 143
-0.37281 -4.00717 2.36104 160 153 143
-0.38629 -4.01095 2.36242 160 152 145
-0.39975 -4.01472 2.36379 159 152 145
-0.41319 -4.01848 2.36515 157 151 148
-0.42662 -4.02224 2.36652 157 151 148
-0.44003 -4.02600 2.36788 157 149 145
-0.45342 -4.02975 2.36924 157 148 140
-0.46679 -4.03350 2.37061 155 146 138
-0.48015 -4.03724 2.37196 151 139 135
-0.71769 -4.10376 2.39613 136 128 125
-0.73072 -4.10741 2.39745 139 135 131
-0.74375 -4.11106 2.39878 144 138 136
-0.75675 -4.11470 2.40010 146 136 131
-0.76974 -4.11834 2.40142 140 129 130
-0.80860 -4.12922 2.40538 132 122 122
-0.82152 -4.13284 2.40669 132 122 123
-0.07944 -3.90067 2.31229 175 169 169
-0.09322 -3.90454 2.31370 174 169 162
-0.10699 -3.90841 2.31511 173 167 166
-0.12073 -3.91228 2.31652 172 165 164
-0.13446 -3.91614 2.31793 170 163 160
-0.14817 -3.91999 2.31934 170 164 161
-0.16186 -3.92384 2.32075 170 164 162
-0.17554 -3.92769 2.32215 169 164 158
-0.18919 -3.93153 2.32355 169 165 158
-0.20283 -3.93536 2.32495 168 164 157
-0.21645 -3.93919 2.32635 168 164 155
-0.23006 -3.94302 2.32774 169 162 153
-0.24364 -3.94684 2.32914 168 158 152
-0.25721 -3.95066 2.33053 167 158 144
-0.27076 -3.95447 2.33192 166 158 152
-0.28430 -3.95827 2.33331 164 158 153
-0.29781 -3.96207 2.33470 164 158 150
-0.31131 -3.96587 2.33608 164 157 150
-0.32479 -3.96966 2.33747 164 155 152
-0.33826 -3.97345 2.33885 164 153 150
-0.35170 -3.97723 2.34023 162 154 150
-0.36513 -3.98101 2.34160 162 155 148
-0.37855 -3.98478 2.34298 162 153 146
-0.39194 -3.98854 2.34436 161 153 145
-0.40532 -3.99231 2.34573 161 153 146
-0.41868 -3.99606 2.34710 158 153 150
-0.43202 -3.99982 2.34847 159 152 149
-0.44535 -4.00356 2.34984 158 150 147
-0.45866 -4.00731 2.35120 158 150 143
-0.47195 -4.01104 2.35257 157 148 142
-0.48523 -4.01478 2.35393 156 147 142
-0.49849 -4.01851 2.35529 153 144 131
-0.51173 -4.02223 2.35665 150 139 128
-0.52495 -4.02595 2.35801 149 142 133
-0.53816 -4.02966 2.35936 149 142 134
-0.55135 -4.03337 2.36071 149 141 138
-0.56453 -4.03708 2.36207 149 143 142
-0.57768 -4.04078 2.36342 150 141 137
-0.59082 -4.04447 2.36476 150 138 130
-0.60395 -4.04816 2.36611 149 138 128
-0.61705 -4.05185 2.36746 147 139 131
-0.63015 -4.05553 2.36880 148 139 135
-0.64322 -4.05921 2.37014 148 138 133
-0.65628 -4.06288 2.37148 147 137 131
-0.66932 -4.06655 2.37282 146 137 130
-0.68234 -4.07021 2.37416 146 136 129
-0.69535 -4.07387 2.37549 146 136 129
-0.70834 -4.07752 2.37682 145 135 131
-0.72132 -4.08117 2.37816 146 135 130
-0.73428 -4.08481 2.37949 145 136 130
-0.74722 -4.08845 2.38081 145 137 132
-0.76015 -4.09209 2.38214 145 137 128
-0.77306 -4.09572 2.38346 146 135 126
-0.78595 -4.09934 2.38479 144 132 126
-0.82453 -4.11019 2.38875 134 123 123
-0.11435 -3.88645 2.29720 176 168 174
-0.12801 -3.89031 2.29861 176 170 165
-0.14165 -3.89416 2.30003 173 168 159
-0.15528 -3.89800 2.30144 174 166 160
-0.16888 -3.90185 2.30284 172 162 164
-0.18247 -3.90568 2.30425 170 165 163
-0.19604 -3.90951 2.30566 170 166 162
-0.20960 -3.91334 2.30706 170 164 162
-0.22313 -3.91716 2.30846 169 164 165
-0.23665 -3.92098 2.30986 172 163 159
-0.25015 -3.92479 2.31126 172 162 157
-0.26364 -3.92860 2.31265 171 163 150
-0.27710 -3.93240 2.31404 169 161 153
-0.29055 -3.93620 2.31544 166 159 157
-0.30398 -3.93999 2.31683 166 158 152
-0.31740 -3.94378 2.31822 166 158 145
-0.33080 -3.94756 2.31960 167 158 153
-0.34418 -3.95134 2.32099 166 157 159
-0.35754 -3.95511 2.32237 165 158 156
-0.37089 -3.95888 2.32375 165 157 156
-0.38422 -3.96265 2.32513 165 155 153
-0.39753 -3.96640 2.32651 164 155 149
-0.41083 -3.97016 2.32789 163 154 149
-0.42410 -3.97391 2.32926 160 154 152
-0.43737 -3.97765 2.33063 162 152 151
-0.45061 -3.98139 2.33200 162 151 148
-0.46384 -3.98513 2.33337 161 151 144
-0.47705 -3.98886 2.33474 160 150 145
-0.49024 -3.99258 2.33610 159 151 148
-0.50342 -3.99630 2.33747 158 151 143
-0.51658 -4.00002 2.33883 156 148 138
-0.52973 -4.00373 2.34019 154 147 136
-0.54285 -4.00744 2.34155 153 145 137
-0.55596 -4.01114 2.34291 153 144 139
-0.56906 -4.01483 2.34426 152 144 142
-0.58214 -4.01853 2.34562 152 143 138
-0.59520 -4.02221 2.34697 152 141 133
-0.60824 -4.02590 2.34832 151 141 131
-0.62127 -4.02958 2.34967 150 140 132
-0.63428 -4.03325 2.35101 148 137 135
-0.64728 -4.03692 2.35236 147 136 132
-0.66026 -4.04058 2.35370 148 137 131
-0.67322 -4.04424 2.35504 147 137 132
-0.68616 -4.04790 2.35638 146 136 132
-0.69909 -4.05155 2.35772 147 135 132
-0.71201 -4.05520 2.35906 146 134 131
-0.72491 -4.05884 2.36039 145 134 129
-0.73779 -4.06247 2.36173 144 135 130
-0.75065 -4.06611 2.36306 143 135 130
-0.76350 -4.06974 2.36439 143 134 128
-0.77633 -4.07336 2.36572 144 133 128
-0.78915 -4.07698 2.36704 143 132 130
-0.80195 -4.08059 2.36837 141 131 127
-0.82751 -4.08781 2.37101 136 127 121
-0.16230 -3.87628 2.28374 177 170 168
-0.17582 -3.88011 2.28515 176 169 168
-0.18933 -3.88394 2.28656 174 167 168
-0.20281 -3.88776 2.28797 174 167 162
-0.21628 -3.89158 2.28938 172 166 158
-0.22973 -3.89539 2.29078 169 165 162
-0.24317 -3.89920 2.29218 170 165 161
-0.25658 -3.90300 2.29358 172 164 162
-0.26998 -3.90680 2.29498 172 165 159
-0.28337 -3.91060 2.29638 171 165 160
-0.29673 -3.91439 2.29777 170 164 163
-0.31008 -3.91817 2.29917 169 162 162
-0.32342 -3.92195 2.30056 169 161 152
-0.33673 -3.92572 2.30195 168 159 155
-0.35003 -3.92949 2.30334 168 159 157
-0.36331 -3.93326 2.30472 167 160 155
-0.37657 -3.93702 2.30611 167 160 157
-0.38982 -3.94077 2.30749 166 160 160
-0.40305 -3.94452 2.30887 166 159 154
-0.41627 -3.94827 2.31025 165 158 152
-0.42946 -3.95201 2.31163 163 157 152
-0.44264 -3.95575 2.31300 164 154 152
-0.45581 -3.95948 2.31438 162 154 151
-0.46896 -3.96321 2.31575 161 153 148
-0.48209 -3.96693 2.31712 160 152 147
-0.49520 -3.97064 2.31849 160 152 149
-0.50830 -3.97436 2.31986 159 152 146
-0.52138 -3.97807 2.32122 158 151 142
-0.53444 -3.98177 2.32259 157 150 140
-0.54749 -3.98547 2.32395 156 149 138
-0.56052 -3.98916 2.32531 155 146 140
-0.57354 -3.99285 2.32667 154 145 141
-0.58654 -3.99654 2.32802 152 144 135
-0.59952 -4.00022 2.32938 152 143 132
-0.61249 -4.00389 2.33073 152 142 131
-0.62543 -4.00756 2.33208 152 140 132
-0.63837 -4.01123 2.33343 151 138 133
-0.65129 -4.01489 2.33478 149 137 132
-0.66419 -4.01855 2.33613 149 136 132
-0.67707 -4.02220 2.33747 147 136 132
-0.68994 -4.02585 2.33882 146 137 131
-0.70279 -4.02949 2.34016 145 136 130
-0.71563 -4.03313 2.34150 146 136 131
-0.72845 -4.03677 2.34283 145 136 134
-0.74126 -4.04040 2.34417 144 137 134
-0.75405 -4.04402 2.34551 143 136 131
-0.76682 -4.04764 2.34684 143 134 127
-0.77958 -4.05126 2.34817 143 133 128
-0.79232 -4.05487 2.34950 142 132 132
-0.80504 -4.05848 2.35083 141 131 129
-0.18268 -3.85863 2.26767 173 170 168
-0.19610 -3.86245 2.26909 175 170 167
-0.20950 -3.86626 2.27050 178 170 163
-0.22289 -3.87007 2.27190 177 169 160
-0.23625 -3.87388 2.27331 174 168 162
-0.24961 -3.87768 2.27472 173 168 162
-0.26294 -3.88147 2.27612 174 165 161
-0.27626 -3.88526 2.27752 173 166 160
-0.28956 -3.88905 2.27892 173 165 163
-0.30284 -3.89283 2.28032 171 166 165
-0.31611 -3.89660 2.28172 172 165 164
-0.32936 -3.90037 2.28311 171 163 160
-0.34259 -3.90414 2.28450 170 163 159
-0.35581 -3.90790 2.28589 170 162 159
-0.36901 -3.91166 2.28728 170 160 156
-0.38219 -3.91541 2.28867 168 160 156
-0.39536 -3.91916 2.29006 166 161 160
-0.40851 -3.92290 2.29144 166 161 158
-0.42164 -3.92664 2.29282 167 161 155
-0.43476 -3.93037 2.29420 167 160 154
-0.44786 -3.93410 2.29558 167 158 155
-0.46095 -3.93782 2.29696 166 157 155
-0.47401 -3.94154 2.29833 164 155 152
-0.48706 -3.94525 2.29971 162 154 150
-0.50010 -3.94896 2.30108 162 154 150
-0.51312 -3.95267 2.30245 160 153 147
-0.52612 -3.95637 2.30382 159 153 145
-0.53911 -3.96006 2.30518 158 152 143
-0.55208 -3.96375 2.30655 158 151 142
-0.56503 -3.96744 2.30791 158 150 143
-0.57797 -3.97112 2.30927 157 149 143
-0.59089 -3.97480 2.31063 155 147 138
-0.60379 -3.97847 2.31199 154 146 134
-0.61668 -3.98214 2.31335 154 145 132
-0.62955 -3.98580 2.31470 154 142 136
-0.64241 -3.98946 2.31605 153 140 138
-0.65525 -3.99312 2.31741 152 140 136
-0.66807 -3.99677 2.31876 150 140 130
-0.68088 -4.00041 2.32010 149 139 126
-0.69368 -4.00405 2.32145 147 139 123
-0.70645 -4.00769 2.32279 146 138 126
-0.71921 -4.01132 2.32414 145 137 128
-0.73196 -4.01495 2.32548 146 137 133
-0.74469 -4.01857 2.32682 145 136 134
-0.75740 -4.02219 2.32816 145 135 130
-0.77010 -4.02580 2.32949 145 134 127
-0.78278 -4.02941 2.33083 144 133 127
-0.79545 -4.03301 2.33216 142 132 131
-0.80810 -4.03661 2.33349 140 130 130
-0.22941 -3.84882 2.25464 177 173 164
-0.24270 -3.85261 2.25605 177 172 164
-0.25597 -3.85640 2.25745 177 171 164
-0.26922 -3.86019 2.25886 176 169 163
-0.28246 -3.86397 2.26026 176 168 162
-0.29568 -3.86775 2.26167 176 167 163
-0.30888 -3.87152 2.26307 173 167 165
-0.32207 -3.87529 2.26447 173 167 165
-0.33524 -3.87905 2.26586 173 166 164
-0.34839 -3.88281 2.26726 172 166 166
-0.36153 -3.88656 2.26865 172 167 168
-0.37464 -3.89031 2.27004 173 166 162
-0.38775 -3.89405 2.27143 171 163 159
-0.40084 -3.89779 2.27282 169 162 161
-0.41391 -3.90152 2.27421 169 162 159
-0.42696 -3.90525 2.27559 169 163 156
-0.44000 -3.90898 2.27698 170 163 157
-0.45302 -3.91270 2.27836 170 162 158
-0.46602 -3.91641 2.27974 169 162 158
-0.47901 -3.92012 2.28112 167 161 156
-0.49199 -3.92383 2.28249 165 158 152
-0.50494 -3.92753 2.28387 164 157 150
-0.51788 -3.93123 2.28524 163 156 147
-0.53081 -3.93492 2.28661 161 155 145
-0.54371 -3.93861 2.28798 160 154 146
-0.55661 -3.94229 2.28935 159 154 146
-0.56948 -3.94597 2.29072 160 153 144
-0.58234 -3.94964 2.29208 159 152 144
-0.59519 -3.95331 2.29344 158 151 145
-0.60801 -3.95698 2.29480 157 150 140
-0.62083 -3.96064 2.29616 157 148 138
-0.63362 -3.96429 2.29752 156 145 142
-0.64640 -3.96794 2.29888 156 143 145
-0.65917 -3.97159 2.30023 155 142 141
-0.67192 -3.97523 2.30158 153 143 134
-0.68465 -3.97887 2.30293 151 143 131
-0.69737 -3.98250 2.30428 150 142 128
-0.71007 -3.98613 2.30563 149 141 129
-0.72275 -3.98976 2.30698 149 138 132
-0.73542 -3.99338 2.30832 148 136 133
-0.74808 -3.99699 2.30966 146 135 133
-0.76072 -4.00060 2.31100 147 135 128
-0.77334 -4.00421 2.31234 148 135 126
-0.78595 -4.00781 2.31368 146 134 129
-0.79854 -4.01141 2.31502 143 133 130
-0.81112 -4.01500 2.31635 140 131 129
-0.26226 -3.83538 2.24039 176 174 169
-0.27543 -3.83916 2.24180 177 173 166
-0.28859 -3.84293 2.24321 178 170 165
-0.30173 -3.84670 2.24461 180 168 164
-0.31485 -3.85046 2.24602 178 168 166
-0.32795 -3.85422 2.24742 176 169 165
-0.34104 -3.85797 2.24882 174 169 164
-0.35412 -3.86172 2.25021 172 168 166
-0.36717 -3.86547 2.25161 173 169 167
-0.38021 -3.86920 2.25301 174 170 164
-0.39324 -3.87294 2.25440 174 169 163
-0.40625 -3.87667 2.25579 174 166 162
-0.41924 -3.88040 2.25718 172 164 160
-0.43221 -3.88412 2.25857 171 165 158
-0.44517 -3.88783 2.25995 170 166 157
-0.45812 -3.89155 2.26134 170 166 155
-0.47104 -3.89525 2.26272 170 166 159
-0.48396 -3.89895 2.26410 169 165 164
-0.49685 -3.90265 2.26548 169 163 158
-0.50973 -3.90635 2.26686 168 161 153
-0.52259 -3.91003 2.26823 166 158 151
-0.53544 -3.91372 2.26961 165 157 148
-0.54827 -3.91740 2.27098 164 156 148
-0.56109 -3.92107 2.27235 162 155 147
-0.57389 -3.92474 2.27372 161 154 143
-0.58667 -3.92841 2.27508 161 153 141
-0.59944 -3.93207 2.27645 160 153 144
-0.61219 -3.93573 2.27781 159 152 144
-0.62493 -3.93938 2.27917 159 151 144
-0.63765 -3.94303 2.28053 159 150 146
-0.65035 -3.94667 2.28189 159 149 146
-0.66304 -3.95031 2.28325 158 147 142
-0.67572 -3.95395 2.28461 156 145 139
-0.68837 -3.95758 2.28596 154 145 138
-0.70102 -3.96120 2.28731 153 145 136
-0.71364 -3.96482 2.28866 153 144 135
-0.72625 -3.96844 2.29001 152 143 135
-0.73885 -3.97205 2.29136 152 140 136
-0.75143 -3.97566 2.29270 150 137 134
-0.76400 -3.97926 2.29405 149 136 130
-0.77655 -3.98286 2.29539 149 137 128
-0.78908 -3.98646 2.29673 147 135 130
-0.80160 -3.99005 2.29807 145 134 131
-0.81410 -3.99363 2.29940 142 132 130
-0.29465 -3.82213 2.22635 178 173 171
-0.30770 -3.82589 2.22775 181 173 172
-0.32075 -3.82964 2.22916 180 172 168
-0.33377 -3.83339 2.23056 178 171 167
-0.34678 -3.83714 2.23197 176 171 165
-0.35978 -3.84088 2.23337 175 171 162
-0.37276 -3.84461 2.23477 175 171 160
-0.38572 -3.84834 2.23616 175 171 161
-0.39867 -3.85207 2.23756 175 170 160
-0.41160 -3.85579 2.23895 176 170 161
-0.42451 -3.85951 2.24034 175 170 163
-0.43741 -3.86322 2.24173 174 169 163
-0.45029 -3.86693 2.24312 173 169 162
-0.46316 -3.87063 2.24451 172 168 157
-0.47601 -3.87433 2.24589 172 167 160
-0.48884 -3.87803 2.24728 171 166 164
-0.50166 -3.88172 2.24866 171 166 156
-0.51446 -3.88540 2.25004 170 165 155
-0.52725 -3.88908 2.25142 169 162 157
-0.54002 -3.89276 2.25279 169 160 155
-0.55278 -3.89643 2.25417 167 159 153
-0.56552 -3.90010 2.25554 163 158 151
-0.57824 -3.90376 2.25691 163 157 146
-0.59095 -3.90742 2.25828 162 157 143
-0.60364 -3.91107 2.25965 161 156 147
-0.61632 -3.91472 2.26101 161 154 149
-0.62898 -3.91837 2.26238 161 153 149
-0.64163 -3.92201 2.26374 162 152 150
-0.65426 -3.92564 2.26510 162 152 148
-0.66687 -3.92927 2.26646 160 152 144
-0.67947 -3.93290 2.26782 159 150 142
-0.69205 -3.93652 2.26918 157 148 142
-0.70462 -3.94014 2.27053 156 147 139
-0.71718 -3.94375 2.27188 155 147 136
-0.72972 -3.94736 2.27324 154 146 132
-0.74224 -3.95097 2.27459 154 144 134
-0.75475 -3.95457 2.27593 154 142 136
-0.76724 -3.95816 2.27728 152 141 135
-0.77972 -3.96175 2.27862 151 140 133
-0.79218 -3.96534 2.27997 150 138 134
-0.80462 -3.96892 2.28131 148 136 134
-0.81706 -3.97250 2.28265 145 135 132
-0.32658 -3.80906 2.21250 178 174 170
-0.33953 -3.81280 2.21390 178 174 168
-0.35246 -3.81654 2.21531 179 173 167
-0.36538 -3.82027 2.21671 178 173 165
-0.37828 -3.82400 2.21811 178 173 163
-0.39116 -3.82772 2.21951 178 173 163
-0.40403 -3.83144 2.22091 178 171 161
-0.41688 -3.83515 2.22230 178 171 162
-0.42972 -3.83886 2.22370 178 171 165
-0.44254 -3.84257 2.22509 177 171 167
-0.45535 -3.84627 2.22648 177 170 167
-0.46814 -3.84996 2.22787 177 170 163
-0.48091 -3.85365 2.22926 175 169 162
-0.49367 -3.85734 2.23064 174 168 163
-0.50641 -3.86102 2.23203 174 167 159
-0.51914 -3.86470 2.23341 172 167 160
-0.53185 -3.86837 2.23479 171 166 161
-0.54455 -3.87204 2.23617 171 164 161
-0.55723 -3.87570 2.23755 171 163 160
-0.56989 -3.87936 2.23892 168 162 157
-0.58254 -3.88301 2.24029 167 161 153
-0.59518 -3.88666 2.24167 165 161 150
-0.60780 -3.89031 2.24304 164 159 151
-0.62040 -3.89395 2.24441 164 156 153
-0.63299 -3.89759 2.24577 164 154 153
-0.64556 -3.90122 2.24714 164 153 153
-0.65812 -3.90485 2.24850 164 153 152
-0.67066 -3.90847 2.24986 162 153 150
-0.68318 -3.91209 2.25122 161 154 151
-0.69569 -3.91570 2.25258 160 152 148
-0.70819 -3.91931 2.25394 159 151 144
-0.72067 -3.92292 2.25530 158 150 139
-0.73314 -3.92652 2.25665 156 148 135
-0.74559 -3.93012 2.25800 155 146 138
-0.75802 -3.93371 2.25935 155 145 142
-0.77044 -3.93730 2.26070 154 144 141
-0.78285 -3.94088 2.26205 154 143 140
-0.79524 -3.94446 2.26339 153 142 138
-0.80761 -3.94804 2.26474 151 140 137
-0.81997 -3.95161 2.26608 148 139 134
-0.35807 -3.79618 2.19884 179 175 169
-0.37091 -3.79990 2.20024 180 175 171
-0.38374 -3.80362 2.20165 180 175 169
-0.39654 -3.80733 2.20305 180 175 167
-0.40934 -3.81104 2.20445 180 173 166
-0.42211 -3.81475 2.20585 180 173 167
-0.43487 -3.81845 2.20724 179 172 168
-0.44762 -3.82214 2.20864 179 173 169
-0.46035 -3.82583 2.21003 179 172 169
-0.47306 -3.82952 2.21142 179 171 166
-0.48576 -3.83320 2.21281 178 171 167
-0.49845 -3.83688 2.21420 177 170 170
-0.51111 -3.84055 2.21558 176 169 167
-0.52377 -3.84422 2.21697 175 169 165
-0.53640 -3.84789 2.21835 173 168 165
-0.54903 -3.85155 2.21973 173 167 166
-0.56163 -3.85520 2.22111 173 167 167
-0.57422 -3.85885 2.22249 171 166 162
-0.58680 -3.86250 2.22387 171 165 157
-0.59936 -3.86614 2.22524 169 164 154
-0.61190 -3.86978 2.22661 168 162 154
-0.62443 -3.87341 2.22798 167 159 156
-0.63695 -3.87704 2.22935 167 157 155
-0.64945 -3.88067 2.23072 167 156 155
-0.66193 -3.88429 2.23209 166 155 155
-0.67440 -3.88790 2.23345 164 154 153
-0.68686 -3.89151 2.23481 162 155 155
-0.69929 -3.89512 2.23617 162 155 154
-0.71172 -3.89872 2.23753 163 155 150
-0.72413 -3.90232 2.23889 163 154 149
-0.73652 -3.90591 2.24025 160 152 145
-0.74890 -3.90950 2.24160 158 151 144
-0.76126 -3.91309 2.24296 157 149 145
-0.77361 -3.91667 2.24431 156 147 145
-0.78595 -3.92025 2.24566 155 146 144
-0.79827 -3.92382 2.24700 156 145 141
-0.81057 -3.92739 2.24835 154 144 140
-0.82286 -3.93095 2.24970 152 144 138
-0.83514 -3.93451 2.25104 149 142 129
-0.40186 -3.78718 2.18677 181 176 169
-0.41458 -3.79088 2.18817 181 175 168
-0.42728 -3.79457 2.18957 181 174 168
-0.43997 -3.79826 2.19097 180 175 167
-0.45264 -3.80195 2.19237 180 175 169
-0.46529 -3.80563 2.19376 180 174 167
-0.47793 -3.80931 2.19516 179 173 167
-0.49056 -3.81299 2.19655 178 174 169
-0.50317 -3.81666 2.19794 178 173 172
-0.51576 -3.82032 2.19933 179 171 169
-0.52834 -3.82398 2.20071 178 170 168
-0.54090 -3.82764 2.20210 177 170 167
-0.55345 -3.83129 2.20348 176 170 167
-0.56599 -3.83494 2.20486 175 169 167
-0.57850 -3.83858 2.20624 174 168 164
-0.59101 -3.84222 2.20762 173 168 159
-0.60349 -3.84585 2.20900 172 166 158
-0.61597 -3.84948 2.21037 172 166 160
-0.62842 -3.85311 2.21175 170 164 160
-0.64087 -3.85673 2.21312 170 162 158
-0.65329 -3.86034 2.21449 170 160 157
-0.66571 -3.86395 2.21585 169 158 155
-0.67810 -3.86756 2.21722 167 156 152
-0.69049 -3.87117 2.21859 165 155 153
-0.70285 -3.87476 2.21995 164 156 153
-0.71521 -3.87836 2.22131 163 156 151
-0.72754 -3.88195 2.22267 163 155 152
-0.73987 -3.88554 2.22403 163 155 151
-0.75218 -3.88912 2.22539 162 155 148
-0.76447 -3.89269 2.22674 161 154 147
-0.77675 -3.89627 2.22809 159 152 147
-0.78901 -3.89984 2.22945 158 149 145
-0.80126 -3.90340 2.23080 158 147 140
-0.81350 -3.90696 2.23214 157 146 140
-0.82572 -3.91052 2.23349 156 146 142
-0.83792 -3.91407 2.23484 154 145 137
-0.85011 -3.91762 2.23618 150 141 128
-0.43239 -3.77462 2.17348 181 177 172
-0.44501 -3.77831 2.17489 182 177 172
-0.45760 -3.78198 2.17628 182 177 171
-0.47018 -3.78566 2.17768 181 176 168
-0.48275 -3.78933 2.17908 180 176 169
-0.49530 -3.79299 2.18047 179 176 171
-0.50784 -3.79665 2.18186 180 175 171
-0.52036 -3.80031 2.18325 180 173 171
-0.53286 -3.80396 2.18464 180 172 173
-0.54536 -3.80761 2.18603 180 173 171
-0.55783 -3.81125 2.18741 179 172 168
-0.57029 -3.81489 2.18879 177 172 167
-0.58274 -3.81853 2.19018 176 170 167
-0.59517 -3.82216 2.19156 175 168 165
-0.60758 -3.82578 2.19294 175 168 164
-0.61998 -3.82941 2.19431 175 169 164
-0.63237 -3.83302 2.19569 173 168 162
-0.64474 -3.83664 2.19706 172 166 160
-0.65710 -3.84024 2.19843 172 164 158
-0.66944 -3.84385 2.19980 171 162 156
-0.68177 -3.84745 2.20117 169 160 154
-0.69408 -3.85104 2.20254 167 158 154
-0.70637 -3.85463 2.20390 166 158 154
-0.71866 -3.85822 2.20527 164 158 152
-0.73092 -3.86180 2.20663 163 157 153
-0.74318 -3.86538 2.20799 164 157 152
-0.75542 -3.86896 2.20935 164 157 151
-0.76764 -3.87253 2.21071 163 157 151
-0.77985 -3.87609 2.21206 163 156 149
-0.79204 -3.87965 2.21341 162 153 147
-0.80422 -3.88321 2.21477 162 151 142
-0.81639 -3.88676 2.21612 160 151 142
-0.82854 -3.89031 2.21747 159 149 145
-0.84068 -3.89385 2.21881 157 147 143
-0.85280 -3.89740 2.22016 156 146 138
-0.46251 -3.76224 2.16038 182 178 170
-0.47502 -3.76591 2.16178 182 178 170
-0.48751 -3.76957 2.16317 181 178 171
-0.49999 -3.77322 2.16457 181 177 172
-0.51246 -3.77688 2.16596 182 176 172
-0.52490 -3.78052 2.16735 181 174 173
-0.53734 -3.78417 2.16874 181 174 175
-0.54976 -3.78781 2.17013 181 175 175
-0.56216 -3.79144 2.17152 180 175 175
-0.57455 -3.79507 2.17290 179 175 173
-0.58692 -3.79870 2.17429 179 173 171
-0.59928 -3.80232 2.17567 178 170 169
-0.61163 -3.80594 2.17705 177 169 167
-0.62396 -3.80955 2.17843 177 169 166
-0.63627 -3.81316 2.17981 174 169 166
-0.64857 -3.81677 2.18118 173 169 167
-0.66086 -3.82037 2.18256 174 168 164
-0.67313 -3.82396 2.18393 174 166 161
-0.68539 -3.82755 2.18530 172 163 162
-0.69763 -3.83114 2.18667 170 162 159
-0.70986 -3.83473 2.18803 169 162 156
-0.72207 -3.83830 2.18940 167 161 155
-0.73427 -3.84188 2.19076 166 160 155
-0.74645 -3.84545 2.19213 166 159 154
-0.75862 -3.84902 2.19349 166 158 153
-0.77077 -3.85258 2.19485 165 157 151
-0.78291 -3.85614 2.19620 165 157 149
-0.79504 -3.85969 2.19756 166 156 149
-0.80715 -3.86324 2.19891 165 156 148
-0.81925 -3.86678 2.20027 164 156 149
-0.83133 -3.87032 2.20162 163 154 148
-0.84340 -3.87386 2.20297 162 152 146
-0.85546 -3.87739 2.20431 161 151 145
-0.49222 -3.75002 2.14744 180 178 175
-0.50463 -3.75367 2.14884 184 179 174
-0.51702 -3.75732 2.15024 185 177 174
-0.52940 -3.76096 2.15163 183 177 174
-0.54176 -3.76459 2.15302 182 176 173
-0.55411 -3.76822 2.15441 182 176 173
-0.56644 -3.77185 2.15580 181 175 172
-0.57876 -3.77547 2.15719 181 176 173
-0.59106 -3.77909 2.15857 181 175 173
-0.60335 -3.78270 2.15996 181 174 171
-0.61563 -3.78631 2.16134 180 172 167
-0.62789 -3.78992 2.16272 178 170 167
-0.64013 -3.79352 2.16410 176 169 169
-0.65236 -3.79712 2.16548 175 169 170
-0.66458 -3.80071 2.16685 175 169 168
-0.67678 -3.80430 2.16823 176 167 165
-0.68897 -3.80788 2.16960 175 166 166
-0.70114 -3.81146 2.17097 173 166 163
-0.71330 -3.81503 2.17234 172 166 159
-0.72544 -3.81861 2.17371 172 165 158
-0.73757 -3.82217 2.17507 171 163 158
-0.74969 -3.82573 2.17644 169 162 157
-0.76179 -3.82929 2.17780 169 160 155
-0.77388 -3.83285 2.17916 168 159 151
-0.78595 -3.83640 2.18052 168 158 150
-0.79801 -3.83994 2.18188 168 158 148
-0.81005 -3.84348 2.18323 168 158 150
-0.82208 -3.84702 2.18459 167 158 155
-0.83410 -3.85056 2.18594 167 157 153
-0.84610 -3.85408 2.18729 166 156 150
-0.85808 -3.85761 2.18864 165 156 150
-0.87006 -3.86113 2.18999 163 154 153
-0.52154 -3.73797 2.13469 183 179 178
-0.53384 -3.74160 2.13608 183 179 179
-0.54614 -3.74523 2.13747 182 178 175
-0.55841 -3.74885 2.13887 183 177 171
-0.57068 -3.75247 2.14026 183 176 167
-0.58292 -3.75608 2.14165 183 177 170
-0.59516 -3.75969 2.14303 183 176 175
-0.60738 -3.76330 2.14442 183 176 174
-0.61958 -3.76690 2.14580 182 176 171
-0.63177 -3.77050 2.14718 180 173 170
-0.64395 -3.77409 2.14856 179 171 170
-0.65611 -3.77768 2.14994 177 170 171
-0.66826 -3.78126 2.15132 177 169 169
-0.68039 -3.78484 2.15270 178 168 164
-0.69251 -3.78842 2.15407 177 168 164
-0.70461 -3.79199 2.15544 176 168 165
-0.71670 -3.79556 2.15681 176 169 165
-0.72878 -3.79912 2.15818 175 168 164
-0.74084 -3.80268 2.15955 175 167 162
-0.75289 -3.80623 2.16092 174 166 161
-0.76492 -3.80978 2.16228 172 164 161
-0.77694 -3.81333 2.16364 171 162 159
-0.78895 -3.81687 2.16500 170 161 156
-0.80094 -3.82041 2.16636 170 160 151
-0.81292 -3.82395 2.16772 169 159 150
-0.82488 -3.82748 2.16908 169 158 155
-0.83683 -3.83100 2.17043 169 158 156
-0.84876 -3.83452 2.17178 167 158 156
-0.86068 -3.83804 2.17314 167 159 156
-0.87259 -3.84155 2.17449 166 157 156
-0.88448 -3.84506 2.17583 165 155 153
-0.56267 -3.72969 2.12349 183 179 175
-0.57487 -3.73330 2.12488 184 179 172
-0.58704 -3.73691 2.12627 184 179 171
-0.59921 -3.74051 2.12766 183 178 172
-0.61136 -3.74411 2.12905 183 177 172
-0.62350 -3.74770 2.13043 183 177 172
-0.63562 -3.75129 2.13182 182 176 170
-0.64773 -3.75487 2.13320 181 175 168
