ply
format ascii 1.0
element face 0
property list uchar int vertex_indices
element vertex 1258
property float x
property float y
property float z
property uchar diffuse_red
property uchar diffuse_green
property uchar diffuse_blue
end_header
2.05921 -2.91694 -0.41658 140 146 146
2.05962 -2.92982 -0.40582 144 148 147
2.06003 -2.94269 -0.39507 139 144 143
2.06045 -2.95556 -0.38431 134 139 143
2.06086 -2.96843 -0.37356 139 145 151
2.06127 -2.98130 -0.36281 150 158 159
2.06168 -2.99416 -0.35207 147 153 157
2.06209 -3.00702 -0.34132 138 140 147
2.06251 -3.01987 -0.33058 140 142 141
2.06292 -3.03272 -0.31984 136 142 144
2.06333 -3.04557 -0.30911 131 137 145
2.06374 -3.05842 -0.29838 142 150 150
2.06415 -3.07126 -0.28765 153 164 162
2.06456 -3.08410 -0.27692 149 152 162
2.06497 -3.09693 -0.26620 148 150 146
2.06538 -3.10976 -0.25547 160 167 150
2.06579 -3.12259 -0.24476 149 152 146
2.06621 -3.13542 -0.23404 145 152 146
2.06662 -3.14824 -0.22333 156 170 159
2.06703 -3.16106 -0.21262 167 177 168
2.06744 -3.17387 -0.20191 163 165 163
2.06785 -3.18668 -0.19120 161 168 157
2.06826 -3.19949 -0.18050 155 164 157
2.06867 -3.21230 -0.16980 163 169 164
2.06908 -3.22510 -0.15910 166 167 168
2.06949 -3.23790 -0.14841 170 173 165
2.06990 -3.25070 -0.13772 170 170 163
2.07031 -3.26349 -0.12703 172 172 166
2.07071 -3.27628 -0.11634 175 178 171
2.07112 -3.28906 -0.10566 171 175 173
2.07153 -3.30185 -0.09498 167 172 171
2.07194 -3.31463 -0.08430 168 172 170
2.07235 -3.32740 -0.07363 166 172 169
2.07276 -3.34018 -0.06295 165 172 164
2.07317 -3.35295 -0.05228 165 168 161
2.07358 -3.36571 -0.04162 159 160 151
2.07399 -3.37848 -0.03095 152 155 146
2.07439 -3.39124 -0.02029 152 161 154
2.07480 -3.40399 -0.00963 145 155 155
2.03230 -2.81723 -0.50206 142 147 153
2.03271 -2.83009 -0.49132 143 146 144
2.03313 -2.84294 -0.48058 134 141 143
2.03354 -2.85578 -0.46985 129 137 150
2.03396 -2.86863 -0.45911 137 150 146
2.03437 -2.88147 -0.44839 145 150 141
2.03478 -2.89431 -0.43766 145 146 139
2.03520 -2.90714 -0.42693 132 136 144
2.03561 -2.91997 -0.41621 137 146 147
2.03603 -2.93280 -0.40550 141 151 145
2.03644 -2.94562 -0.39478 144 149 145
2.03685 -2.95845 -0.38407 144 142 148
2.03727 -2.97126 -0.37336 145 145 150
2.03768 -2.98408 -0.36265 149 153 153
2.03809 -2.99689 -0.35194 148 152 153
2.03851 -3.00970 -0.34124 146 147 150
2.03892 -3.02250 -0.33054 149 146 149
2.03933 -3.03530 -0.31985 148 142 143
2.03974 -3.04810 -0.30915 139 136 143
2.04016 -3.06090 -0.29846 145 153 157
2.04057 -3.07369 -0.28777 154 161 162
2.04098 -3.08648 -0.27709 149 150 159
2.04139 -3.09926 -0.26640 144 148 141
2.04181 -3.11205 -0.25572 152 158 145
2.04222 -3.12483 -0.24505 147 150 139
2.04263 -3.13760 -0.23437 139 141 142
2.04304 -3.15037 -0.22370 157 165 165
2.04345 -3.16314 -0.21303 165 172 164
2.04387 -3.17591 -0.20236 160 166 156
2.04428 -3.18867 -0.19170 159 170 157
2.04469 -3.20143 -0.18104 165 179 174
2.04510 -3.21419 -0.17038 179 185 179
2.04551 -3.22694 -0.15972 184 184 177
2.04592 -3.23969 -0.14907 174 167 164
2.04633 -3.25244 -0.13842 162 160 157
2.04674 -3.26518 -0.12777 162 161 160
2.04716 -3.27792 -0.11713 167 173 176
2.04757 -3.29066 -0.10648 164 169 176
2.04798 -3.30339 -0.09584 161 163 166
2.04839 -3.31612 -0.08521 164 168 165
2.04880 -3.32885 -0.07457 163 169 167
2.04921 -3.34157 -0.06394 164 169 171
2.04962 -3.35429 -0.05331 165 171 171
2.05003 -3.36701 -0.04268 158 167 155
2.05044 -3.37973 -0.03206 159 165 149
2.05085 -3.39244 -0.02144 160 170 163
2.05126 -3.40514 -0.01082 153 158 151
2.00845 -2.80783 -0.51206 130 140 145
2.00887 -2.82063 -0.50136 142 146 151
2.00929 -2.83344 -0.49066 139 149 143
2.00970 -2.84624 -0.47997 128 131 143
2.01012 -2.85904 -0.46927 127 131 147
2.01053 -2.87183 -0.45858 132 143 153
2.01095 -2.88462 -0.44789 147 152 155
2.01136 -2.89741 -0.43721 144 144 151
2.01178 -2.91020 -0.42653 136 131 144
2.01219 -2.92298 -0.41585 142 143 145
2.01261 -2.93576 -0.40517 141 152 146
2.01302 -2.94853 -0.39449 142 152 150
2.01344 -2.96130 -0.38382 144 148 154
2.01385 -2.97407 -0.37315 148 151 154
2.01427 -2.98684 -0.36249 153 157 158
2.01468 -2.99960 -0.35182 153 165 166
2.01510 -3.01236 -0.34116 149 162 164
2.01551 -3.02511 -0.33050 145 147 153
2.01593 -3.03787 -0.31985 147 145 150
2.01634 -3.05062 -0.30919 147 150 151
2.01675 -3.06336 -0.29854 148 158 160
2.01717 -3.07610 -0.28790 151 159 169
2.01758 -3.08884 -0.27725 150 160 167
2.01800 -3.10158 -0.26661 141 145 147
2.01841 -3.11431 -0.25597 149 153 152
2.01882 -3.12704 -0.24533 147 150 139
2.01924 -3.13977 -0.23470 144 143 141
2.01965 -3.15249 -0.22407 158 167 166
2.02006 -3.16521 -0.21344 164 170 163
2.02048 -3.17793 -0.20281 148 151 148
2.02089 -3.19064 -0.19219 147 153 153
2.02130 -3.20336 -0.18157 167 173 176
2.02171 -3.21606 -0.17095 172 172 178
2.02213 -3.22877 -0.16034 175 174 176
2.02254 -3.24147 -0.14972 172 170 167
2.02295 -3.25417 -0.13911 158 156 154
2.02336 -3.26686 -0.12851 154 156 156
2.02378 -3.27955 -0.11790 155 157 165
2.02419 -3.29224 -0.10730 157 159 166
2.02460 -3.30492 -0.09670 161 163 163
2.02501 -3.31761 -0.08610 164 166 162
2.02542 -3.33028 -0.07551 162 165 162
2.02584 -3.34296 -0.06492 158 162 163
2.02625 -3.35563 -0.05433 157 160 160
2.02666 -3.36830 -0.04374 153 157 150
2.02707 -3.38097 -0.03316 156 162 148
2.02748 -3.39363 -0.02258 159 167 159
2.02789 -3.40629 -0.01200 147 147 158
1.98437 -2.78573 -0.53266 138 140 142
1.98479 -2.79849 -0.52200 142 136 144
1.98520 -2.81125 -0.51133 132 136 147
1.98562 -2.82401 -0.50067 144 148 146
1.98604 -2.83677 -0.49001 138 129 137
1.98645 -2.84952 -0.47936 129 127 133
1.98687 -2.86227 -0.46871 132 132 140
1.98729 -2.87501 -0.45806 135 138 142
1.98771 -2.88775 -0.44741 135 137 139
1.98812 -2.90049 -0.43676 139 147 145
1.98854 -2.91323 -0.42612 137 124 121
1.98896 -2.92596 -0.41548 140 138 133
1.98937 -2.93869 -0.40485 141 148 145
1.98979 -2.95142 -0.39421 152 165 153
1.99020 -2.96414 -0.38358 150 159 158
1.99062 -2.97686 -0.37295 141 140 143
1.99104 -2.98958 -0.36233 147 147 143
1.99145 -3.00229 -0.35170 154 158 159
1.99187 -3.01500 -0.34108 148 153 154
1.99228 -3.02771 -0.33047 143 150 145
1.99270 -3.04041 -0.31985 150 160 153
1.99311 -3.05311 -0.30924 152 161 155
1.99353 -3.06581 -0.29863 149 158 158
1.99395 -3.07850 -0.28802 154 159 163
1.99436 -3.09119 -0.27742 150 153 155
1.99478 -3.10388 -0.26681 135 133 145
1.99519 -3.11656 -0.25622 144 150 150
1.99561 -3.12924 -0.24562 148 152 139
1.99602 -3.14192 -0.23503 149 153 143
1.99643 -3.15460 -0.22443 156 170 161
1.99685 -3.16727 -0.21385 163 173 157
1.99726 -3.17994 -0.20326 150 151 149
1.99768 -3.19260 -0.19268 147 151 153
1.99809 -3.20526 -0.18210 169 179 179
1.99851 -3.21792 -0.17152 168 171 176
1.99892 -3.23058 -0.16094 170 174 171
1.99933 -3.24323 -0.15037 167 172 165
1.99975 -3.25588 -0.13980 165 164 154
2.00016 -3.26853 -0.12923 161 166 153
2.00058 -3.28117 -0.11867 158 164 156
2.00099 -3.29381 -0.10811 160 162 156
2.00140 -3.30645 -0.09755 164 171 162
2.00182 -3.31908 -0.08699 165 170 160
2.00223 -3.33171 -0.07644 162 163 156
2.00264 -3.34434 -0.06589 157 163 160
2.00305 -3.35696 -0.05534 161 166 153
2.00347 -3.36958 -0.04479 166 173 164
2.00388 -3.38220 -0.03425 157 164 161
2.00429 -3.39481 -0.02371 161 169 166
2.00471 -3.40742 -0.01317 153 164 164
1.96087 -2.77651 -0.54248 143 143 133
1.96129 -2.78923 -0.53185 143 145 139
1.96171 -2.80194 -0.52123 149 150 140
1.96213 -2.81465 -0.51061 138 139 134
1.96255 -2.82736 -0.49999 136 135 129
1.96297 -2.84007 -0.48937 138 149 148
1.96547 -2.91624 -0.42572 150 157 148
1.96589 -2.92892 -0.41512 146 154 142
1.96631 -2.94160 -0.40453 139 149 146
1.96756 -2.97963 -0.37275 141 144 149
1.96798 -2.99229 -0.36217 150 153 153
1.96840 -3.00496 -0.35158 160 166 169
1.96881 -3.01762 -0.34100 148 155 157
1.96923 -3.03028 -0.33043 138 146 149
1.96965 -3.04293 -0.31985 148 156 158
1.97007 -3.05558 -0.30928 152 157 152
1.97048 -3.06823 -0.29871 148 151 147
1.97090 -3.08088 -0.28814 157 165 163
1.97131 -3.09352 -0.27758 155 152 158
1.97173 -3.10616 -0.26702 143 143 153
1.97215 -3.11880 -0.25646 159 162 154
1.97256 -3.13143 -0.24590 167 166 160
1.97298 -3.14406 -0.23535 158 157 151
1.97340 -3.15669 -0.22480 153 160 162
1.97381 -3.16931 -0.21425 164 175 160
1.97423 -3.18193 -0.20370 160 159 157
1.97464 -3.19455 -0.19316 153 160 156
1.97506 -3.20716 -0.18262 155 163 164
1.97547 -3.21977 -0.17208 149 158 164
1.97589 -3.23238 -0.16155 153 161 156
1.97630 -3.24498 -0.15102 158 165 160
1.97672 -3.25758 -0.14049 166 169 157
1.97713 -3.27018 -0.12996 161 160 152
1.97755 -3.28278 -0.11943 157 162 162
1.97796 -3.29537 -0.10891 160 170 166
1.97838 -3.30796 -0.09839 167 172 167
1.97879 -3.32054 -0.08788 172 172 167
1.97921 -3.33312 -0.07736 174 175 167
1.97962 -3.34570 -0.06685 176 180 176
1.98004 -3.35828 -0.05634 172 179 172
1.98045 -3.37085 -0.04584 163 167 164
1.98087 -3.38342 -0.03533 153 158 155
1.98128 -3.39599 -0.02483 160 167 156
1.98169 -3.40855 -0.01433 150 153 158
1.93797 -2.78003 -0.54164 145 144 146
1.93839 -2.79270 -0.53105 144 146 147
1.93881 -2.80537 -0.52047 142 155 150
1.93923 -2.81803 -0.50989 138 149 141
1.93965 -2.83069 -0.49931 138 140 140
1.94049 -2.85600 -0.47815 153 162 159
1.94091 -2.86865 -0.46758 165 174 172
1.94594 -3.02022 -0.34093 154 159 159
1.94635 -3.03283 -0.33039 151 155 157
1.94677 -3.04544 -0.31985 155 168 162
1.94719 -3.05804 -0.30932 163 177 170
1.94761 -3.07064 -0.29879 161 163 177
1.94803 -3.08324 -0.28827 163 171 177
1.94844 -3.09583 -0.27774 165 169 169
1.94886 -3.10842 -0.26722 151 155 158
1.94928 -3.12101 -0.25670 154 159 159
1.94970 -3.13360 -0.24618 159 168 163
1.95011 -3.14618 -0.23567 156 160 157
1.95053 -3.15876 -0.22516 141 156 159
1.95095 -3.17133 -0.21465 156 165 165
1.95136 -3.18390 -0.20414 168 170 167
1.95178 -3.19647 -0.19364 156 160 164
1.95220 -3.20904 -0.18314 154 157 160
1.95262 -3.22160 -0.17264 152 156 161
1.95303 -3.23416 -0.16215 164 170 158
1.95345 -3.24672 -0.15165 164 164 163
1.95387 -3.25927 -0.14116 164 168 167
1.95428 -3.27182 -0.13068 162 172 168
1.95470 -3.28437 -0.12019 161 174 174
1.95511 -3.29691 -0.10971 163 172 175
1.95553 -3.30945 -0.09923 172 176 173
1.95595 -3.32199 -0.08875 177 180 169
1.95636 -3.33453 -0.07828 175 178 165
1.95678 -3.34706 -0.06781 171 170 168
1.95719 -3.35959 -0.05734 162 156 167
1.95761 -3.37211 -0.04687 164 157 165
1.95802 -3.38463 -0.03641 165 163 156
1.95844 -3.39715 -0.02595 161 160 157
1.95885 -3.40967 -0.01549 162 168 159
1.91524 -2.78352 -0.54081 143 142 153
1.91566 -2.79614 -0.53026 144 151 152
1.91608 -2.80876 -0.51971 140 149 164
1.91650 -2.82138 -0.50917 134 139 149
1.91734 -2.84660 -0.48809 152 156 162
1.91777 -2.85921 -0.47756 155 160 168
1.91819 -2.87181 -0.46703 151 157 174
1.91861 -2.88441 -0.45650 157 164 170
1.91903 -2.89701 -0.44597 172 176 184
1.91945 -2.90960 -0.43545 170 173 173
1.92323 -3.02280 -0.34085 157 171 170
1.92365 -3.03536 -0.33035 154 164 167
1.92407 -3.04792 -0.31986 154 159 166
1.92449 -3.06048 -0.30936 169 177 178
1.92491 -3.07303 -0.29887 173 178 179
1.92533 -3.08558 -0.28839 160 160 168
1.92574 -3.09813 -0.27790 155 153 158
1.92616 -3.11067 -0.26742 153 157 156
1.92658 -3.12321 -0.25694 156 157 155
1.92700 -3.13575 -0.24646 151 155 147
1.92742 -3.14828 -0.23599 156 160 152
1.92784 -3.16081 -0.22552 150 158 147
1.92826 -3.17334 -0.21505 157 165 168
1.92867 -3.18587 -0.20458 158 165 172
1.92909 -3.19839 -0.19412 164 174 176
1.92951 -3.21091 -0.18366 160 169 158
1.92993 -3.22342 -0.17320 148 153 153
1.93035 -3.23593 -0.16274 156 166 168
1.93076 -3.24844 -0.15229 163 171 172
1.93118 -3.26095 -0.14184 168 174 173
1.93160 -3.27345 -0.13139 166 170 160
1.93202 -3.28595 -0.12094 164 168 163
1.93244 -3.29845 -0.11050 166 170 174
1.93285 -3.31094 -0.10006 164 170 173
1.93327 -3.32343 -0.08962 162 169 170
1.93369 -3.33592 -0.07919 166 173 171
1.93410 -3.34840 -0.06876 170 174 172
1.93452 -3.36088 -0.05832 172 171 170
1.93494 -3.37336 -0.04790 181 182 172
1.93535 -3.38584 -0.03747 184 185 170
1.93577 -3.39831 -0.02705 163 163 158
1.93619 -3.41078 -0.01663 155 163 160
1.89226 -2.77441 -0.55049 141 148 149
1.89268 -2.78699 -0.53998 147 151 154
1.89310 -2.79956 -0.52947 142 140 131
1.89352 -2.81214 -0.51896 143 136 125
1.89395 -2.82470 -0.50846 141 145 161
1.89437 -2.83727 -0.49796 160 168 171
1.89479 -2.84983 -0.48746 160 165 171
1.89521 -2.86239 -0.47697 165 172 177
1.89564 -2.87494 -0.46648 160 172 180
1.89606 -2.88750 -0.45599 158 168 168
1.89648 -2.90004 -0.44550 166 168 171
1.89690 -2.91259 -0.43501 166 171 171
1.89732 -2.92513 -0.42453 170 177 178
1.89774 -2.93767 -0.41405 166 176 183
1.89817 -2.95021 -0.40358 163 172 173
1.89859 -2.96274 -0.39310 164 167 168
1.89901 -2.97527 -0.38263 164 168 171
1.89943 -2.98780 -0.37216 170 180 178
1.89985 -3.00032 -0.36170 172 178 179
1.90027 -3.01285 -0.35123 162 167 173
1.90069 -3.02536 -0.34077 155 166 172
1.90111 -3.03788 -0.33031 158 169 173
1.90153 -3.05039 -0.31986 163 173 168
1.90195 -3.06290 -0.30940 168 173 164
1.90238 -3.07540 -0.29895 168 163 156
1.90280 -3.08791 -0.28851 159 160 167
1.90322 -3.10040 -0.27806 154 162 169
1.90364 -3.11290 -0.26762 161 168 173
1.90406 -3.12539 -0.25718 161 166 165
1.90448 -3.13788 -0.24674 143 153 149
1.90490 -3.15037 -0.23631 155 162 156
1.90532 -3.16285 -0.22587 146 150 158
1.90574 -3.17533 -0.21544 168 175 173
1.90615 -3.18781 -0.20502 164 161 168
1.90657 -3.20029 -0.19459 169 175 171
1.90699 -3.21276 -0.18417 158 163 156
1.90741 -3.22523 -0.17375 152 155 154
1.90783 -3.23769 -0.16333 154 156 159
1.90825 -3.25015 -0.15292 162 162 163
1.90867 -3.26261 -0.14251 165 169 170
1.90909 -3.27507 -0.13210 166 171 166
1.90951 -3.28752 -0.12169 167 170 168
1.90993 -3.29997 -0.11129 170 171 175
1.91034 -3.31242 -0.10089 166 169 168
1.91076 -3.32486 -0.09049 161 164 155
1.91118 -3.33730 -0.08009 166 168 162
1.91160 -3.34974 -0.06970 171 174 177
1.91202 -3.36217 -0.05931 171 176 172
1.91244 -3.37460 -0.04892 180 190 177
1.91285 -3.38703 -0.03853 186 196 176
1.91369 -3.41188 -0.01777 161 161 151
1.86859 -2.74030 -0.58105 145 149 157
1.86902 -2.75283 -0.57057 147 153 156
1.86944 -2.76537 -0.56010 145 152 148
1.86986 -2.77790 -0.54962 132 130 145
1.87029 -2.79043 -0.53915 133 138 157
1.87071 -2.80296 -0.52868 133 146 136
1.87114 -2.81548 -0.51822 143 151 139
1.87156 -2.82800 -0.50776 139 145 150
1.87198 -2.84052 -0.49729 146 153 151
1.87241 -2.85303 -0.48684 147 150 150
1.87283 -2.86555 -0.47638 158 162 164
1.87325 -2.87805 -0.46593 149 156 167
1.87368 -2.89056 -0.45548 149 158 160
1.87410 -2.90306 -0.44503 167 174 172
1.87452 -2.91556 -0.43459 164 172 171
1.87495 -2.92805 -0.42414 162 171 169
1.87537 -2.94055 -0.41370 157 171 162
1.87579 -2.95303 -0.40327 159 172 170
1.87621 -2.96552 -0.39283 168 175 179
1.87664 -2.97800 -0.38240 172 176 178
1.87706 -2.99048 -0.37197 170 173 167
1.87748 -3.00296 -0.36154 172 177 171
1.87790 -3.01543 -0.35112 168 174 177
1.87832 -3.02791 -0.34070 160 164 169
1.87875 -3.04037 -0.33028 157 165 161
1.87917 -3.05284 -0.31986 160 171 162
1.87959 -3.06530 -0.30945 166 179 173
1.88001 -3.07776 -0.29903 171 172 166
1.88043 -3.09021 -0.28863 166 171 169
1.88086 -3.10266 -0.27822 163 172 173
1.88128 -3.11511 -0.26782 173 182 172
1.88170 -3.12756 -0.25741 167 170 165
1.88212 -3.14000 -0.24702 157 154 149
1.88254 -3.15244 -0.23662 154 159 157
1.88296 -3.16488 -0.22623 138 150 159
1.88338 -3.17731 -0.21583 152 158 160
1.88380 -3.18974 -0.20545 161 165 168
1.88422 -3.20217 -0.19506 170 180 177
1.88464 -3.21460 -0.18468 159 166 163
1.88506 -3.22702 -0.17430 156 163 161
1.88548 -3.23944 -0.16392 157 164 167
1.88590 -3.25185 -0.15354 165 172 178
1.88632 -3.26426 -0.14317 163 171 176
1.88674 -3.27667 -0.13280 163 171 168
1.88716 -3.28908 -0.12243 163 170 167
1.88758 -3.30148 -0.11207 169 172 168
1.88800 -3.31388 -0.10170 168 169 165
1.88842 -3.32628 -0.09134 161 165 159
1.88884 -3.33867 -0.08099 165 169 160
1.88926 -3.35106 -0.07063 168 172 166
1.88968 -3.36345 -0.06028 162 169 163
1.89010 -3.37584 -0.04993 163 170 175
1.89052 -3.38822 -0.03958 175 180 184
1.89094 -3.40060 -0.02924 174 174 170
1.89178 -3.42534 -0.00855 165 162 157
1.84551 -2.71891 -0.60097 143 147 152
1.84594 -2.73141 -0.59052 153 152 151
1.84636 -2.74390 -0.58008 151 142 142
1.84679 -2.75639 -0.56964 147 155 157
1.84721 -2.76888 -0.55920 149 153 159
1.84764 -2.78137 -0.54877 150 156 158
1.84806 -2.79385 -0.53834 148 156 156
1.84849 -2.80633 -0.52791 128 132 139
1.84891 -2.81880 -0.51748 142 155 151
1.84934 -2.83128 -0.50706 153 157 153
1.84976 -2.84375 -0.49663 156 165 160
1.85019 -2.85621 -0.48622 145 155 157
1.85061 -2.86868 -0.47580 159 166 164
1.85104 -2.88114 -0.46539 158 163 164
1.85146 -2.89360 -0.45497 151 159 166
1.85189 -2.90605 -0.44457 160 166 171
1.85231 -2.91850 -0.43416 160 166 166
1.85274 -2.93095 -0.42376 162 175 172
1.85316 -2.94340 -0.41336 163 174 165
1.85358 -2.95584 -0.40296 163 172 168
1.85401 -2.96828 -0.39256 169 180 180
1.85443 -2.98071 -0.38217 174 183 176
1.85485 -2.99315 -0.37178 169 176 167
1.85528 -3.00558 -0.36139 172 177 173
1.85570 -3.01801 -0.35100 174 176 179
1.85612 -3.03043 -0.34062 163 167 173
1.85655 -3.04285 -0.33024 159 172 168
1.85697 -3.05527 -0.31986 163 175 166
1.85739 -3.06768 -0.30949 164 170 171
1.85782 -3.08009 -0.29911 166 181 178
1.85824 -3.09250 -0.28874 165 175 170
1.85866 -3.10491 -0.27838 166 171 172
1.85908 -3.11731 -0.26801 171 179 170
1.85951 -3.12971 -0.25765 162 166 169
1.85993 -3.14211 -0.24729 162 165 160
1.86035 -3.15450 -0.23693 161 160 143
1.86077 -3.16689 -0.22658 159 162 149
1.86120 -3.17928 -0.21622 143 151 153
1.86162 -3.19166 -0.20587 156 168 170
1.86204 -3.20404 -0.19553 161 171 171
1.86246 -3.21642 -0.18518 157 164 166
1.86288 -3.22880 -0.17484 161 166 163
1.86330 -3.24117 -0.16450 164 169 165
1.86372 -3.25354 -0.15416 166 169 167
1.86415 -3.26590 -0.14383 169 172 172
1.86457 -3.27827 -0.13350 172 177 169
1.86499 -3.29063 -0.12317 162 165 160
1.86541 -3.30298 -0.11284 161 168 158
1.86583 -3.31534 -0.10252 165 175 167
1.86625 -3.32769 -0.09219 164 171 170
1.86667 -3.34003 -0.08188 169 172 163
1.86709 -3.35238 -0.07156 170 169 157
1.86751 -3.36472 -0.06124 162 164 155
1.86793 -3.37706 -0.05093 157 162 162
1.86835 -3.38939 -0.04062 156 162 165
1.86877 -3.40173 -0.03032 170 178 174
1.86919 -3.41406 -0.02001 177 175 176
1.82345 -2.72258 -0.59992 143 146 143
1.82387 -2.73503 -0.58952 153 155 145
1.82430 -2.74748 -0.57911 152 145 135
1.82473 -2.75992 -0.56871 143 143 145
1.82515 -2.77237 -0.55831 134 141 143
1.82558 -2.78480 -0.54792 142 149 152
1.82601 -2.79724 -0.53753 148 150 150
1.82643 -2.80967 -0.52714 135 132 149
1.82686 -2.82210 -0.51675 140 153 157
1.82729 -2.83453 -0.50636 154 162 163
1.82771 -2.84695 -0.49598 155 159 176
1.82814 -2.85937 -0.48560 153 160 173
1.82856 -2.87179 -0.47522 157 166 173
1.82899 -2.88420 -0.46485 170 176 180
1.82941 -2.89661 -0.45447 163 166 168
1.82984 -2.90902 -0.44410 160 167 165
1.83026 -2.92143 -0.43374 168 173 180
1.83069 -2.93383 -0.42337 169 174 179
1.83112 -2.94623 -0.41301 165 169 172
1.83154 -2.95862 -0.40265 162 165 167
1.83197 -2.97102 -0.39229 159 164 172
1.83239 -2.98341 -0.38194 168 172 170
1.83281 -2.99579 -0.37159 174 180 172
1.83324 -3.00818 -0.36124 175 178 177
1.83366 -3.02056 -0.35089 174 175 174
1.83409 -3.03293 -0.34054 164 170 171
1.83451 -3.04531 -0.33020 160 170 171
1.83494 -3.05768 -0.31986 167 173 168
1.83536 -3.07005 -0.30953 162 159 164
1.83578 -3.08241 -0.29919 162 169 174
1.83621 -3.09478 -0.28886 159 171 177
1.83663 -3.10713 -0.27853 174 183 172
1.83706 -3.11949 -0.26821 177 183 162
1.83748 -3.13184 -0.25788 161 158 164
1.83790 -3.14419 -0.24756 171 179 178
1.83833 -3.15654 -0.23724 165 171 158
1.83875 -3.16889 -0.22692 162 170 153
1.83917 -3.18123 -0.21661 160 166 153
1.83960 -3.19356 -0.20630 166 170 164
1.84002 -3.20590 -0.19599 166 173 164
1.84044 -3.21823 -0.18568 156 161 156
1.84086 -3.23056 -0.17538 159 165 158
1.84129 -3.24289 -0.16508 167 176 173
1.84171 -3.25521 -0.15478 170 180 178
1.84213 -3.26753 -0.14448 176 184 178
1.84255 -3.27985 -0.13419 178 180 176
1.84298 -3.29216 -0.12390 175 178 171
1.84340 -3.30447 -0.11361 165 170 163
1.84382 -3.31678 -0.10332 157 161 160
1.84424 -3.32908 -0.09304 159 164 167
1.84466 -3.34139 -0.08276 163 168 171
1.84509 -3.35368 -0.07248 166 172 168
1.84551 -3.36598 -0.06220 167 175 170
1.84593 -3.37827 -0.05193 165 167 162
1.84635 -3.39056 -0.04166 161 161 154
1.84677 -3.40285 -0.03139 162 160 171
1.84719 -3.41513 -0.02112 176 174 176
1.80155 -2.72623 -0.59888 137 140 149
1.80197 -2.73863 -0.58852 136 147 151
1.80240 -2.75103 -0.57815 148 151 145
1.80283 -2.76343 -0.56779 142 144 144
1.80326 -2.77582 -0.55743 137 140 142
1.80369 -2.78822 -0.54707 133 135 145
1.80411 -2.80061 -0.53672 149 150 148
1.80454 -2.81299 -0.52637 144 147 151
1.80497 -2.82537 -0.51602 143 155 155
1.80539 -2.83775 -0.50567 143 156 162
1.80582 -2.85013 -0.49533 130 144 159
1.80625 -2.86251 -0.48499 147 154 173
1.80668 -2.87488 -0.47465 157 161 169
1.80710 -2.88724 -0.46431 158 162 167
1.80753 -2.89961 -0.45398 164 172 171
1.80796 -2.91197 -0.44365 168 170 165
1.80838 -2.92433 -0.43332 167 170 172
1.80881 -2.93668 -0.42299 164 172 172
1.80923 -2.94904 -0.41267 162 168 171
1.80966 -2.96139 -0.40235 159 163 166
1.81009 -2.97373 -0.39203 156 162 168
1.81051 -2.98608 -0.38171 167 176 177
1.81094 -2.99842 -0.37140 179 192 177
1.81136 -3.01075 -0.36109 182 193 179
1.81179 -3.02309 -0.35078 177 185 181
1.81221 -3.03542 -0.34047 165 174 177
1.81264 -3.04775 -0.33017 167 174 181
1.81307 -3.06007 -0.31987 177 183 181
1.81349 -3.07240 -0.30957 175 173 176
1.81392 -3.08472 -0.29927 177 182 179
1.81434 -3.09703 -0.28898 174 184 177
1.81477 -3.10935 -0.27869 175 183 172
1.81519 -3.12166 -0.26840 173 175 163
1.81562 -3.13396 -0.25811 165 168 162
1.81604 -3.14627 -0.24783 167 174 169
1.81646 -3.15857 -0.23755 157 164 154
1.81689 -3.17087 -0.22727 162 173 158
1.81731 -3.18316 -0.21699 161 167 151
1.81774 -3.19545 -0.20672 151 156 155
1.81816 -3.20774 -0.19645 158 167 160
1.81858 -3.22003 -0.18618 161 163 157
1.81901 -3.23231 -0.17591 162 164 161
1.81943 -3.24459 -0.16565 169 172 175
1.81986 -3.25687 -0.15539 174 183 185
1.82028 -3.26914 -0.14513 168 176 170
1.82070 -3.28142 -0.13488 170 177 173
1.82113 -3.29368 -0.12462 171 177 179
1.82155 -3.30595 -0.11437 168 175 169
1.82197 -3.31821 -0.10412 164 170 163
1.82240 -3.33047 -0.09388 163 168 174
1.82282 -3.34273 -0.08363 163 170 178
1.82324 -3.35498 -0.07339 167 171 174
1.82366 -3.36723 -0.06315 176 181 182
1.82409 -3.37948 -0.05292 181 185 179
1.82451 -3.39172 -0.04269 185 188 182
1.82493 -3.40396 -0.03245 171 170 176
1.77895 -2.70512 -0.61852 128 136 139
1.77981 -2.72984 -0.59786 146 150 151
1.78024 -2.74220 -0.58753 147 152 153
1.78067 -2.75456 -0.57720 146 149 144
1.78109 -2.76691 -0.56688 143 146 138
1.78152 -2.77926 -0.55656 144 150 139
1.78195 -2.79160 -0.54624 134 138 130
1.78238 -2.80395 -0.53592 149 157 143
1.78281 -2.81629 -0.52561 144 150 144
1.78324 -2.82862 -0.51530 145 139 142
1.78367 -2.84096 -0.50499 158 167 167
1.78409 -2.85329 -0.49468 156 165 167
1.78452 -2.86562 -0.48438 159 163 172
1.78495 -2.87794 -0.47408 164 169 177
1.78538 -2.89026 -0.46378 152 161 164
1.78580 -2.90258 -0.45348 164 172 170
1.78623 -2.91490 -0.44319 176 177 167
1.78666 -2.92721 -0.43290 172 173 167
1.78709 -2.93952 -0.42261 164 169 168
1.78751 -2.95183 -0.41233 163 171 171
1.78794 -2.96413 -0.40204 157 166 162
1.78837 -2.97643 -0.39176 153 163 164
1.78880 -2.98873 -0.38148 168 175 179
1.78922 -3.00102 -0.37121 179 183 182
1.78965 -3.01331 -0.36094 182 185 180
1.79008 -3.02560 -0.35066 178 180 181
1.79050 -3.03789 -0.34040 168 172 182
1.79093 -3.05017 -0.33013 170 176 184
1.79136 -3.06245 -0.31987 174 178 180
1.79178 -3.07473 -0.30961 174 182 179
1.79221 -3.08700 -0.29935 178 186 185
1.79263 -3.09927 -0.28909 173 175 173
1.79306 -3.11154 -0.27884 167 171 171
1.79349 -3.12380 -0.26859 175 183 183
1.79391 -3.13607 -0.25834 178 183 172
1.79434 -3.14832 -0.24810 173 173 162
1.79476 -3.16058 -0.23785 156 163 158
1.79519 -3.17283 -0.22761 169 181 166
1.79561 -3.18508 -0.21737 166 173 164
1.79604 -3.19733 -0.20714 150 152 155
1.79646 -3.20957 -0.19690 161 167 158
1.79689 -3.22181 -0.18667 177 184 178
1.79731 -3.23405 -0.17645 179 182 174
1.79774 -3.24629 -0.16622 176 181 172
1.79816 -3.25852 -0.15600 175 181 172
1.79859 -3.27075 -0.14578 164 173 167
1.79901 -3.28297 -0.13556 170 181 175
1.79944 -3.29520 -0.12534 169 174 172
1.79986 -3.30742 -0.11513 170 175 167
1.80029 -3.31963 -0.10492 171 176 172
1.80071 -3.33185 -0.09471 166 167 176
1.80113 -3.34406 -0.08450 163 169 172
1.80156 -3.35627 -0.07430 168 175 175
1.80198 -3.36847 -0.06410 180 183 186
1.80537 -3.46601 0.01742 171 171 168
1.80579 -3.47818 0.02760 166 168 166
1.80621 -3.49036 0.03777 178 180 172
1.75694 -2.69648 -0.62772 118 125 126
1.75823 -2.73344 -0.59683 152 153 154
1.75866 -2.74575 -0.58654 155 156 159
1.75909 -2.75806 -0.57626 147 149 151
1.75952 -2.77036 -0.56597 142 148 145
1.75995 -2.78267 -0.55569 147 154 148
1.76038 -2.79497 -0.54541 150 152 143
1.76081 -2.80726 -0.53513 155 162 156
1.76124 -2.81956 -0.52485 155 160 155
1.76167 -2.83185 -0.51458 156 160 150
1.76210 -2.84414 -0.50431 160 159 160
1.76253 -2.85642 -0.49404 165 170 159
1.76295 -2.86870 -0.48378 164 162 163
1.76338 -2.88098 -0.47351 164 168 169
1.76381 -2.89326 -0.46325 160 169 165
1.76424 -2.90553 -0.45300 165 174 171
1.76467 -2.91780 -0.44274 172 180 174
1.76510 -2.93007 -0.43249 169 173 172
1.76553 -2.94233 -0.42224 166 167 172
1.76595 -2.95459 -0.41199 169 176 169
1.76638 -2.96685 -0.40174 156 167 158
1.76681 -2.97911 -0.39150 150 162 164
1.76724 -2.99136 -0.38126 163 171 180
1.76767 -3.00361 -0.37102 172 177 187
1.76809 -3.01585 -0.36079 177 183 184
1.76852 -3.02810 -0.35055 179 185 179
1.76895 -3.04034 -0.34032 179 183 177
1.76938 -3.05258 -0.33010 181 185 177
1.76981 -3.06481 -0.31987 175 181 178
1.77023 -3.07704 -0.30965 171 181 180
1.77066 -3.08927 -0.29943 179 185 180
1.77109 -3.10150 -0.28921 175 176 173
1.77151 -3.11372 -0.27899 164 169 179
1.77194 -3.12594 -0.26878 174 187 196
1.77237 -3.13815 -0.25857 182 194 190
1.77279 -3.15037 -0.24836 179 185 174
1.77322 -3.16258 -0.23815 170 174 162
1.77365 -3.17478 -0.22795 161 165 162
1.77407 -3.18699 -0.21775 149 160 158
1.77450 -3.19919 -0.20755 149 157 154
1.77493 -3.21139 -0.19736 165 177 173
1.77535 -3.22359 -0.18716 179 188 187
1.77578 -3.23578 -0.17697 181 185 179
1.77620 -3.24797 -0.16678 169 170 166
1.77663 -3.26016 -0.15660 161 162 157
1.77706 -3.27234 -0.14642 164 170 164
1.77748 -3.28452 -0.13623 170 176 172
1.77791 -3.29670 -0.12606 168 171 170
1.77833 -3.30887 -0.11588 171 176 173
1.77876 -3.32105 -0.10571 173 178 174
1.77918 -3.33321 -0.09554 167 167 165
1.77961 -3.34538 -0.08537 161 164 162
1.78003 -3.35754 -0.07520 164 173 175
1.78046 -3.36970 -0.06504 175 178 179
1.78088 -3.38186 -0.05488 172 176 176
1.78131 -3.39402 -0.04472 170 174 186
1.78216 -3.41832 -0.02441 177 174 163
1.78258 -3.43046 -0.01426 172 161 138
1.78300 -3.44260 -0.00411 172 178 173
1.78343 -3.45474 0.00604 166 170 167
1.78385 -3.46688 0.01618 156 162 163
1.78428 -3.47901 0.02633 167 171 169
1.78470 -3.49115 0.03646 177 178 176
1.78512 -3.50327 0.04660 186 180 170
1.73508 -2.68791 -0.63685 123 131 131
1.73681 -2.73700 -0.59582 152 156 152
1.73724 -2.74927 -0.58557 157 157 154
1.73767 -2.76153 -0.57532 150 148 154
1.73810 -2.77379 -0.56507 143 150 151
1.73853 -2.78605 -0.55482 150 152 154
1.73896 -2.79830 -0.54458 155 161 158
1.73939 -2.81055 -0.53434 158 164 163
1.73982 -2.82280 -0.52410 169 172 169
1.74025 -2.83505 -0.51387 162 169 171
1.74068 -2.84729 -0.50364 160 167 168
1.74111 -2.85953 -0.49341 170 174 164
1.74154 -2.87177 -0.48318 166 163 164
1.74197 -2.88400 -0.47295 153 155 163
1.74240 -2.89623 -0.46273 158 164 160
1.74283 -2.90846 -0.45251 158 168 165
1.74326 -2.92068 -0.44229 163 175 168
1.74369 -2.93291 -0.43208 165 168 170
1.74412 -2.94513 -0.42186 171 175 174
1.74455 -2.95734 -0.41165 175 183 170
1.74498 -2.96955 -0.40145 164 173 164
1.74541 -2.98176 -0.39124 161 168 167
1.74584 -2.99397 -0.38104 167 175 180
1.74627 -3.00618 -0.37084 170 177 183
1.74670 -3.01838 -0.36064 172 178 179
1.74713 -3.03057 -0.35044 172 178 177
1.74756 -3.04277 -0.34025 166 170 170
1.74798 -3.05496 -0.33006 166 169 165
1.74841 -3.06715 -0.31987 172 177 175
1.74884 -3.07934 -0.30969 174 181 181
1.74927 -3.09152 -0.29950 177 180 173
1.74970 -3.10370 -0.28932 173 174 167
1.75013 -3.11588 -0.27914 169 178 179
1.75055 -3.12805 -0.26897 171 180 189
1.75098 -3.14023 -0.25879 174 179 182
1.75141 -3.15239 -0.24862 174 181 173
1.75184 -3.16456 -0.23846 173 174 162
1.75226 -3.17672 -0.22829 157 162 162
1.75269 -3.18888 -0.21813 152 160 154
1.75312 -3.20104 -0.20796 164 174 156
1.75355 -3.21319 -0.19781 168 175 178
1.75397 -3.22534 -0.18765 173 181 184
1.75440 -3.23749 -0.17750 174 178 172
1.75483 -3.24964 -0.16735 160 151 145
1.75525 -3.26178 -0.15720 160 158 154
1.75568 -3.27392 -0.14705 172 177 168
1.75611 -3.28606 -0.13691 174 178 172
1.75653 -3.29819 -0.12676 170 175 175
1.75696 -3.31032 -0.11663 173 179 179
1.75739 -3.32245 -0.10649 174 176 176
1.75781 -3.33457 -0.09636 166 168 162
1.75824 -3.34669 -0.08622 161 164 159
1.75866 -3.35881 -0.07609 164 167 170
1.75909 -3.37093 -0.06597 171 172 170
1.75952 -3.38304 -0.05584 168 168 168
1.75994 -3.39515 -0.04572 162 162 171
1.76037 -3.40726 -0.03560 175 174 171
1.76079 -3.41936 -0.02549 179 180 159
1.76122 -3.43146 -0.01537 174 173 152
1.76164 -3.44356 -0.00526 175 181 180
1.76207 -3.45566 0.00485 174 179 173
1.76249 -3.46775 0.01496 173 178 174
1.76292 -3.47984 0.02506 178 180 179
1.76334 -3.49193 0.03517 177 180 175
1.76377 -3.50401 0.04527 181 181 171
1.76419 -3.51609 0.05536 166 160 167
1.76462 -3.52817 0.06546 182 181 186
1.76504 -3.54024 0.07555 171 171 175
1.71338 -2.67939 -0.64592 133 138 129
1.71381 -2.69163 -0.63570 137 143 135
1.71554 -2.74054 -0.59481 143 147 148
1.71598 -2.75276 -0.58460 152 155 147
1.71641 -2.76498 -0.57439 151 158 157
1.71684 -2.77719 -0.56418 140 152 149
1.71727 -2.78941 -0.55397 148 154 147
1.71770 -2.80162 -0.54376 157 156 153
1.71814 -2.81382 -0.53356 163 169 166
1.71857 -2.82603 -0.52336 168 171 164
1.71900 -2.83823 -0.51316 143 159 152
1.71943 -2.85042 -0.50297 152 166 161
1.71986 -2.86262 -0.49277 165 167 165
1.72029 -2.87481 -0.48258 164 163 171
1.72072 -2.88700 -0.47240 153 156 164
1.72115 -2.89918 -0.46221 160 166 166
1.72158 -2.91137 -0.45203 167 178 176
1.72202 -2.92355 -0.44185 165 169 169
1.72245 -2.93572 -0.43167 164 167 172
1.72288 -2.94790 -0.42149 178 187 180
1.72331 -2.96007 -0.41132 181 183 174
1.72374 -2.97224 -0.40115 166 169 170
1.72417 -2.98440 -0.39098 166 173 171
1.72460 -2.99656 -0.38082 166 174 170
1.72503 -3.00872 -0.37065 165 170 173
1.72546 -3.02088 -0.36049 170 173 178
1.72589 -3.03303 -0.35033 173 177 177
1.72632 -3.04518 -0.34018 169 171 170
1.72675 -3.05733 -0.33002 169 169 169
1.72718 -3.06948 -0.31987 177 182 183
1.72760 -3.08162 -0.30972 178 185 189
1.72803 -3.09376 -0.29958 173 180 179
1.72846 -3.10589 -0.28943 169 178 175
1.72889 -3.11803 -0.27929 170 178 178
1.72932 -3.13016 -0.26915 160 165 177
1.72975 -3.14228 -0.25902 166 167 166
1.73018 -3.15441 -0.24888 171 182 174
1.73061 -3.16653 -0.23875 171 168 159
1.73104 -3.17865 -0.22862 167 175 164
1.73146 -3.19076 -0.21850 164 172 163
1.73189 -3.20287 -0.20837 170 181 169
1.73232 -3.21498 -0.19825 163 165 177
1.73275 -3.22709 -0.18813 166 177 184
1.73318 -3.23919 -0.17802 170 177 174
1.73360 -3.25129 -0.16790 162 159 156
1.73403 -3.26339 -0.15779 173 178 169
1.73446 -3.27549 -0.14768 185 188 175
1.73489 -3.28758 -0.13757 180 182 176
1.73532 -3.29967 -0.12747 171 175 178
1.73574 -3.31175 -0.11737 172 176 178
1.73617 -3.32384 -0.10727 173 175 175
1.73660 -3.33592 -0.09717 171 173 166
1.73702 -3.34800 -0.08707 168 173 163
1.73745 -3.36007 -0.07698 166 169 166
1.73788 -3.37214 -0.06689 170 171 165
1.73830 -3.38421 -0.05680 172 171 163
1.73873 -3.39628 -0.04672 171 172 163
1.73916 -3.40834 -0.03664 181 187 171
1.73958 -3.42040 -0.02656 182 184 170
1.74001 -3.43246 -0.01648 176 174 174
1.74044 -3.44451 -0.00640 175 181 184
1.74086 -3.45656 0.00367 177 185 177
1.74129 -3.46861 0.01374 180 185 174
1.74172 -3.48066 0.02381 182 182 173
1.74214 -3.49270 0.03388 169 172 172
1.74257 -3.50474 0.04394 167 176 168
1.74299 -3.51678 0.05400 163 163 166
1.74342 -3.52881 0.06406 179 179 184
1.74384 -3.54084 0.07411 172 175 178
1.69010 -2.62213 -0.69573 137 141 137
1.69053 -2.63434 -0.68552 137 136 135
1.69097 -2.64654 -0.67532 128 132 136
1.69140 -2.65874 -0.66513 130 139 136
1.69183 -2.67093 -0.65493 132 138 133
1.69227 -2.68313 -0.64474 140 147 139
1.69270 -2.69532 -0.63455 146 157 143
1.69313 -2.70751 -0.62436 142 149 137
1.69443 -2.74405 -0.59381 139 146 146
1.69487 -2.75623 -0.58364 147 155 147
1.69530 -2.76840 -0.57346 146 157 155
1.69573 -2.78057 -0.56329 141 151 143
1.69617 -2.79274 -0.55312 141 149 149
1.69660 -2.80491 -0.54295 159 163 165
1.69703 -2.81707 -0.53278 168 174 166
1.69746 -2.82923 -0.52262 166 172 161
1.69790 -2.84138 -0.51246 148 166 151
1.69833 -2.85353 -0.50230 163 172 164
1.69876 -2.86568 -0.49215 165 165 167
1.69919 -2.87783 -0.48199 170 168 170
1.69963 -2.88997 -0.47184 166 170 164
1.70006 -2.90212 -0.46170 168 174 168
1.70049 -2.91425 -0.45155 172 179 176
1.70092 -2.92639 -0.44141 173 172 172
1.70135 -2.93852 -0.43126 173 176 176
1.70178 -2.95065 -0.42113 179 187 183
1.70222 -2.96278 -0.41099 176 179 177
1.70265 -2.97490 -0.40086 168 172 173
1.70308 -2.98702 -0.39073 172 180 178
1.70351 -2.99914 -0.38060 176 184 181
1.70394 -3.01125 -0.37047 173 177 183
1.70437 -3.02337 -0.36035 171 174 184
1.70480 -3.03548 -0.35023 171 178 178
1.70523 -3.04758 -0.34011 172 177 173
1.70566 -3.05968 -0.32999 172 173 177
1.70609 -3.07178 -0.31988 175 180 185
1.70652 -3.08388 -0.30976 177 179 189
1.70695 -3.09598 -0.29965 175 181 187
1.70738 -3.10807 -0.28955 172 186 185
1.70781 -3.12016 -0.27944 171 179 181
1.70824 -3.13224 -0.26934 165 171 178
1.70867 -3.14432 -0.25924 172 178 174
1.70910 -3.15640 -0.24914 172 181 182
1.70953 -3.16848 -0.23905 169 167 166
1.70996 -3.18056 -0.22896 170 186 176
1.71039 -3.19263 -0.21887 173 184 179
1.71082 -3.20470 -0.20878 172 184 183
1.71125 -3.21676 -0.19869 164 167 168
1.71168 -3.22882 -0.18861 161 168 172
1.71211 -3.24088 -0.17853 173 181 180
1.71254 -3.25294 -0.16845 175 177 175
1.71297 -3.26499 -0.15838 178 178 178
1.71339 -3.27704 -0.14831 184 184 180
1.71382 -3.28909 -0.13824 186 190 185
1.71425 -3.30114 -0.12817 185 189 190
1.71468 -3.31318 -0.11810 181 184 186
1.71511 -3.32522 -0.10804 174 177 176
1.71554 -3.33726 -0.09798 174 176 168
1.71596 -3.34929 -0.08792 174 177 165
1.71639 -3.36132 -0.07786 166 169 164
1.71682 -3.37335 -0.06781 165 171 168
1.71725 -3.38537 -0.05776 170 173 169
1.71767 -3.39739 -0.04771 171 166 159
1.71810 -3.40941 -0.03766 174 178 168
1.71853 -3.42143 -0.02762 179 186 175
1.71896 -3.43344 -0.01758 178 179 177
1.71938 -3.44545 -0.00754 179 189 185
1.71981 -3.45746 0.00250 176 179 175
1.72024 -3.46947 0.01253 171 176 169
1.72067 -3.48147 0.02257 170 174 165
1.72109 -3.49347 0.03259 170 171 166
1.72152 -3.50546 0.04262 168 172 166
1.72195 -3.51746 0.05265 168 168 166
1.72237 -3.52945 0.06267 177 181 179
1.72280 -3.54144 0.07269 171 174 175
1.66826 -2.60173 -0.71470 130 131 122
1.66870 -2.61390 -0.70453 129 131 127
1.66913 -2.62606 -0.69436 135 136 135
1.66957 -2.63823 -0.68420 136 133 134
1.67000 -2.65038 -0.67403 132 135 139
1.67044 -2.66254 -0.66387 136 144 139
1.67087 -2.67469 -0.65372 136 138 134
1.67131 -2.68684 -0.64356 139 140 136
1.67174 -2.69899 -0.63341 152 157 151
1.67218 -2.71113 -0.62326 148 154 154
1.67261 -2.72327 -0.61311 139 142 147
1.67304 -2.73541 -0.60296 141 145 146
1.67348 -2.74754 -0.59282 136 140 139
1.67391 -2.75967 -0.58268 145 152 148
1.67435 -2.77180 -0.57254 143 148 150
1.67478 -2.78393 -0.56241 145 142 133
1.67521 -2.79605 -0.55227 145 150 157
1.67565 -2.80817 -0.54214 163 172 171
1.67608 -2.82029 -0.53201 161 156 152
1.67652 -2.83240 -0.52189 159 168 165
1.67695 -2.84451 -0.51176 162 173 165
1.67738 -2.85662 -0.50164 173 177 173
1.67781 -2.86873 -0.49152 162 168 173
1.67825 -2.88083 -0.48141 162 163 167
1.67868 -2.89293 -0.47129 166 167 166
1.67911 -2.90503 -0.46118 173 178 170
1.67955 -2.91712 -0.45107 171 178 176
1.67998 -2.92921 -0.44097 174 174 175
1.68041 -2.94130 -0.43086 175 179 181
1.68084 -2.95338 -0.42076 173 182 182
1.68128 -2.96547 -0.41066 169 175 173
1.68171 -2.97755 -0.40057 165 172 164
1.68214 -2.98962 -0.39047 172 181 177
1.68257 -3.00170 -0.38038 180 185 188
1.68300 -3.01377 -0.37029 178 178 185
1.68344 -3.02583 -0.36020 173 178 185
1.68387 -3.03790 -0.35012 171 181 182
1.68430 -3.04996 -0.34003 171 179 178
1.68473 -3.06202 -0.32995 170 177 182
1.68516 -3.07408 -0.31988 170 180 183
1.68559 -3.08613 -0.30980 179 185 189
1.68602 -3.09818 -0.29973 175 181 186
1.68646 -3.11023 -0.28966 167 173 178
1.68689 -3.12227 -0.27959 169 173 177
1.68732 -3.13431 -0.26953 175 183 188
1.68775 -3.14635 -0.25946 179 189 190
1.68818 -3.15839 -0.24940 177 184 190
1.68861 -3.17042 -0.23934 174 178 178
1.68904 -3.18245 -0.22929 168 178 186
1.68947 -3.19448 -0.21923 177 187 183
1.68990 -3.20650 -0.20918 173 182 184
1.69033 -3.21853 -0.19913 169 177 165
1.69076 -3.23054 -0.18909 162 163 161
1.69119 -3.24256 -0.17904 173 181 180
1.69162 -3.25457 -0.16900 181 183 181
1.69205 -3.26658 -0.15896 185 186 183
1.69248 -3.27859 -0.14893 185 187 186
1.69291 -3.29059 -0.13889 193 196 192
1.69334 -3.30260 -0.12886 196 201 196
1.69377 -3.31459 -0.11883 187 192 190
1.69420 -3.32659 -0.10880 170 175 179
1.69463 -3.33858 -0.09878 162 170 168
1.69506 -3.35057 -0.08876 168 176 165
1.69548 -3.36256 -0.07874 169 174 167
1.69591 -3.37455 -0.06872 160 163 165
1.69634 -3.38653 -0.05870 158 162 160
1.69677 -3.39850 -0.04869 168 167 160
1.69720 -3.41048 -0.03868 172 176 167
1.69763 -3.42245 -0.02867 175 184 177
1.69806 -3.43442 -0.01867 176 187 179
1.69848 -3.44639 -0.00867 178 180 178
1.69891 -3.45836 0.00134 173 173 173
1.69934 -3.47032 0.01133 175 175 170
1.69977 -3.48228 0.02133 169 170 168
1.70020 -3.49423 0.03132 174 174 164
1.70062 -3.50618 0.04131 172 172 162
1.70105 -3.51813 0.05130 173 169 167
1.70148 -3.53008 0.06129 182 184 184
1.70191 -3.54203 0.07127 170 171 171
1.64701 -2.59360 -0.72341 135 137 139
1.64745 -2.60573 -0.71327 140 138 136
1.64788 -2.61785 -0.70314 137 131 136
1.64832 -2.62997 -0.69301 134 133 134
1.64875 -2.64209 -0.68288 137 139 132
1.64919 -2.65420 -0.67275 140 144 135
1.64963 -2.66631 -0.66263 143 146 138
1.65006 -2.67842 -0.65251 140 142 139
1.65050 -2.69052 -0.64239 139 143 142
1.65093 -2.70263 -0.63228 154 150 156
1.65137 -2.71472 -0.62216 157 155 160
1.65180 -2.72682 -0.61205 156 158 151
1.65224 -2.73891 -0.60194 154 158 150
1.65267 -2.75100 -0.59184 149 152 145
1.65311 -2.76309 -0.58173 150 156 150
1.65354 -2.77518 -0.57163 151 154 155
1.65398 -2.78726 -0.56153 157 154 144
1.65441 -2.79934 -0.55144 159 158 161
1.65485 -2.81141 -0.54134 170 177 172
1.65528 -2.82349 -0.53125 156 153 159
1.65572 -2.83556 -0.52116 154 158 169
1.65615 -2.84762 -0.51107 163 166 171
1.65659 -2.85969 -0.50099 172 176 176
1.65702 -2.87175 -0.49091 158 163 164
1.65745 -2.88381 -0.48083 155 155 159
1.65789 -2.89586 -0.47075 158 163 167
1.65832 -2.90791 -0.46067 168 177 173
1.65875 -2.91996 -0.45060 167 174 177
1.65919 -2.93201 -0.44053 174 178 175
1.65962 -2.94406 -0.43046 175 179 181
1.66006 -2.95610 -0.42040 169 177 185
1.66049 -2.96813 -0.41034 174 181 188
1.66092 -2.98017 -0.40028 176 181 179
1.66135 -2.99220 -0.39022 180 185 183
1.66179 -3.00423 -0.38016 180 184 191
1.66222 -3.01626 -0.37011 177 180 187
1.66265 -3.02828 -0.36006 175 183 185
1.66309 -3.04030 -0.35001 172 184 181
1.66352 -3.05232 -0.33996 173 180 177
1.66395 -3.06434 -0.32992 175 179 177
1.66438 -3.07635 -0.31988 175 181 179
1.66481 -3.08836 -0.30984 182 189 188
1.66525 -3.10037 -0.29980 175 176 180
1.66568 -3.11237 -0.28977 167 169 176
1.66611 -3.12437 -0.27974 172 176 183
1.66654 -3.13637 -0.26971 184 191 198
1.66697 -3.14837 -0.25968 183 188 192
1.66741 -3.16036 -0.24966 179 183 184
1.66784 -3.17235 -0.23964 177 180 182
1.66827 -3.18433 -0.22962 180 181 184
1.66870 -3.19632 -0.21960 182 184 176
1.66913 -3.20830 -0.20958 172 178 180
1.66956 -3.22028 -0.19957 173 183 173
1.66999 -3.23225 -0.18956 172 173 168
1.67042 -3.24422 -0.17955 175 177 179
1.67086 -3.25619 -0.16955 186 188 189
1.67129 -3.26816 -0.15954 188 193 188
1.67172 -3.28012 -0.14954 178 187 188
1.67215 -3.29209 -0.13955 186 197 196
1.67258 -3.30404 -0.12955 190 199 194
1.67301 -3.31600 -0.11956 182 186 187
1.67344 -3.32795 -0.10956 170 176 181
1.67387 -3.33990 -0.09958 167 178 175
1.67430 -3.35185 -0.08959 175 185 176
1.67473 -3.36379 -0.07961 174 181 177
1.67516 -3.37573 -0.06962 162 165 164
1.67559 -3.38767 -0.05965 159 164 159
1.67602 -3.39961 -0.04967 176 182 172
1.67645 -3.41154 -0.03969 179 184 176
1.67687 -3.42347 -0.02972 172 177 176
1.67730 -3.43540 -0.01975 174 178 172
1.67773 -3.44732 -0.00978 177 177 168
1.67816 -3.45924 0.00018 175 172 170
1.67859 -3.47116 0.01014 175 175 172
1.67902 -3.48308 0.02010 174 176 176
1.67945 -3.49499 0.03006 179 184 171
1.67988 -3.50690 0.04002 175 174 157
1.68031 -3.51881 0.04997 174 172 170
1.68073 -3.53071 0.05992 180 178 177
1.62591 -2.58553 -0.73205 129 130 133
1.62634 -2.59762 -0.72195 136 139 140
1.62678 -2.60970 -0.71185 145 146 136
1.62722 -2.62177 -0.70176 143 145 137
1.62766 -2.63385 -0.69166 142 147 138
1.62809 -2.64592 -0.68157 150 149 138
1.62853 -2.65799 -0.67148 150 146 141
1.62897 -2.67006 -0.66140 148 148 148
1.62940 -2.68212 -0.65131 146 148 153
1.62984 -2.69418 -0.64123 145 147 154
1.63028 -2.70624 -0.63115 156 154 164
1.63071 -2.71829 -0.62108 163 158 164
1.63115 -2.73035 -0.61100 156 153 152
1.63158 -2.74240 -0.60093 152 157 153
1.63202 -2.75444 -0.59086 155 160 156
1.63246 -2.76649 -0.58079 152 154 150
1.63289 -2.77853 -0.57073 151 155 161
1.63333 -2.79056 -0.56066 165 167 173
1.63376 -2.80260 -0.55060 160 160 159
1.63420 -2.81463 -0.54055 173 178 172
1.63463 -2.82666 -0.53049 167 171 178
1.63507 -2.83869 -0.52044 165 165 171
1.63550 -2.85071 -0.51039 163 165 170
1.63594 -2.86273 -0.50034 168 176 172
1.63637 -2.87475 -0.49029 154 160 159
1.63681 -2.88676 -0.48025 155 155 156
1.63724 -2.89877 -0.47021 152 161 166
1.63768 -2.91078 -0.46017 164 174 174
1.63811 -2.92279 -0.45013 167 172 176
1.63855 -2.93479 -0.44010 175 183 180
1.63898 -2.94679 -0.43007 175 181 180
1.63942 -2.95879 -0.42004 170 176 184
1.63985 -2.97078 -0.41001 176 183 196
1.64028 -2.98278 -0.39999 182 186 192
1.64072 -2.99477 -0.38997 182 186 188
1.64115 -3.00675 -0.37995 177 182 189
1.64159 -3.01873 -0.36993 172 178 188
1.64202 -3.03072 -0.35992 171 181 182
1.64245 -3.04269 -0.34990 175 184 181
1.64289 -3.05467 -0.33989 180 185 179
1.64332 -3.06664 -0.32989 180 179 172
1.64375 -3.07861 -0.31988 173 175 176
1.64419 -3.09057 -0.30988 177 181 185
1.64462 -3.10254 -0.29988 175 177 179
1.64505 -3.11450 -0.28988 170 174 179
1.64548 -3.12646 -0.27988 172 181 189
1.64592 -3.13841 -0.26989 182 186 193
1.64635 -3.15036 -0.25990 174 178 183
1.64678 -3.16231 -0.24991 167 171 171
1.64721 -3.17426 -0.23992 176 179 183
1.64765 -3.18620 -0.22994 187 192 184
1.64808 -3.19814 -0.21996 184 187 181
1.64851 -3.21008 -0.20998 175 182 182
1.64894 -3.22202 -0.20000 178 187 180
1.64937 -3.23395 -0.19003 187 189 181
1.64981 -3.24588 -0.18006 188 186 188
1.65024 -3.25780 -0.17009 196 197 202
1.65067 -3.26973 -0.16012 188 190 188
1.65110 -3.28165 -0.15016 174 182 178
1.65153 -3.29357 -0.14019 179 190 186
1.65196 -3.30548 -0.13023 182 188 186
1.65239 -3.31739 -0.12028 179 182 183
1.65283 -3.32930 -0.11032 175 183 179
1.65326 -3.34121 -0.10037 177 186 172
1.65369 -3.35311 -0.09042 184 189 179
1.65412 -3.36501 -0.08047 180 185 185
1.65455 -3.37691 -0.07052 173 175 173
1.65498 -3.38881 -0.06058 173 179 175
1.65541 -3.40070 -0.05064 179 185 182
1.65584 -3.41259 -0.04070 179 186 182
1.65627 -3.42448 -0.03076 174 179 175
1.65670 -3.43636 -0.02083 181 182 176
1.65713 -3.44824 -0.01090 183 187 171
1.65756 -3.46012 -0.00097 177 182 173
1.65799 -3.47200 0.00896 172 173 177
1.65842 -3.48387 0.01889 176 183 181
1.65885 -3.49574 0.02881 182 189 180
1.65928 -3.50761 0.03873 184 184 171
1.65971 -3.51947 0.04865 172 172 176
1.66057 -3.54319 0.06847 155 154 162
1.60495 -2.57752 -0.74064 135 139 131
1.60539 -2.58956 -0.73057 138 135 131
1.60583 -2.60160 -0.72051 141 136 136
1.60626 -2.61363 -0.71045 143 142 141
1.60670 -2.62567 -0.70039 139 145 139
1.60714 -2.63770 -0.69033 142 150 141
1.60758 -2.64973 -0.68027 151 153 147
1.60802 -2.66175 -0.67022 146 144 142
1.60845 -2.67378 -0.66017 143 148 149
1.60889 -2.68580 -0.65012 149 154 157
1.60933 -2.69781 -0.64008 150 150 155
1.60977 -2.70983 -0.63004 156 159 162
1.61020 -2.72184 -0.62000 155 156 161
1.61064 -2.73385 -0.60996 152 149 149
1.61108 -2.74585 -0.59992 153 155 153
1.61151 -2.75785 -0.58989 156 160 157
1.61195 -2.76985 -0.57986 153 156 148
1.61239 -2.78185 -0.56983 144 152 158
1.61282 -2.79385 -0.55980 157 162 179
1.61326 -2.80584 -0.54978 153 157 161
1.61370 -2.81783 -0.53976 167 171 165
1.61413 -2.82981 -0.52974 170 174 175
1.61457 -2.84179 -0.51972 166 168 169
1.61500 -2.85377 -0.50971 168 173 181
1.61544 -2.86575 -0.49969 165 174 169
1.61588 -2.87772 -0.48968 156 164 160
1.61631 -2.88970 -0.47968 160 165 160
1.61675 -2.90166 -0.46967 160 164 168
1.61718 -2.91363 -0.45967 170 176 175
1.61762 -2.92559 -0.44967 169 175 176
1.61805 -2.93755 -0.43967 173 179 184
1.61849 -2.94951 -0.42968 173 179 182
1.61892 -2.96146 -0.41968 172 176 181
1.61936 -2.97342 -0.40969 177 180 183
1.61979 -2.98536 -0.39970 181 185 184
1.62023 -2.99731 -0.38972 181 185 183
1.62066 -3.00925 -0.37973 177 182 183
1.62110 -3.02119 -0.36975 172 179 181
1.62153 -3.03313 -0.35977 172 179 176
1.62197 -3.04506 -0.34980 175 180 177
1.62240 -3.05700 -0.33982 183 184 181
1.62284 -3.06892 -0.32985 183 184 175
1.62327 -3.08085 -0.31988 169 172 173
1.62370 -3.09277 -0.30992 172 176 179
1.62414 -3.10469 -0.29995 173 179 180
1.62457 -3.11661 -0.28999 165 171 175
1.62501 -3.12853 -0.28003 160 165 181
1.62544 -3.14044 -0.27007 164 164 180
1.62587 -3.15235 -0.26012 165 169 178
1.62631 -3.16425 -0.25016 163 168 171
1.62674 -3.17616 -0.24021 177 187 185
1.62717 -3.18806 -0.23026 182 192 189
1.62761 -3.19996 -0.22032 182 190 192
1.62804 -3.21185 -0.21038 178 182 181
1.62847 -3.22374 -0.20043 178 186 183
1.62890 -3.23563 -0.19050 188 195 193
1.62934 -3.24752 -0.18056 193 197 200
1.62977 -3.25940 -0.17062 193 198 201
1.63020 -3.27128 -0.16069 188 192 185
1.63063 -3.28316 -0.15076 178 184 173
1.63107 -3.29504 -0.14084 180 188 175
1.63150 -3.30691 -0.13091 178 180 171
1.63193 -3.31878 -0.12099 182 185 177
1.63236 -3.33065 -0.11107 183 191 181
1.63279 -3.34251 -0.10115 180 186 172
1.63323 -3.35437 -0.09124 183 188 178
1.63366 -3.36623 -0.08132 182 184 185
1.63409 -3.37808 -0.07141 179 177 175
1.63452 -3.38994 -0.06151 177 183 182
1.63495 -3.40179 -0.05160 177 183 182
1.63538 -3.41363 -0.04170 177 182 178
1.63581 -3.42548 -0.03179 175 180 175
1.63624 -3.43732 -0.02190 187 195 189
1.63668 -3.44916 -0.01200 186 191 178
1.63711 -3.46100 -0.00210 165 172 176
1.63754 -3.47283 0.00779 166 173 175
1.63797 -3.48466 0.01768 169 168 172
1.63840 -3.49649 0.02756 177 184 180
1.63883 -3.50831 0.03745 186 190 179
1.63926 -3.52013 0.04733 171 171 176
1.63969 -3.53195 0.05721 166 163 158
1.64012 -3.54377 0.06709 150 150 161
1.58414 -2.56955 -0.74917 132 138 136
1.58458 -2.58156 -0.73913 138 141 138
1.58502 -2.59356 -0.72910 144 146 137
1.58546 -2.60555 -0.71908 147 145 135
1.58589 -2.61754 -0.70905 142 141 132
1.58633 -2.62954 -0.69903 132 134 127
1.58677 -2.64152 -0.68900 136 141 140
1.58721 -2.65351 -0.67899 148 154 150
1.58765 -2.66549 -0.66897 145 149 140
1.58809 -2.67747 -0.65896 143 150 144
1.58853 -2.68945 -0.64894 147 154 151
1.58896 -2.70142 -0.63893 150 154 153
1.58940 -2.71339 -0.62893 158 163 155
1.58984 -2.72536 -0.61892 154 156 153
1.59028 -2.73732 -0.60892 156 155 156
1.59072 -2.74928 -0.59892 157 154 159
1.59115 -2.76124 -0.58892 158 161 158
1.59159 -2.77320 -0.57893 163 168 158
1.59203 -2.78515 -0.56894 153 159 158
1.59247 -2.79710 -0.55895 156 162 166
