ply
format ascii 1.0
element face 0
property list uchar int vertex_indices
element vertex 1314
property float x
property float y
property float z
property uchar diffuse_red
property uchar diffuse_green
property uchar diffuse_blue
end_header
0.95154 -3.76208 2.17623 124 108 91
0.94525 -3.77777 2.18408 123 108 91
0.93894 -3.79351 2.19196 123 107 91
0.93261 -3.80929 2.19986 124 108 93
0.92627 -3.82512 2.20778 124 107 90
0.91990 -3.84100 2.21573 125 107 95
0.91352 -3.85693 2.22370 124 107 101
0.90711 -3.87290 2.23169 124 107 100
0.90069 -3.88893 2.23971 123 107 102
0.89424 -3.90500 2.24776 122 106 97
0.88778 -3.92112 2.25583 123 104 90
0.88130 -3.93729 2.26392 114 102 95
1.23831 -3.05607 1.80548 138 130 118
1.23284 -3.06973 1.81228 139 127 116
1.22736 -3.08342 1.81911 140 128 114
1.22186 -3.09715 1.82596 140 128 110
1.21635 -3.11092 1.83283 139 127 115
1.21082 -3.12473 1.83971 138 126 118
1.20527 -3.13857 1.84662 138 125 116
1.19971 -3.15246 1.85354 137 125 113
1.19413 -3.16638 1.86048 136 124 110
1.18854 -3.18035 1.86745 137 123 107
1.18293 -3.19435 1.87443 137 122 109
1.17731 -3.20840 1.88144 136 121 108
1.17167 -3.22248 1.88846 135 121 104
1.16601 -3.23661 1.89550 135 122 105
1.16034 -3.25077 1.90257 137 125 109
1.15465 -3.26498 1.90965 138 125 114
1.14894 -3.27922 1.91676 138 125 117
1.14322 -3.29351 1.92388 137 125 116
1.13748 -3.30784 1.93103 135 126 113
1.13173 -3.32221 1.93819 135 125 109
1.12596 -3.33662 1.94538 135 123 110
1.12017 -3.35107 1.95258 136 121 103
1.11436 -3.36556 1.95981 133 119 99
1.10854 -3.38010 1.96706 131 114 101
1.10270 -3.39468 1.97433 131 114 100
1.09685 -3.40930 1.98162 131 114 104
1.09098 -3.42396 1.98893 128 113 101
1.08509 -3.43867 1.99627 126 113 100
1.07918 -3.45342 2.00362 128 114 103
1.07326 -3.46821 2.01100 131 115 101
1.06732 -3.48305 2.01840 131 117 96
1.06136 -3.49792 2.02582 128 116 92
1.05538 -3.51285 2.03326 128 115 97
1.04939 -3.52781 2.04072 128 114 103
1.04338 -3.54282 2.04821 129 112 97
1.03735 -3.55788 2.05571 129 114 97
1.03130 -3.57297 2.06324 129 112 102
1.02523 -3.58812 2.07079 126 112 95
1.01915 -3.60331 2.07837 125 112 91
1.01305 -3.61854 2.08597 124 112 93
1.00693 -3.63382 2.09358 123 112 97
1.00080 -3.64914 2.10123 122 110 99
0.99464 -3.66451 2.10889 122 108 96
0.98847 -3.67993 2.11658 122 107 95
0.98227 -3.69539 2.12429 122 107 95
0.97606 -3.71090 2.13202 123 111 94
0.96983 -3.72645 2.13978 125 112 91
0.96359 -3.74205 2.14756 126 110 90
0.95732 -3.75770 2.15536 126 109 89
0.95103 -3.77339 2.16319 126 109 89
0.94473 -3.78914 2.17104 124 109 90
0.93841 -3.80492 2.17891 123 108 91
0.93206 -3.82076 2.18681 123 109 92
0.92570 -3.83665 2.19473 124 109 91
0.91932 -3.85258 2.20268 124 109 96
0.91292 -3.86856 2.21065 124 109 102
0.90650 -3.88459 2.21864 124 108 99
0.90006 -3.90067 2.22666 123 107 100
0.89360 -3.91680 2.23470 121 106 98
0.88712 -3.93298 2.24277 122 105 96
0.88062 -3.94920 2.25086 113 102 102
1.23846 -3.06512 1.79251 138 129 116
1.23298 -3.07881 1.79931 140 127 114
1.22748 -3.09255 1.80614 139 127 113
1.22197 -3.10632 1.81298 140 127 115
1.21645 -3.12013 1.81984 139 128 115
1.21090 -3.13398 1.82673 138 128 116
1.20535 -3.14787 1.83363 138 126 116
1.19977 -3.16180 1.84055 138 125 113
1.19419 -3.17577 1.84749 137 124 108
1.18858 -3.18978 1.85445 138 123 109
1.18296 -3.20383 1.86143 139 123 112
1.17732 -3.21792 1.86843 136 122 112
1.17167 -3.23204 1.87545 135 121 105
1.16600 -3.24621 1.88249 136 122 104
1.16032 -3.26042 1.88955 137 124 108
1.15461 -3.27467 1.89663 139 125 116
1.14890 -3.28896 1.90373 140 124 118
1.14316 -3.30330 1.91085 137 124 113
1.13741 -3.31767 1.91800 134 124 113
1.13164 -3.33209 1.92516 136 123 109
1.12586 -3.34654 1.93234 134 122 106
1.12006 -3.36104 1.93955 136 122 99
1.11424 -3.37558 1.94677 133 120 96
1.10841 -3.39016 1.95402 129 117 94
1.10255 -3.40479 1.96128 129 115 92
1.09669 -3.41946 1.96857 129 114 99
1.09080 -3.43417 1.97588 127 112 97
1.08490 -3.44892 1.98321 127 113 98
1.07898 -3.46372 1.99057 129 115 101
1.07304 -3.47856 1.99794 133 116 107
1.06709 -3.49344 2.00533 130 116 101
1.06111 -3.50837 2.01275 128 118 98
1.05512 -3.52334 2.02019 127 116 103
1.04912 -3.53836 2.02765 128 113 104
1.04309 -3.55342 2.03513 130 111 96
1.03705 -3.56852 2.04264 130 113 95
1.03099 -3.58367 2.05017 129 113 91
1.02491 -3.59886 2.05772 126 112 92
1.01881 -3.61410 2.06529 125 112 93
1.01270 -3.62938 2.07288 126 111 91
1.00656 -3.64471 2.08050 124 109 93
1.00041 -3.66009 2.08814 123 108 97
0.99424 -3.67551 2.09580 123 109 98
0.98805 -3.69098 2.10349 123 108 100
0.98185 -3.70649 2.11119 124 107 99
0.97562 -3.72205 2.11893 124 109 99
0.96938 -3.73765 2.12668 125 110 101
0.96311 -3.75331 2.13446 125 109 98
0.95683 -3.76901 2.14226 126 108 92
0.95053 -3.78476 2.15008 125 108 91
0.94421 -3.80055 2.15793 123 109 93
0.93787 -3.81640 2.16580 122 108 93
0.93151 -3.83229 2.17370 123 108 92
0.92514 -3.84823 2.18162 124 109 90
0.91874 -3.86421 2.18956 125 110 97
0.91232 -3.88025 2.19753 126 109 103
0.90589 -3.89634 2.20553 124 109 96
0.89943 -3.91247 2.21354 122 107 95
0.89296 -3.92865 2.22158 121 106 95
0.88646 -3.94489 2.22965 121 105 95
0.87995 -3.96117 2.23774 112 100 100
1.23860 -3.07420 1.77948 140 129 116
1.23311 -3.08794 1.78629 141 128 114
1.22761 -3.10172 1.79311 141 128 112
1.22208 -3.11553 1.79995 141 129 109
1.21655 -3.12939 1.80680 140 128 111
1.21099 -3.14328 1.81368 138 127 111
1.20542 -3.15721 1.82058 138 125 106
1.19984 -3.17119 1.82750 138 125 107
1.19424 -3.18520 1.83444 138 124 112
1.18862 -3.19925 1.84139 137 123 110
1.18299 -3.21334 1.84837 137 123 107
1.17734 -3.22748 1.85537 135 124 105
1.17167 -3.24165 1.86238 133 123 100
1.16599 -3.25586 1.86942 134 124 104
1.16029 -3.27012 1.87648 136 125 108
1.15458 -3.28441 1.88356 137 125 111
1.14885 -3.29875 1.89065 137 125 109
1.14310 -3.31313 1.89777 136 125 105
1.13734 -3.32755 1.90491 135 124 110
1.13156 -3.34201 1.91207 137 123 108
1.12576 -3.35651 1.91925 133 121 106
1.11995 -3.37106 1.92645 132 121 101
1.11412 -3.38564 1.93367 131 119 97
1.10827 -3.40027 1.94092 130 118 94
1.10241 -3.41495 1.94818 130 114 92
1.09652 -3.42966 1.95547 129 112 98
1.09062 -3.44442 1.96277 127 113 99
1.08471 -3.45922 1.97010 128 112 100
1.07877 -3.47407 1.97745 130 114 102
1.07282 -3.48895 1.98482 131 117 104
1.06685 -3.50389 1.99221 128 116 101
1.06087 -3.51886 1.99963 126 117 101
1.05486 -3.53388 2.00706 127 115 105
1.04884 -3.54895 2.01452 127 113 105
1.04280 -3.56406 2.02200 129 113 104
1.03675 -3.57921 2.02951 130 114 106
1.03067 -3.59441 2.03703 128 113 96
1.02458 -3.60965 2.04458 126 111 95
1.01847 -3.62494 2.05215 125 110 98
1.01234 -3.64028 2.05974 125 109 98
1.00619 -3.65566 2.06735 124 108 98
1.00002 -3.67108 2.07499 123 108 97
0.99384 -3.68656 2.08265 124 109 97
0.98764 -3.70207 2.09033 123 108 100
0.98141 -3.71764 2.09804 123 107 100
0.97517 -3.73325 2.10577 124 108 100
0.96892 -3.74891 2.11352 127 110 101
0.96264 -3.76462 2.12130 127 110 97
0.95634 -3.78037 2.12910 124 109 94
0.95002 -3.79617 2.13692 123 108 93
0.94369 -3.81202 2.14477 122 108 92
0.93734 -3.82792 2.15264 121 109 93
0.93096 -3.84386 2.16053 123 109 94
0.92457 -3.85986 2.16845 125 109 93
0.91816 -3.87590 2.17639 127 108 98
0.91172 -3.89199 2.18436 127 108 101
0.90527 -3.90813 2.19235 124 108 93
0.89880 -3.92432 2.20037 122 108 90
0.89231 -3.94056 2.20841 121 107 90
0.88580 -3.95685 2.21647 121 105 91
0.87927 -3.97319 2.22456 110 100 94
1.23875 -3.08333 1.76640 142 130 117
1.23325 -3.09711 1.77320 141 129 116
1.22773 -3.11093 1.78002 141 130 117
1.22220 -3.12478 1.78685 142 131 119
1.21665 -3.13868 1.79371 140 129 118
1.21108 -3.15262 1.80058 139 127 113
1.20550 -3.16659 1.80748 139 125 108
1.19990 -3.18061 1.81439 139 125 109
1.19429 -3.19467 1.82133 140 124 113
1.18866 -3.20876 1.82828 139 122 114
1.18302 -3.22290 1.83525 138 123 114
1.17735 -3.23708 1.84225 137 123 110
1.17168 -3.25129 1.84926 135 123 102
1.16598 -3.26555 1.85629 135 123 104
1.16027 -3.27985 1.86335 137 124 108
1.15455 -3.29419 1.87042 138 124 110
1.14880 -3.30858 1.87752 139 124 110
1.14304 -3.32300 1.88463 137 124 109
1.13727 -3.33747 1.89177 136 124 110
1.13147 -3.35197 1.89892 134 122 104
1.12566 -3.36652 1.90610 132 122 109
1.11984 -3.38112 1.91330 132 120 104
1.11399 -3.39575 1.92052 132 117 100
1.10813 -3.41043 1.92776 129 114 100
1.10225 -3.42515 1.93502 126 112 101
1.09636 -3.43991 1.94230 127 112 102
1.09045 -3.45472 1.94960 127 112 99
1.08452 -3.46957 1.95693 128 111 97
1.07857 -3.48446 1.96428 130 114 102
1.07260 -3.49940 1.97164 130 117 106
1.06662 -3.51438 1.97903 129 117 109
1.06062 -3.52940 1.98645 128 116 101
1.05461 -3.54447 1.99388 128 114 103
1.04857 -3.55959 2.00134 127 113 104
1.04252 -3.57474 2.00881 128 114 101
1.03645 -3.58995 2.01631 130 115 100
1.03036 -3.60520 2.02383 126 114 99
1.02425 -3.62049 2.03138 125 111 100
1.01812 -3.63583 2.03895 125 109 101
1.01198 -3.65122 2.04654 124 108 103
1.00582 -3.66665 2.05415 122 107 104
0.99964 -3.68213 2.06178 122 107 96
0.99344 -3.69765 2.06944 123 108 93
0.98722 -3.71322 2.07712 123 109 95
0.98098 -3.72884 2.08483 122 109 96
0.97473 -3.74451 2.09255 124 109 98
0.96845 -3.76022 2.10030 126 109 98
0.96216 -3.77598 2.10808 126 108 97
0.95585 -3.79179 2.11587 122 107 96
0.94952 -3.80764 2.12370 122 107 95
0.94317 -3.82354 2.13154 123 108 95
0.93680 -3.83949 2.13941 122 109 99
0.93041 -3.85549 2.14730 123 110 98
0.92400 -3.87154 2.15522 123 109 93
0.91757 -3.88764 2.16316 124 109 96
0.91112 -3.90379 2.17112 124 108 96
0.90465 -3.91999 2.17911 124 107 92
0.89817 -3.93623 2.18713 122 107 87
0.89166 -3.95253 2.19517 121 107 87
0.88513 -3.96887 2.20323 117 105 92
0.87858 -3.98527 2.21132 104 100 96
1.24440 -3.07870 1.74649 143 126 115
1.23890 -3.09249 1.75327 142 128 114
1.23338 -3.10631 1.76006 142 129 115
1.22785 -3.12017 1.76687 143 128 118
1.22231 -3.13407 1.77371 143 129 119
1.21675 -3.14801 1.78056 142 129 119
1.21117 -3.16200 1.78743 140 127 116
1.20558 -3.17602 1.79432 139 125 115
1.19997 -3.19008 1.80123 139 124 115
1.19434 -3.20418 1.80816 140 124 118
1.18870 -3.21832 1.81511 140 122 115
1.18304 -3.23250 1.82208 139 122 107
1.17737 -3.24672 1.82907 139 122 103
1.17168 -3.26098 1.83608 136 122 102
1.16597 -3.27529 1.84311 135 122 106
1.16025 -3.28963 1.85016 136 124 110
1.15451 -3.30402 1.85723 138 125 114
1.14876 -3.31845 1.86432 140 124 112
1.14298 -3.33292 1.87143 137 123 109
1.13719 -3.34743 1.87857 136 123 107
1.13139 -3.36198 1.88572 136 121 105
1.12557 -3.37658 1.89289 135 120 108
1.11973 -3.39122 1.90009 134 118 105
1.11387 -3.40590 1.90730 132 117 102
1.10799 -3.42063 1.91454 129 115 101
1.10210 -3.43539 1.92180 127 113 104
1.09619 -3.45020 1.92908 127 111 109
1.09027 -3.46506 1.93638 126 111 101
1.08432 -3.47996 1.94370 127 113 99
1.07836 -3.49490 1.95104 129 114 101
1.07239 -3.50989 1.95841 131 116 105
1.06639 -3.52492 1.96580 129 115 108
1.06038 -3.53999 1.97320 128 114 103
1.05434 -3.55511 1.98063 128 114 103
1.04830 -3.57027 1.98809 129 113 103
1.04223 -3.58548 1.99556 129 115 99
1.03614 -3.60074 2.00306 128 114 101
1.03004 -3.61604 2.01058 127 112 106
1.02392 -3.63138 2.01812 127 110 105
1.01778 -3.64677 2.02569 126 110 102
1.01162 -3.66221 2.03327 125 108 100
1.00544 -3.67769 2.04088 121 108 102
0.99925 -3.69322 2.04851 120 107 96
0.99303 -3.70880 2.05617 123 108 92
0.98680 -3.72442 2.06385 123 109 92
0.98055 -3.74009 2.07155 123 109 94
0.97428 -3.75581 2.07928 124 110 97
0.96799 -3.77158 2.08702 126 111 100
0.96168 -3.78739 2.09480 126 108 98
0.95535 -3.80325 2.10259 123 106 98
0.94901 -3.81916 2.11041 122 105 97
0.94264 -3.83512 2.11825 123 106 96
0.93625 -3.85113 2.12612 124 107 101
0.92985 -3.86718 2.13401 123 108 99
0.92342 -3.88328 2.14192 122 108 96
0.91698 -3.89944 2.14986 123 108 100
0.91052 -3.91564 2.15783 123 107 99
0.90403 -3.93189 2.16581 124 106 95
0.89753 -3.94820 2.17383 124 105 92
0.89101 -3.96455 2.18186 123 104 92
0.88446 -3.98095 2.18993 117 103 94
0.87790 -3.99741 2.19801 100 99 98
1.25005 -3.07408 1.72655 135 121 111
1.24456 -3.08786 1.73331 137 124 113
1.23905 -3.10169 1.74008 141 127 113
1.23352 -3.11556 1.74687 142 127 113
1.22798 -3.12946 1.75367 141 128 117
1.22242 -3.14341 1.76050 141 129 113
1.21685 -3.15739 1.76735 143 129 115
1.21126 -3.17141 1.77422 142 128 117
1.20565 -3.18548 1.78110 140 125 117
1.20003 -3.19958 1.78801 138 124 116
1.19440 -3.21373 1.79494 138 124 111
1.18874 -3.22791 1.80188 138 124 107
1.18307 -3.24214 1.80885 137 123 103
1.17739 -3.25641 1.81583 137 123 101
1.17168 -3.27071 1.82284 136 122 103
1.16597 -3.28506 1.82987 135 124 109
1.16023 -3.29946 1.83691 136 125 115
1.15448 -3.31389 1.84398 136 124 119
1.14871 -3.32836 1.85107 136 123 113
1.14292 -3.34288 1.85818 135 124 107
1.13712 -3.35744 1.86531 135 124 105
1.13130 -3.37204 1.87246 134 122 105
1.12547 -3.38668 1.87963 134 120 109
1.11961 -3.40137 1.88682 133 118 111
1.11374 -3.41610 1.89403 131 117 99
1.10786 -3.43087 1.90126 128 114 93
1.10195 -3.44569 1.90852 127 112 94
1.09603 -3.46055 1.91579 127 110 104
1.09009 -3.47545 1.92309 125 112 101
1.08413 -3.49040 1.93041 127 114 99
1.07816 -3.50539 1.93775 129 114 100
1.07217 -3.52042 1.94511 133 114 101
1.06616 -3.53550 1.95250 130 114 104
1.06013 -3.55063 1.95990 129 112 105
1.05408 -3.56579 1.96733 129 112 106
1.04802 -3.58101 1.97478 129 111 106
1.04194 -3.59627 1.98225 128 113 95
1.03584 -3.61157 1.98975 127 115 103
1.02972 -3.62692 1.99726 126 114 113
1.02358 -3.64232 2.00480 126 112 106
1.01743 -3.65776 2.01236 126 110 98
1.01126 -3.67325 2.01995 125 108 98
1.00506 -3.68879 2.02756 123 108 100
0.99885 -3.70437 2.03519 123 108 99
0.99263 -3.72000 2.04284 124 108 97
0.98638 -3.73568 2.05051 124 108 98
0.98011 -3.75140 2.05821 124 108 98
0.97383 -3.76717 2.06594 126 110 98
0.96752 -3.78299 2.07368 128 111 99
0.96120 -3.79886 2.08145 127 109 97
0.95485 -3.81477 2.08925 123 106 97
0.94849 -3.83074 2.09706 121 105 98
0.94211 -3.84675 2.10490 123 105 96
0.93571 -3.86281 2.11277 125 106 97
0.92929 -3.87892 2.12066 124 106 95
0.92285 -3.89508 2.12857 124 106 94
0.91639 -3.91129 2.13651 124 107 99
0.90991 -3.92755 2.14447 124 107 98
0.90341 -3.94386 2.15245 124 106 95
0.89689 -3.96022 2.16046 123 105 95
0.89035 -3.97663 2.16850 122 103 95
0.88379 -3.99309 2.17656 116 102 96
0.87721 -4.00960 2.18464 99 98 100
1.27210 -3.02830 1.68651 139 126 108
1.26665 -3.04198 1.69319 138 124 101
1.26119 -3.05569 1.69988 137 125 106
1.25572 -3.06944 1.70658 139 125 107
1.25023 -3.08323 1.71331 135 125 112
1.24472 -3.09706 1.72006 137 127 117
1.23920 -3.11093 1.72683 142 129 119
1.23366 -3.12484 1.73361 141 129 117
1.22811 -3.13879 1.74042 138 129 118
1.22254 -3.15278 1.74724 139 129 115
1.21695 -3.16681 1.75408 142 128 114
1.21135 -3.18087 1.76095 140 127 116
1.20573 -3.19498 1.76783 138 126 117
1.20010 -3.20913 1.77473 138 124 118
1.19445 -3.22332 1.78165 138 124 118
1.18878 -3.23755 1.78860 137 124 115
1.18310 -3.25182 1.79556 137 124 110
1.17740 -3.26613 1.80254 136 123 107
1.17169 -3.28049 1.80954 135 122 106
1.16596 -3.29488 1.81657 135 122 108
1.16021 -3.30932 1.82361 137 123 110
1.15444 -3.32380 1.83067 137 124 112
1.14866 -3.33832 1.83776 136 123 110
1.14286 -3.35288 1.84486 135 123 108
1.13705 -3.36749 1.85199 135 122 106
1.13122 -3.38214 1.85913 135 120 106
1.12537 -3.39683 1.86630 134 118 103
1.11950 -3.41156 1.87349 133 117 106
1.11362 -3.42634 1.88070 129 115 102
1.10772 -3.44116 1.88793 127 114 97
1.10180 -3.45602 1.89518 130 113 96
1.09586 -3.47093 1.90245 128 110 100
1.08991 -3.48588 1.90974 127 110 102
1.08394 -3.50088 1.91706 128 112 99
1.07795 -3.51592 1.92440 129 115 105
1.07194 -3.53101 1.93176 130 114 109
1.06592 -3.54613 1.93914 129 114 106
1.05988 -3.56131 1.94654 129 113 103
1.05382 -3.57653 1.95397 128 113 102
1.04774 -3.59179 1.96141 127 112 103
1.04165 -3.60710 1.96888 126 113 97
1.03553 -3.62246 1.97637 127 114 102
1.02940 -3.63786 1.98389 127 113 109
1.02325 -3.65331 1.99142 126 112 102
1.01708 -3.66880 1.99898 126 111 93
1.01089 -3.68435 2.00656 125 108 95
1.00469 -3.69993 2.01417 124 108 95
0.99846 -3.71557 2.02180 123 108 96
0.99222 -3.73125 2.02945 125 108 98
0.98595 -3.74698 2.03712 124 106 97
0.97967 -3.76276 2.04482 123 106 93
0.97337 -3.77858 2.05254 126 108 96
0.96705 -3.79446 2.06028 128 110 100
0.96071 -3.81038 2.06805 126 109 97
0.95435 -3.82635 2.07584 122 106 97
0.94798 -3.84236 2.08365 120 106 100
0.94158 -3.85843 2.09149 121 106 101
0.93516 -3.87455 2.09935 124 107 99
0.92873 -3.89071 2.10724 124 107 95
0.92227 -3.90693 2.11515 123 107 96
0.91579 -3.92320 2.12309 125 108 99
0.90930 -3.93951 2.13104 125 108 93
0.90278 -3.95588 2.13903 124 107 91
0.89624 -3.97229 2.14704 123 106 94
0.88969 -3.98876 2.15507 122 104 95
0.88311 -4.00528 2.16313 114 101 96
0.87652 -4.02185 2.17121 96 96 99
1.30473 -2.95583 1.63362 139 125 115
1.29937 -2.96932 1.64018 140 127 110
1.29399 -2.98284 1.64675 139 127 108
1.28859 -2.99641 1.65335 139 127 109
1.28318 -3.01001 1.65996 140 126 117
1.27776 -3.02365 1.66659 141 126 114
1.27232 -3.03733 1.67323 137 126 109
1.26686 -3.05104 1.67990 138 125 103
1.26139 -3.06480 1.68659 138 126 109
1.25590 -3.07859 1.69329 137 125 114
1.25040 -3.09243 1.70001 135 124 110
1.24488 -3.10630 1.70676 137 126 116
1.23935 -3.12021 1.71352 140 129 116
1.23380 -3.13417 1.72030 140 131 115
1.22823 -3.14816 1.72710 141 130 114
1.22265 -3.16219 1.73392 140 129 111
1.21705 -3.17626 1.74076 140 128 109
1.21144 -3.19038 1.74762 138 127 111
1.20581 -3.20453 1.75450 137 125 114
1.20016 -3.21872 1.76140 139 124 113
1.19450 -3.23296 1.76831 139 125 112
1.18882 -3.24723 1.77525 138 124 113
1.18313 -3.26155 1.78221 137 123 116
1.17742 -3.27591 1.78919 136 122 114
1.17169 -3.29031 1.79619 135 120 107
1.16595 -3.30475 1.80321 134 122 106
1.16019 -3.31923 1.81025 136 124 107
1.15441 -3.33376 1.81731 138 124 108
1.14861 -3.34832 1.82439 137 124 110
1.14280 -3.36293 1.83149 135 122 111
1.13697 -3.37759 1.83861 136 121 110
1.13113 -3.39228 1.84575 136 119 101
1.12527 -3.40702 1.85291 136 119 92
1.11939 -3.42180 1.86010 133 118 100
1.11349 -3.43663 1.86730 129 114 103
1.10758 -3.45150 1.87453 126 111 105
1.10164 -3.46641 1.88178 130 111 102
1.09570 -3.48137 1.88905 127 112 99
1.08973 -3.49637 1.89634 126 111 95
1.08374 -3.51141 1.90365 127 111 92
1.07774 -3.52650 1.91098 131 114 103
1.07172 -3.54164 1.91834 131 115 108
1.06568 -3.55682 1.92572 129 115 103
1.05963 -3.57204 1.93312 127 114 100
1.05355 -3.58731 1.94054 128 112 102
1.04746 -3.60263 1.94798 129 111 102
1.04135 -3.61799 1.95545 127 113 99
1.03522 -3.63340 1.96294 127 112 100
1.02908 -3.64885 1.97045 127 112 104
1.02291 -3.66435 1.97798 127 113 106
1.01673 -3.67990 1.98554 126 112 99
1.01053 -3.69549 1.99312 125 108 96
1.00430 -3.71113 2.00072 124 107 95
0.99806 -3.72682 2.00834 124 108 96
0.99181 -3.74255 2.01599 125 107 96
0.98553 -3.75834 2.02366 123 105 97
0.97923 -3.77417 2.03136 122 106 97
0.97292 -3.79005 2.03907 126 108 102
0.96658 -3.80597 2.04681 127 109 102
0.96023 -3.82195 2.05458 125 107 94
0.95385 -3.83797 2.06237 123 105 94
0.94746 -3.85405 2.07018 122 105 98
0.94105 -3.87017 2.07802 122 106 100
0.93461 -3.88634 2.08588 123 107 99
0.92816 -3.90257 2.09376 122 107 96
0.92169 -3.91884 2.10167 123 108 96
0.91520 -3.93516 2.10960 125 107 96
0.90868 -3.95153 2.11756 127 107 92
0.90215 -3.96795 2.12554 125 107 90
0.89560 -3.98443 2.13355 123 106 92
0.88903 -4.00095 2.14158 121 104 92
0.88243 -4.01753 2.14964 113 100 94
0.87582 -4.03416 2.15772 92 96 100
1.30502 -2.96464 1.62031 137 124 111
1.29964 -2.97817 1.62686 138 127 112
1.29425 -2.99174 1.63343 138 126 112
1.28885 -3.00535 1.64002 139 126 110
1.28342 -3.01899 1.64663 139 126 115
1.27799 -3.03267 1.65325 141 124 118
1.27254 -3.04639 1.65989 140 126 115
1.26707 -3.06015 1.66656 140 126 101
1.26159 -3.07395 1.67324 139 125 107
1.25609 -3.08779 1.67994 136 123 109
1.25057 -3.10166 1.68666 134 123 110
1.24504 -3.11558 1.69340 137 125 114
1.23950 -3.12954 1.70015 142 128 116
1.23394 -3.14353 1.70693 142 130 119
1.22836 -3.15757 1.71373 141 129 115
1.21716 -3.18576 1.72738 139 129 109
1.21153 -3.19992 1.73423 138 128 109
1.20589 -3.21412 1.74111 138 126 109
1.20023 -3.22835 1.74800 139 125 109
1.19456 -3.24263 1.75491 139 126 108
1.18887 -3.25695 1.76185 138 124 108
1.18316 -3.27132 1.76880 137 121 110
1.17743 -3.28572 1.77578 137 118 109
1.17169 -3.30017 1.78277 134 118 105
1.16594 -3.31465 1.78979 133 120 105
1.16016 -3.32918 1.79682 135 124 107
1.15437 -3.34376 1.80388 136 125 106
1.14857 -3.35837 1.81096 135 125 108
1.14274 -3.37303 1.81805 134 123 111
1.13690 -3.38773 1.82517 136 122 109
1.13104 -3.40247 1.83231 135 121 103
1.08955 -3.50690 1.88287 127 112 96
1.08355 -3.52199 1.89018 126 111 96
1.07753 -3.53713 1.89751 130 112 102
1.07150 -3.55232 1.90486 130 115 103
1.06545 -3.56755 1.91224 128 115 101
1.05938 -3.58282 1.91963 127 113 99
1.05329 -3.59814 1.92705 128 112 102
1.04718 -3.61351 1.93449 130 111 100
1.04106 -3.62892 1.94196 128 111 96
1.03492 -3.64438 1.94944 127 112 96
1.02875 -3.65989 1.95695 128 113 96
1.02257 -3.67544 1.96448 127 112 100
1.01638 -3.69104 1.97203 126 111 98
1.01016 -3.70669 1.97961 125 108 94
1.00392 -3.72238 1.98721 125 108 92
0.99767 -3.73812 1.99483 125 108 98
0.99139 -3.75391 2.00247 125 107 99
0.98510 -3.76975 2.01014 125 106 97
0.97879 -3.78563 2.01783 124 106 99
0.97246 -3.80156 2.02555 126 109 103
0.96611 -3.81755 2.03329 126 110 100
0.95974 -3.83358 2.04105 125 107 93
0.95335 -3.84966 2.04884 123 105 91
0.94694 -3.86578 2.05664 122 104 93
0.94051 -3.88196 2.06448 123 105 93
0.93406 -3.89819 2.07234 124 106 93
0.92759 -3.91447 2.08022 123 106 92
0.92110 -3.93080 2.08812 123 107 94
0.91460 -3.94718 2.09606 125 106 95
0.90807 -3.96361 2.10401 126 107 93
0.90152 -3.98009 2.11199 124 106 91
0.89495 -3.99662 2.11999 122 105 91
0.88836 -4.01320 2.12802 119 102 91
0.88175 -4.02984 2.13608 109 100 91
0.87512 -4.04652 2.14416 89 98 100
1.29992 -2.98707 1.61349 136 127 114
1.29452 -3.00068 1.62005 138 127 115
1.28910 -3.01432 1.62664 138 126 103
1.28367 -3.02801 1.63324 138 125 111
1.27822 -3.04173 1.63986 138 124 113
1.27276 -3.05549 1.64650 139 126 113
1.26728 -3.06930 1.65316 138 126 104
1.26178 -3.08314 1.65983 139 125 100
1.25627 -3.09702 1.66653 137 123 98
1.25075 -3.11094 1.67324 136 124 105
1.24521 -3.12490 1.67998 137 126 110
1.23965 -3.13890 1.68673 139 129 112
1.23407 -3.15294 1.69350 140 128 113
1.22849 -3.16702 1.70029 138 128 112
1.16593 -3.32460 1.77631 133 120 102
1.16014 -3.33918 1.78334 135 123 114
1.15434 -3.35380 1.79039 137 124 108
1.14852 -3.36846 1.79746 136 123 110
1.14268 -3.38317 1.80456 135 121 111
1.09536 -3.50238 1.86206 129 109 102
1.08936 -3.51748 1.86934 127 109 102
1.08335 -3.53262 1.87665 125 111 102
1.07732 -3.54781 1.88398 127 113 104
1.07128 -3.56305 1.89132 129 116 102
1.06521 -3.57833 1.89870 127 117 96
1.05912 -3.59365 1.90609 127 115 101
1.05302 -3.60902 1.91350 128 113 105
1.04690 -3.62444 1.92094 128 112 100
1.04076 -3.63991 1.92840 127 112 99
1.03461 -3.65542 1.93588 126 111 101
1.02843 -3.67098 1.94339 127 112 99
1.02223 -3.68658 1.95092 127 112 99
1.01602 -3.70223 1.95846 126 111 97
1.00979 -3.71793 1.96604 124 110 93
1.00354 -3.73368 1.97363 124 110 92
0.99727 -3.74947 1.98125 124 110 96
0.99098 -3.76532 1.98889 124 110 95
0.98467 -3.78121 1.99656 123 108 89
0.97834 -3.79715 2.00425 125 107 94
0.97200 -3.81313 2.01196 127 109 101
0.96563 -3.82917 2.01970 126 111 99
0.95925 -3.84526 2.02746 124 109 94
0.95284 -3.86139 2.03524 123 107 94
0.94642 -3.87758 2.04305 123 106 94
0.93997 -3.89381 2.05088 124 106 92
0.93351 -3.91010 2.05873 123 106 95
0.92702 -3.92643 2.06661 124 106 94
0.92052 -3.94282 2.07452 124 106 94
0.91399 -3.95925 2.08244 124 108 96
0.90745 -3.97574 2.09040 124 108 95
0.90088 -3.99228 2.09837 123 107 91
0.89430 -4.00887 2.10638 120 104 90
0.88769 -4.02551 2.11440 115 101 91
1.29479 -3.00965 1.60662 136 125 113
1.28936 -3.02334 1.61320 139 126 106
1.28391 -3.03707 1.61979 140 126 106
1.27845 -3.05083 1.62641 139 124 112
1.27298 -3.06464 1.63304 140 126 111
1.26749 -3.07848 1.63970 141 126 107
1.26198 -3.09237 1.64637 142 124 106
1.25646 -3.10629 1.65306 139 124 104
1.25092 -3.12026 1.65977 136 124 107
1.24537 -3.13426 1.66650 134 126 110
1.23980 -3.14830 1.67325 139 128 114
1.23421 -3.16239 1.68002 139 128 116
1.22861 -3.17651 1.68680 138 128 113
1.22300 -3.19068 1.69361 137 127 109
1.16592 -3.33460 1.76277 132 122 105
1.16012 -3.34922 1.76980 135 124 113
1.15430 -3.36389 1.77685 137 124 115
1.14847 -3.37860 1.78391 137 123 115
1.08918 -3.52810 1.85575 126 108 100
1.08316 -3.54330 1.86306 127 110 96
1.07711 -3.55854 1.87038 128 114 103
1.07105 -3.57382 1.87773 131 113 106
1.06497 -3.58915 1.88509 130 113 101
1.05887 -3.60453 1.89248 129 114 102
1.05275 -3.61996 1.89989 128 114 101
1.04662 -3.63543 1.90733 128 113 97
1.04047 -3.65094 1.91478 128 112 102
1.03429 -3.66651 1.92226 128 111 108
1.01567 -3.71348 1.94483 126 111 103
1.00942 -3.72923 1.95240 124 110 96
1.00315 -3.74503 1.96000 123 110 93
0.99687 -3.76088 1.96761 124 110 93
0.99056 -3.77678 1.97525 125 109 93
0.98424 -3.79272 1.98291 124 109 91
0.97790 -3.80872 1.99060 124 108 95
0.97153 -3.82476 1.99831 126 109 105
0.96515 -3.84085 2.00604 126 109 103
0.95875 -3.85699 2.01380 124 109 94
0.95233 -3.87318 2.02158 122 107 92
0.94589 -3.88943 2.02938 122 106 93
0.93943 -3.90572 2.03721 122 107 94
0.93295 -3.92206 2.04506 121 107 95
0.92645 -3.93845 2.05294 123 108 96
0.91993 -3.95489 2.06084 123 109 94
0.91339 -3.97139 2.06877 124 110 97
0.90682 -3.98793 2.07672 123 108 96
0.90024 -4.00453 2.08469 122 105 91
0.89364 -4.02118 2.09269 119 103 88
0.88702 -4.03788 2.10072 113 100 91
1.28962 -3.03239 1.59970 135 123 108
1.28416 -3.04616 1.60629 138 128 107
1.27869 -3.05997 1.61290 139 128 114
1.27320 -3.07382 1.61953 140 126 118
1.26770 -3.08771 1.62618 138 125 115
1.26218 -3.10164 1.63285 139 125 111
1.25665 -3.11560 1.63953 137 124 108
1.25110 -3.12961 1.64624 135 123 106
1.24553 -3.14366 1.65296 136 123 107
1.23995 -3.15775 1.65971 138 125 112
1.23436 -3.17188 1.66647 137 127 116
1.08900 -3.53878 1.84210 129 111 98
1.08296 -3.55402 1.84940 128 111 96
1.07690 -3.56931 1.85672 128 115 102
1.07082 -3.58465 1.86406 130 116 102
1.02155 -3.70902 1.92360 129 108 101
1.01531 -3.72478 1.93114 126 109 103
1.00905 -3.74058 1.93871 123 109 100
1.00276 -3.75644 1.94630 123 109 100
0.99646 -3.77234 1.95391 124 109 99
0.99014 -3.78829 1.96155 124 109 97
0.98381 -3.80429 1.96920 124 109 97
0.97745 -3.82034 1.97689 124 109 100
0.97107 -3.83644 1.98459 126 109 105
0.96467 -3.85259 1.99232 126 110 102
0.95826 -3.86878 2.00008 124 109 95
0.95182 -3.88503 2.00785 122 108 91
0.94536 -3.90133 2.01566 122 107 93
0.93889 -3.91768 2.02348 123 107 95
0.93239 -3.93408 2.03133 122 107 94
0.92587 -3.95052 2.03921 123 108 92
0.91933 -3.96703 2.04711 124 110 90
0.91278 -3.98358 2.05503 124 110 95
0.90620 -4.00018 2.06298 123 107 95
0.89960 -4.01684 2.07095 121 104 90
0.89298 -4.03354 2.07895 119 101 88
0.88634 -4.05030 2.08697 115 99 93
1.28441 -3.05530 1.59273 134 127 105
1.27892 -3.06915 1.59933 137 127 114
1.27343 -3.08304 1.60596 139 126 118
1.26791 -3.09697 1.61260 136 126 115
1.26238 -3.11095 1.61927 139 126 112
1.25684 -3.12496 1.62595 137 126 109
1.25128 -3.13901 1.63265 137 124 103
1.24570 -3.15310 1.63937 137 123 98
1.24011 -3.16723 1.64611 138 126 107
1.02121 -3.72031 1.90984 127 108 98
1.01495 -3.73613 1.91738 125 108 98
1.00867 -3.75199 1.92495 124 109 98
1.00238 -3.76790 1.93253 123 109 101
0.99606 -3.78385 1.94014 124 109 99
0.98972 -3.79986 1.94778 124 109 93
0.98337 -3.81591 1.95543 123 109 92
0.97700 -3.83202 1.96311 124 109 97
0.97060 -3.84817 1.97081 127 110 99
0.96419 -3.86438 1.97854 127 109 98
0.95776 -3.88063 1.98629 124 109 93
0.95130 -3.89693 1.99407 122 109 90
0.94483 -3.91329 2.00186 123 108 91
0.93834 -3.92969 2.00969 124 108 95
0.93183 -3.94615 2.01753 124 107 94
0.92529 -3.96266 2.02541 124 108 92
0.91874 -3.97922 2.03330 124 110 90
0.91217 -3.99583 2.04122 123 109 94
0.90557 -4.01249 2.04917 121 106 95
0.89896 -4.02920 2.05714 120 104 89
0.89232 -4.04597 2.06513 118 102 87
0.88566 -4.06279 2.07315 113 99 94
1.27916 -3.07837 1.58571 133 125 107
1.27365 -3.09231 1.59233 139 126 114
1.26813 -3.10628 1.59897 139 126 116
1.26258 -3.12030 1.60562 139 126 112
1.25703 -3.13435 1.61230 138 126 109
1.25145 -3.14845 1.61900 138 124 105
1.24586 -3.16258 1.62571 136 123 104
1.24026 -3.17676 1.63245 137 125 116
1.02086 -3.73166 1.89603 126 110 93
1.01459 -3.74753 1.90356 126 109 91
1.00830 -3.76344 1.91112 123 109 94
1.00198 -3.77941 1.91871 123 110 99
0.99565 -3.79542 1.92631 124 110 98
0.98930 -3.81148 1.93394 124 110 92
0.98293 -3.82759 1.94159 123 109 92
0.97654 -3.84375 1.94927 124 110 98
0.97013 -3.85996 1.95697 126 110 98
0.96371 -3.87622 1.96469 126 110 96
0.95726 -3.89253 1.97244 124 110 96
0.95079 -3.90889 1.98021 122 110 94
0.94430 -3.92531 1.98801 122 109 90
0.93779 -3.94177 1.99583 123 108 91
0.93126 -3.95828 2.00367 123 108 93
0.92471 -3.97485 2.01154 123 110 97
0.91814 -3.99146 2.01943 123 110 94
0.91155 -4.00813 2.02735 123 108 95
0.90494 -4.02485 2.03529 121 106 95
0.89831 -4.04163 2.04326 118 104 88
0.89165 -4.05845 2.05125 116 101 85
0.88498 -4.07533 2.05927 109 100 92
1.27388 -3.10161 1.57864 133 125 107
1.26834 -3.11563 1.58527 138 124 116
1.26279 -3.12969 1.59192 138 126 120
1.25722 -3.14379 1.59860 138 126 114
1.25163 -3.15793 1.60529 137 124 110
1.24603 -3.17211 1.61200 135 122 112
1.24041 -3.18633 1.61873 134 122 114
1.02051 -3.74306 1.88215 127 112 96
1.01423 -3.75899 1.88968 126 111 94
1.00792 -3.77495 1.89723 124 110 97
1.00159 -3.79097 1.90481 125 110 98
0.99524 -3.80704 1.91242 125 111 96
0.98888 -3.82316 1.92004 124 110 93
0.98249 -3.83932 1.92769 123 109 95
0.97609 -3.85554 1.93536 124 110 100
0.96966 -3.87181 1.94306 126 110 100
0.96322 -3.88812 1.95078 125 109 98
0.95675 -3.90449 1.95852 123 109 97
0.95027 -3.92091 1.96629 122 110 94
0.94376 -3.93738 1.97409 123 108 91
0.93724 -3.95390 1.98190 122 107 91
0.93069 -3.97047 1.98974 122 108 94
0.92413 -3.98710 1.99761 123 110 98
0.91754 -4.00377 2.00550 123 109 94
0.91093 -4.02050 2.01341 123 107 94
0.90430 -4.03728 2.02135 121 106 92
0.89766 -4.05411 2.02932 118 103 89
0.89099 -4.07100 2.03731 114 100 87
0.88429 -4.08794 2.04532 107 101 94
1.26856 -3.12502 1.57152 134 121 110
1.26299 -3.13912 1.57816 137 124 113
1.25741 -3.15326 1.58483 139 125 112
1.25181 -3.16745 1.59151 138 123 115
1.24620 -3.18168 1.59822 134 120 114
1.24057 -3.19594 1.60494 132 120 110
1.02016 -3.75452 1.86820 127 113 100
1.01386 -3.77049 1.87573 125 112 94
1.00754 -3.78652 1.88328 124 111 95
1.00120 -3.80259 1.89086 125 110 96
0.99483 -3.81872 1.89845 125 111 94
0.98845 -3.83489 1.90608 124 110 94
0.98205 -3.85111 1.91372 123 108 97
0.97563 -3.86738 1.92139 124 108 101
0.96919 -3.88371 1.92908 127 109 101
0.96273 -3.90008 1.93680 125 107 101
0.95625 -3.91651 1.94454 124 107 98
0.94975 -3.93298 1.95231 123 109 90
0.94323 -3.94951 1.96010 123 108 85
0.93668 -3.96609 1.96791 122 108 86
0.93012 -3.98272 1.97575 121 108 94
0.92354 -3.99940 1.98361 124 108 96
0.91694 -4.01614 1.99150 124 107 96
0.91031 -4.03292 1.99941 122 107 95
0.90367 -4.04976 2.00735 120 105 90
0.89700 -4.06666 2.01531 117 102 88
0.89031 -4.08360 2.02330 113 100 89
1.25199 -3.17701 1.57768 136 121 109
1.24637 -3.19129 1.58438 133 119 109
1.24073 -3.20560 1.59110 135 120 106
1.01981 -3.76603 1.85419 127 110 99
1.01350 -3.78206 1.86171 126 110 91
1.00716 -3.79814 1.86926 124 110 91
1.00080 -3.81427 1.87683 125 110 94
0.99442 -3.83045 1.88443 125 110 96
0.98802 -3.84668 1.89205 125 109 95
0.98161 -3.86295 1.89969 124 107 95
0.97517 -3.87928 1.90735 125 108 100
0.96871 -3.89566 1.91504 126 108 102
0.96224 -3.91210 1.92276 125 107 99
0.95574 -3.92858 1.93049 125 108 95
0.94922 -3.94511 1.93826 124 108 91
0.94268 -3.96170 1.94604 123 107 88
0.93613 -3.97834 1.95385 122 107 86
0.92955 -3.99502 1.96169 122 107 95
0.92295 -4.01177 1.96955 123 107 97
0.91633 -4.02856 1.97743 122 107 93
0.90969 -4.04541 1.98534 121 106 90
0.90303 -4.06231 1.99327 119 104 88
0.89634 -4.07926 2.00123 116 100 87
0.88964 -4.09627 2.00921 113 98 89
1.24654 -3.20094 1.57048 130 120 108
1.24088 -3.21530 1.57720 133 123 112
1.01946 -3.77759 1.84011 127 110 98
1.01313 -3.79368 1.84763 127 108 93
1.00677 -3.80981 1.85518 125 108 93
1.00040 -3.82600 1.86274 125 109 97
0.99401 -3.84223 1.87033 125 109 99
0.98759 -3.85852 1.87795 125 108 98
0.98116 -3.87485 1.88559 126 107 95
0.97471 -3.89124 1.89325 126 108 96
0.96824 -3.90768 1.90093 127 109 97
0.96174 -3.92417 1.90864 125 108 93
0.95523 -3.94071 1.91638 124 108 88
0.94870 -3.95730 1.92414 123 108 86
0.94214 -3.97394 1.93192 122 106 90
0.93557 -3.99064 1.93973 122 105 90
0.92897 -4.00739 1.94756 123 105 96
0.92236 -4.02419 1.95541 121 105 96
0.91572 -4.04105 1.96329 120 107 90
0.90906 -4.05795 1.97120 120 105 87
0.90238 -4.07491 1.97913 118 101 86
0.89568 -4.09193 1.98708 115 97 83
0.88896 -4.10900 1.99507 113 98 86
1.24104 -3.22504 1.56323 133 123 109
1.01911 -3.78921 1.82597 126 111 96
1.01276 -3.80535 1.83348 127 110 92
1.00639 -3.82154 1.84102 126 110 92
1.00000 -3.83778 1.84859 125 111 95
0.99359 -3.85407 1.85617 126 110 97
0.98716 -3.87042 1.86378 125 108 97
0.98071 -3.88681 1.87142 125 107 96
0.97425 -3.90325 1.87908 127 107 96
0.96776 -3.91975 1.88676 128 108 94
0.96125 -3.93630 1.89447 124 107 91
0.95472 -3.95290 1.90220 122 107 87
0.94817 -3.96955 1.90995 121 107 85
0.94160 -3.98625 1.91773 120 105 90
0.93501 -4.00301 1.92553 119 104 92
0.92839 -4.01981 1.93336 123 104 94
0.92176 -4.03668 1.94121 122 104 91
0.91511 -4.05359 1.94909 120 105 88
0.90843 -4.07056 1.95699 120 102 88
0.90174 -4.08758 1.96492 117 98 85
0.89502 -4.10466 1.97287 114 96 80
1.24120 -3.23482 1.54921 134 123 113
1.01875 -3.80088 1.81176 126 111 98
1.01239 -3.81708 1.81927 126 111 96
1.00600 -3.83332 1.82680 126 111 94
0.99960 -3.84962 1.83436 125 112 94
0.99317 -3.86597 1.84195 124 111 95
0.98673 -3.88237 1.84955 124 108 96
0.98026 -3.89882 1.85718 125 107 97
0.97378 -3.91532 1.86484 126 107 96
0.96727 -3.93188 1.87252 126 107 93
0.96075 -3.94848 1.88022 123 106 91
0.95420 -3.96514 1.88795 121 106 89
0.94764 -3.98185 1.89570 119 104 86
0.94105 -3.99861 1.90347 119 102 86
0.93444 -4.01543 1.91127 120 102 91
0.92781 -4.03230 1.91909 122 103 93
0.92116 -4.04922 1.92694 121 104 92
0.91449 -4.06620 1.93482 120 103 89
0.90780 -4.08323 1.94271 119 100 91
0.90109 -4.10031 1.95064 116 98 85
0.89435 -4.11745 1.95859 113 95 82
1.01840 -3.81260 1.79748 126 110 100
1.01201 -3.82886 1.80499 125 110 100
1.00561 -3.84516 1.81252 126 110 99
0.99919 -3.86152 1.82007 127 111 98
0.99275 -3.87793 1.82765 125 110 96
0.98629 -3.89438 1.83526 125 108 93
0.97981 -3.91089 1.84288 125 107 94
0.97331 -3.92745 1.85053 125 107 95
0.96679 -3.94406 1.85821 124 106 89
0.96025 -3.96073 1.86590 122 105 88
0.95368 -3.97745 1.87363 120 104 90
0.94710 -3.99422 1.88137 118 102 88
0.94050 -4.01104 1.88914 120 101 87
0.93387 -4.02791 1.89694 123 101 91
0.92723 -4.04484 1.90476 121 103 90
0.92056 -4.06183 1.91260 119 104 90
0.91387 -4.07886 1.92047 118 102 87
0.90716 -4.09595 1.92837 117 100 87
0.90043 -4.11310 1.93629 115 98 83
1.01804 -3.82439 1.78313 126 110 98
1.01164 -3.84070 1.79064 125 110 99
1.00522 -3.85706 1.79817 125 110 100
0.99879 -3.87347 1.80572 126 110 100
0.99233 -3.88994 1.81329 125 109 96
0.98585 -3.90645 1.82089 124 108 91
0.97936 -3.92302 1.82851 123 107 92
0.97284 -3.93964 1.83616 124 107 94
0.96630 -3.95631 1.84383 123 105 89
0.95974 -3.97303 1.85152 122 104 89
0.95316 -3.98981 1.85924 120 102 93
0.94656 -4.00664 1.86698 118 101 91
0.93994 -4.02352 1.87475 120 101 88
0.93330 -4.04046 1.88254 122 100 89
0.92664 -4.05745 1.89036 121 102 87
0.91996 -4.07449 1.89820 119 103 85
0.91325 -4.09159 1.90606 119 102 83
0.90652 -4.10874 1.91395 118 100 81
0.89978 -4.12595 1.92187 116 97 82
1.01768 -3.83622 1.76872 126 110 97
1.01126 -3.85259 1.77622 125 110 96
1.00483 -3.86901 1.78374 125 110 98
0.99838 -3.88548 1.79129 125 110 99
0.99191 -3.90200 1.79886 124 109 95
0.98541 -3.91858 1.80645 122 107 93
0.97890 -3.93520 1.81407 122 106 96
0.97237 -3.95188 1.82171 123 107 98
0.96581 -3.96861 1.82938 122 105 95
0.95924 -3.98540 1.83707 121 103 94
0.95264 -4.00223 1.84478 120 101 93
0.94602 -4.01912 1.85252 119 101 91
0.93939 -4.03607 1.86028 120 102 85
0.93273 -4.05306 1.86807 121 101 86
0.92605 -4.07011 1.87588 121 101 87
0.91935 -4.08722 1.88372 119 101 84
0.91263 -4.10438 1.89158 119 100 83
0.90588 -4.12159 1.89947 119 99 81
0.89912 -4.13886 1.90738 115 97 80
1.03011 -3.81542 1.73932 126 111 96
1.02372 -3.83174 1.74677 126 111 100
1.01731 -3.84812 1.75424 125 110 100
1.01089 -3.86454 1.76173 126 110 99
1.00444 -3.88102 1.76925 125 110 100
0.99797 -3.89755 1.77679 125 110 98
0.99148 -3.91413 1.78436 123 109 95
0.98497 -3.93076 1.79195 121 107 94
0.97844 -3.94745 1.79956 121 106 97
0.97189 -3.96419 1.80720 123 106 98
0.96532 -3.98098 1.81486 122 103 97
0.95873 -3.99782 1.82254 120 101 94
0.95212 -4.01472 1.83025 119 100 89
0.94548 -4.03167 1.83799 118 101 87
0.93883 -4.04867 1.84575 119 101 84
0.93215 -4.06573 1.85353 119 100 85
0.92546 -4.08284 1.86134 119 100 87
0.91874 -4.10001 1.86917 119 101 87
0.91200 -4.11723 1.87703 117 99 87
0.90524 -4.13451 1.88491 116 98 83
0.89845 -4.15184 1.89282 116 97 80
1.03616 -3.81093 1.71736 126 111 95
1.02978 -3.82726 1.72478 126 110 95
1.02337 -3.84364 1.73222 125 110 101
1.01695 -3.86007 1.73969 125 110 102
1.01051 -3.87655 1.74718 125 110 102
1.00404 -3.89309 1.75469 126 110 100
0.99756 -3.90968 1.76223 126 110 96
0.99105 -3.92631 1.76979 124 108 92
0.98453 -3.94301 1.77737 122 107 89
0.97798 -3.95975 1.78498 122 106 91
0.97141 -3.97655 1.79261 123 104 96
0.96483 -3.99340 1.80027 121 101 96
0.95822 -4.01030 1.80795 119 100 94
0.95159 -4.02726 1.81566 118 100 85
0.94494 -4.04427 1.82339 117 101 82
0.93827 -4.06134 1.83114 118 100 84
0.93157 -4.07846 1.83892 119 99 84
0.92486 -4.09563 1.84672 117 99 82
0.91812 -4.11286 1.85455 118 100 89
0.91137 -4.13015 1.86241 115 100 90
0.90459 -4.14749 1.87029 115 99 86
0.89779 -4.16488 1.87819 117 96 84
1.03584 -3.82276 1.70276 125 112 92
1.02944 -3.83915 1.71017 126 112 93
1.02302 -3.85559 1.71761 126 111 98
1.01658 -3.87208 1.72507 125 110 101
1.01012 -3.88862 1.73255 125 109 103
1.00364 -3.90521 1.74006 126 109 100
0.99714 -3.92186 1.74759 127 108 94
0.99062 -3.93856 1.75515 125 107 89
0.98408 -3.95531 1.76273 122 105 86
0.97752 -3.97211 1.77033 122 104 88
0.97093 -3.98897 1.77796 121 103 94
0.96433 -4.00588 1.78561 119 101 94
0.95770 -4.02285 1.79329 118 100 93
0.95106 -4.03986 1.80099 117 99 85
0.94439 -4.05694 1.80871 116 100 82
0.93770 -4.07406 1.81646 118 101 84
0.93099 -4.09125 1.82424 119 100 84
0.92426 -4.10848 1.83204 117 98 80
0.91751 -4.12578 1.83986 118 99 87
0.91073 -4.14312 1.84771 114 100 89
0.90394 -4.16053 1.85559 114 99 86
0.89712 -4.17799 1.86349 114 96 86
1.03552 -3.83465 1.68808 126 114 95
1.02911 -3.85110 1.69549 126 114 95
1.02267 -3.86759 1.70292 126 113 97
1.01622 -3.88414 1.71038 125 110 98
1.00974 -3.90074 1.71786 124 109 101
1.00324 -3.91740 1.72536 124 108 99
0.99673 -3.93410 1.73289 125 108 93
0.99019 -3.95086 1.74044 124 106 91
0.98363 -3.96767 1.74801 122 104 89
0.97705 -3.98453 1.75561 120 102 89
0.97045 -4.00145 1.76324 119 101 91
0.96383 -4.01842 1.77088 118 100 90
0.95719 -4.03545 1.77855 118 99 89
0.95053 -4.05253 1.78625 116 98 85
0.94384 -4.06967 1.79397 116 100 85
0.93714 -4.08685 1.80171 118 102 85
0.93041 -4.10410 1.80948 117 101 84
0.92366 -4.12140 1.81728 117 100 81
0.91689 -4.13875 1.82510 116 100 84
0.91010 -4.15617 1.83294 117 100 85
0.90328 -4.17363 1.84081 116 98 85
0.89645 -4.19116 1.84871 114 96 87
1.03520 -3.84660 1.67334 127 115 99
1.02877 -3.86310 1.68074 127 114 101
1.02232 -3.87966 1.68817 126 112 99
1.01585 -3.89627 1.69562 126 110 95
1.00935 -3.91293 1.70309 124 109 95
1.00284 -3.92964 1.71059 123 108 94
0.99631 -3.94640 1.71811 123 107 91
0.98975 -3.96322 1.72566 122 106 90
0.98318 -3.98009 1.73323 122 103 89
0.97658 -3.99702 1.74082 121 100 89
0.96997 -4.01400 1.74844 118 99 90
0.96333 -4.03103 1.75608 117 98 90
0.95667 -4.04812 1.76375 118 99 87
0.94999 -4.06526 1.77144 117 99 84
0.94329 -4.08246 1.77915 118 99 88
0.93657 -4.09971 1.78689 119 100 88
0.92982 -4.11701 1.79466 117 101 83
0.92305 -4.13438 1.80245 117 101 80
0.91627 -4.15180 1.81026 115 101 83
0.90946 -4.16927 1.81810 117 100 87
0.90262 -4.18680 1.82597 116 97 86
0.89577 -4.20439 1.83386 114 96 87
1.03488 -3.85861 1.65852 126 113 103
1.02843 -3.87517 1.66592 126 111 104
1.02196 -3.89178 1.67334 126 109 100
1.01548 -3.90845 1.68079 126 108 94
1.00897 -3.92517 1.68826 124 108 92
1.00244 -3.94194 1.69575 122 107 92
0.99589 -3.95876 1.70327 122 106 90
0.98932 -3.97564 1.71081 122 105 87
0.98273 -3.99257 1.71837 121 102 87
0.97611 -4.00956 1.72596 120 99 88
0.96948 -4.02660 1.73357 118 98 88
0.96283 -4.04369 1.74121 116 98 89
0.95615 -4.06084 1.74887 116 99 86
0.94945 -4.07805 1.75655 115 99 83
0.94273 -4.09531 1.76427 117 99 88
0.93599 -4.11262 1.77200 117 99 89
0.92923 -4.12999 1.77976 117 100 83
0.92245 -4.14742 1.78755 117 100 82
0.91564 -4.16490 1.79536 116 100 85
0.90881 -4.18244 1.80319 116 100 90
0.90196 -4.20004 1.81105 115 96 85
1.03455 -3.87067 1.64364 127 111 100
1.02809 -3.88729 1.65103 126 110 99
1.02161 -3.90396 1.65845 125 108 98
1.01510 -3.92069 1.66589 124 107 95
1.00858 -3.93747 1.67335 122 106 94
1.00203 -3.95430 1.68084 121 105 94
0.99547 -3.97118 1.68835 122 104 91
0.98888 -3.98812 1.69588 122 103 87
0.98227 -4.00512 1.70344 119 101 86
0.97564 -4.02216 1.71102 116 98 87
0.96899 -4.03927 1.71863 116 96 85
0.96232 -4.05642 1.72626 117 97 85
0.95563 -4.07363 1.73392 116 98 84
0.94891 -4.09090 1.74160 115 99 82
0.94218 -4.10822 1.74930 116 99 84
0.93542 -4.12560 1.75703 118 99 87
0.92864 -4.14304 1.76479 117 99 85
0.92184 -4.16053 1.77257 117 99 85
0.91501 -4.17807 1.78037 116 99 86
0.90817 -4.19568 1.78820 117 99 83
0.90130 -4.21334 1.79606 114 96 78
1.03423 -3.88279 1.62868 127 111 96
1.02775 -3.89947 1.63607 126 111 95
1.02125 -3.91620 1.64348 125 108 96
1.01473 -3.93299 1.65091 123 106 95
1.00819 -3.94983 1.65837 122 105 96
1.00162 -3.96672 1.66585 121 105 96
0.99504 -3.98366 1.67335 122 104 91
0.98844 -4.00066 1.68088 120 102 88
0.98181 -4.01772 1.68844 117 101 85
0.97517 -4.03483 1.69601 114 98 84
0.96850 -4.05199 1.70362 115 96 84
0.96181 -4.06921 1.71124 116 97 83
0.95510 -4.08649 1.71889 117 97 83
0.94837 -4.10382 1.72657 116 99 81
0.94161 -4.12120 1.73427 116 100 80
0.93484 -4.13864 1.74199 117 99 86
0.92804 -4.15614 1.74974 117 98 88
0.92122 -4.17370 1.75752 118 99 86
0.91438 -4.19131 1.76532 116 99 85
0.90752 -4.20898 1.77314 117 98 77
0.90063 -4.22671 1.78099 114 96 72
1.03390 -3.89497 1.61365 125 112 97
1.02740 -3.91171 1.62103 125 111 96
1.02089 -3.92850 1.62843 123 108 95
1.01435 -3.94535 1.63586 122 106 93
1.00779 -3.96225 1.64331 122 104 94
1.00121 -3.97920 1.65079 122 103 94
0.99462 -3.99621 1.65829 121 103 91
0.98800 -4.01327 1.66581 119 102 88
0.98135 -4.03038 1.67336 117 101 86
0.97469 -4.04756 1.68093 115 99 84
0.96801 -4.06478 1.68853 114 97 85
0.96130 -4.08206 1.69615 115 96 84
0.95457 -4.09940 1.70379 117 95 84
0.94782 -4.11680 1.71146 116 98 84
0.94105 -4.13425 1.71916 115 99 84
0.93426 -4.15175 1.72688 114 98 84
0.92744 -4.16931 1.73462 115 98 85
0.92061 -4.18693 1.74239 116 98 83
0.91375 -4.20461 1.75019 114 97 82
0.90686 -4.22235 1.75801 115 96 82
0.89996 -4.24014 1.76585 114 95 82
1.03357 -3.90721 1.59855 125 112 99
1.02706 -3.92401 1.60592 124 109 95
1.02053 -3.94086 1.61332 123 107 92
1.01397 -3.95777 1.62074 121 105 92
1.00740 -3.97473 1.62819 122 104 93
1.00080 -3.99174 1.63566 122 103 92
0.99419 -4.00881 1.64315 121 103 90
0.98755 -4.02593 1.65067 118 102 88
0.98089 -4.04311 1.65821 116 101 88
0.97421 -4.06035 1.66578 114 99 88
0.96751 -4.07763 1.67337 113 97 89
0.96079 -4.09498 1.68098 113 95 89
0.95404 -4.11238 1.68862 114 94 87
0.94727 -4.12984 1.69629 115 97 85
0.94048 -4.14735 1.70397 114 98 83
0.93367 -4.16492 1.71169 113 98 84
0.92684 -4.18255 1.71943 115 97 85
0.91999 -4.20024 1.72719 117 97 84
0.91311 -4.21798 1.73498 114 97 81
0.90621 -4.23578 1.74280 114 95 84
0.89928 -4.25364 1.75064 113 94 91
1.03324 -3.91950 1.58337 125 110 96
1.02671 -3.93636 1.59074 124 108 92
1.02016 -3.95328 1.59813 123 107 88
1.01359 -3.97025 1.60555 122 106 90
1.00700 -3.98727 1.61299 121 104 92
1.00039 -4.00434 1.62045 120 103 89
0.99376 -4.02147 1.62794 118 102 90
0.98710 -4.03866 1.63545 117 101 88
0.98043 -4.05590 1.64299 116 100 87
0.97373 -4.07320 1.65055 114 98 87
0.96701 -4.09055 1.65813 112 96 89
0.96027 -4.10796 1.66574 112 95 90
0.95351 -4.12542 1.67337 111 96 87
0.94672 -4.14295 1.68103 113 97 84
0.93992 -4.16053 1.68871 115 97 78
0.93309 -4.17816 1.69642 114 97 82
0.92624 -4.19586 1.70416 113 97 85
0.91936 -4.21361 1.71191 114 96 89
0.91247 -4.23142 1.71970 113 96 82
0.90555 -4.24928 1.72751 113 95 80
1.03291 -3.93186 1.56812 125 108 93
1.02636 -3.94878 1.57548 123 107 92
1.01980 -3.96576 1.58287 123 107 90
1.01321 -3.98279 1.59028 122 106 87
1.00660 -3.99987 1.59771 121 103 86
0.99997 -4.01701 1.60517 118 102 87
0.99332 -4.03420 1.61265 117 101 90
0.98665 -4.05145 1.62016 116 100 87
0.97996 -4.06875 1.62769 114 98 84
0.97325 -4.08611 1.63524 112 96 83
0.96651 -4.10353 1.64282 111 94 83
0.95975 -4.12100 1.65042 109 94 83
0.95297 -4.13853 1.65805 107 95 83
0.94617 -4.15612 1.66570 110 96 83
0.93934 -4.17376 1.67338 112 96 80
0.93250 -4.19147 1.68108 111 96 82
0.92563 -4.20922 1.68881 110 95 84
0.91874 -4.22704 1.69656 110 95 88
0.91182 -4.24492 1.70434 111 95 83
0.90489 -4.26285 1.71214 111 94 80
1.03257 -3.94428 1.55280 123 107 92
1.02601 -3.96126 1.56015 123 107 91
1.01943 -3.97830 1.56753 123 107 91
1.01283 -3.99539 1.57494 122 105 86
1.00620 -4.01253 1.58236 120 103 85
0.99956 -4.02973 1.58981 117 100 88
0.99289 -4.04699 1.59729 115 99 90
0.98620 -4.06430 1.60479 114 98 85
0.97949 -4.08167 1.61231 111 97 81
1.03224 -3.95676 1.53740 121 105 90
1.02566 -3.97380 1.54475 121 106 89
1.01906 -3.99090 1.55212 121 105 89
1.01244 -4.00805 1.55952 120 102 88
1.00580 -4.02526 1.56694 117 99 87
0.99914 -4.04252 1.57438 113 97 86
1.03190 -3.96930 1.52193 117 101 88
1.02531 -3.98640 1.52927 115 101 89
1.01869 -4.00356 1.53663 116 103 92
1.01205 -4.02078 1.54402 116 100 93
1.07638 -3.38420 2.05205 129 122 111
1.08414 -3.37764 2.03157 136 123 110
1.07801 -3.39279 2.03724 133 122 103
1.07186 -3.40798 2.04292 136 124 115
1.11623 -3.31092 1.98868 139 129 122
1.11018 -3.32589 1.99425 139 127 119
1.10411 -3.34091 1.99984 137 125 116
1.09802 -3.35596 2.00545 137 126 118
1.09192 -3.37107 2.01107 139 126 120
1.08579 -3.38621 2.01671 136 124 110
1.07965 -3.40140 2.02237 133 123 107
1.07349 -3.41664 2.02804 136 124 114
1.06731 -3.43192 2.03373 139 126 117
0.99174 -3.61886 2.10333 129 121 106
0.98532 -3.63474 2.10924 129 118 108
1.16581 -3.20076 1.92987 153 143 130
1.15989 -3.21543 1.93530 150 137 132
1.15395 -3.23014 1.94076 150 133 124
1.14799 -3.24489 1.94622 148 132 123
1.14201 -3.25969 1.95171 145 133 123
1.13602 -3.27453 1.95721 143 133 122
1.13001 -3.28941 1.96272 142 132 121
1.12398 -3.30434 1.96825 141 130 121
1.11794 -3.31931 1.97380 140 129 125
1.11188 -3.33433 1.97937 139 129 124
1.10580 -3.34938 1.98495 136 127 118
1.09970 -3.36449 1.99054 138 126 115
1.09358 -3.37963 1.99616 139 125 117
1.08745 -3.39482 2.00179 137 123 111
1.08130 -3.41006 2.00743 135 122 111
1.07513 -3.42534 2.01309 137 122 114
1.06894 -3.44066 2.01877 137 124 118
1.06273 -3.45603 2.02447 138 125 116
0.99965 -3.61227 2.08237 131 120 107
0.99323 -3.62815 2.08825 130 119 105
0.98680 -3.64408 2.09416 130 118 110
1.19116 -3.15042 1.89347 157 144 127
1.18530 -3.16497 1.89883 151 136 126
1.17942 -3.17955 1.90421 146 131 120
1.17352 -3.19418 1.90961 142 129 119
1.16760 -3.20885 1.91502 139 129 126
1.16167 -3.22356 1.92044 142 131 128
1.15572 -3.23831 1.92588 145 133 126
1.14975 -3.25311 1.93134 146 134 123
1.14377 -3.26795 1.93681 145 133 121
1.13777 -3.28283 1.94230 145 133 122
1.13175 -3.29776 1.94781 144 132 120
1.12571 -3.31272 1.95333 143 131 119
1.11965 -3.32774 1.95887 141 130 122
1.11358 -3.34279 1.96442 140 128 122
1.10749 -3.35790 1.96999 137 127 114
1.10138 -3.37304 1.97558 137 125 108
