ply
format ascii 1.0
element face 0
property list uchar int vertex_indices
element vertex 1268
property float x
property float y
property float z
property uchar diffuse_red
property uchar diffuse_green
property uchar diffuse_blue
end_header
-0.90859 -3.64660 2.02851 184 180 176
-0.91981 -3.65008 2.02987 184 178 174
-0.93101 -3.65356 2.03123 183 177 174
-0.94220 -3.65704 2.03258 182 176 173
-0.95337 -3.66051 2.03394 182 177 172
-0.96454 -3.66398 2.03529 181 178 174
-0.97569 -3.66745 2.03664 181 177 175
-0.98683 -3.67091 2.03799 182 174 177
-0.99796 -3.67437 2.03934 182 173 180
-1.00908 -3.67782 2.04069 181 173 178
-1.02019 -3.68127 2.04204 180 173 172
-1.03128 -3.68472 2.04338 179 172 173
-1.04236 -3.68816 2.04472 177 170 172
-1.05343 -3.69160 2.04606 176 169 166
-1.06449 -3.69504 2.04741 175 167 163
-1.07554 -3.69847 2.04874 173 165 166
-1.08657 -3.70190 2.05008 173 164 167
-1.09760 -3.70532 2.05142 173 164 167
-1.10861 -3.70874 2.05275 171 167 165
-1.11961 -3.71216 2.05409 173 167 168
-1.13060 -3.71557 2.05542 173 167 175
-1.14157 -3.71898 2.05675 172 166 176
-1.15254 -3.72239 2.05808 171 165 176
-1.16349 -3.72579 2.05940 172 164 169
-1.17443 -3.72919 2.06073 172 162 167
-1.18536 -3.73259 2.06206 173 161 162
-1.19628 -3.73598 2.06338 171 160 161
-0.83240 -3.60445 2.00517 183 178 178
-0.84363 -3.60795 2.00654 185 179 174
-0.85486 -3.61144 2.00791 186 179 172
-0.86607 -3.61494 2.00928 186 178 173
-0.87727 -3.61843 2.01064 185 177 173
-0.88846 -3.62191 2.01200 184 177 175
-0.89964 -3.62540 2.01337 184 178 177
-0.91081 -3.62887 2.01473 184 178 177
-0.92196 -3.63235 2.01609 183 179 178
-0.93310 -3.63582 2.01744 183 179 179
-0.94423 -3.63929 2.01880 183 178 177
-0.95535 -3.64275 2.02016 183 178 174
-0.96645 -3.64621 2.02151 182 178 177
-0.97755 -3.64967 2.02286 182 176 178
-0.98863 -3.65312 2.02421 183 174 178
-0.99970 -3.65657 2.02556 183 173 178
-1.01076 -3.66002 2.02691 182 174 177
-1.02181 -3.66346 2.02826 182 174 174
-1.03285 -3.66690 2.02960 181 173 173
-1.04387 -3.67033 2.03094 180 172 174
-1.05488 -3.67376 2.03229 179 171 171
-1.06588 -3.67719 2.03363 177 169 171
-1.07687 -3.68062 2.03497 175 168 172
-1.08785 -3.68404 2.03630 176 166 172
-1.09882 -3.68745 2.03764 175 165 170
-1.10977 -3.69087 2.03898 172 166 167
-1.12071 -3.69427 2.04031 174 167 167
-1.13164 -3.69768 2.04164 175 168 173
-1.14256 -3.70108 2.04297 174 168 174
-1.15347 -3.70448 2.04430 173 168 176
-1.16437 -3.70788 2.04563 175 168 175
-1.17526 -3.71127 2.04696 176 168 174
-1.18613 -3.71466 2.04828 177 167 170
-1.19699 -3.71804 2.04961 175 164 164
-1.20784 -3.72142 2.05093 177 163 161
-1.21868 -3.72480 2.05225 174 162 160
-1.22951 -3.72817 2.05357 170 162 161
-0.86850 -3.59743 1.99563 186 180 176
-0.87964 -3.60091 1.99700 185 179 175
-0.89077 -3.60439 1.99836 184 179 175
-0.90189 -3.60786 1.99973 183 178 177
-0.91299 -3.61133 2.00109 184 177 177
-0.92409 -3.61480 2.00245 184 178 180
-0.93517 -3.61826 2.00380 185 179 184
-0.94624 -3.62172 2.00516 184 180 181
-0.95730 -3.62517 2.00652 183 180 174
-0.96835 -3.62863 2.00787 184 179 174
-0.97939 -3.63207 2.00922 184 177 176
-0.99041 -3.63552 2.01057 183 175 179
-1.00142 -3.63896 2.01192 183 175 179
-1.01243 -3.64240 2.01327 182 176 178
-1.02342 -3.64583 2.01462 180 176 173
-1.03439 -3.64926 2.01596 181 175 169
-1.04536 -3.65269 2.01731 181 174 172
-1.05632 -3.65611 2.01865 181 174 174
-1.06726 -3.65953 2.01999 180 172 178
-1.07819 -3.66294 2.02133 179 171 178
-1.08911 -3.66636 2.02267 178 170 176
-1.10002 -3.66977 2.02401 179 169 173
-1.11092 -3.67317 2.02534 177 169 170
-1.12181 -3.67657 2.02668 176 169 170
-1.13268 -3.67997 2.02801 178 167 172
-1.14355 -3.68336 2.02934 177 169 171
-1.15440 -3.68675 2.03067 176 170 173
-1.16524 -3.69014 2.03200 177 170 175
-1.17607 -3.69352 2.03332 177 170 179
-1.18689 -3.69690 2.03465 177 171 179
-1.19769 -3.70028 2.03597 177 168 170
-1.20849 -3.70365 2.03730 177 168 166
-1.21927 -3.70702 2.03862 176 169 164
-1.23005 -3.71039 2.03994 173 168 164
-1.24081 -3.71375 2.04126 173 166 165
-0.89305 -3.58704 1.98486 184 181 178
-0.90411 -3.59051 1.98623 185 179 180
-0.91516 -3.59397 1.98759 187 178 175
-0.92620 -3.59743 1.98895 186 178 177
-0.93722 -3.60088 1.99031 186 178 181
-0.94823 -3.60433 1.99166 184 179 178
-0.95924 -3.60778 1.99302 183 180 172
-0.97023 -3.61122 1.99437 186 181 173
-0.98121 -3.61466 1.99572 185 179 177
-0.99217 -3.61810 1.99708 185 177 181
-1.00313 -3.62153 1.99843 185 178 179
-1.01407 -3.62496 1.99977 183 177 181
-1.02501 -3.62838 2.00112 182 177 179
-1.03593 -3.63180 2.00247 182 177 174
-1.04684 -3.63522 2.00381 182 176 171
-1.05774 -3.63864 2.00515 182 175 174
-1.06862 -3.64205 2.00649 182 175 181
-1.07950 -3.64545 2.00783 180 176 182
-1.09036 -3.64886 2.00917 179 174 178
-1.10122 -3.65226 2.01051 179 173 177
-1.11206 -3.65566 2.01185 179 173 176
-1.12289 -3.65905 2.01318 180 173 175
-1.13371 -3.66244 2.01451 181 171 173
-1.14452 -3.66582 2.01584 180 171 173
-1.15531 -3.66921 2.01717 178 172 172
-1.16610 -3.67259 2.01850 179 171 168
-1.17687 -3.67596 2.01983 179 169 174
-1.18763 -3.67933 2.02116 177 170 173
-1.19839 -3.68270 2.02248 179 171 170
-1.20913 -3.68607 2.02380 179 171 169
-1.21986 -3.68943 2.02513 179 172 169
-1.23058 -3.69279 2.02645 175 171 165
-1.24128 -3.69614 2.02777 175 169 161
-1.25198 -3.69949 2.02908 178 172 171
-0.91730 -3.57678 1.97423 187 178 178
-0.92828 -3.58023 1.97559 187 179 178
-0.93925 -3.58368 1.97694 186 178 180
-0.95021 -3.58712 1.97830 186 178 178
-0.96115 -3.59056 1.97966 185 178 175
-0.97208 -3.59399 1.98101 185 178 177
-0.98301 -3.59742 1.98236 185 178 177
-0.99392 -3.60085 1.98371 185 179 177
-1.00482 -3.60427 1.98506 186 180 178
-1.01570 -3.60769 1.98641 187 178 182
-1.02658 -3.61111 1.98776 185 178 182
-1.03744 -3.61452 1.98911 185 178 179
-1.04830 -3.61793 1.99045 183 178 177
-1.05914 -3.62134 1.99179 184 177 180
-1.06997 -3.62474 1.99313 182 177 182
-1.08079 -3.62814 1.99447 180 177 183
-1.09160 -3.63154 1.99581 181 176 182
-1.10240 -3.63493 1.99715 181 176 180
-1.11319 -3.63832 1.99849 181 175 180
-1.12396 -3.64170 1.99982 181 174 179
-1.13472 -3.64508 2.00115 181 174 178
-1.14548 -3.64846 2.00248 180 174 180
-1.15622 -3.65184 2.00382 180 174 179
-1.16695 -3.65521 2.00514 180 173 172
-1.17767 -3.65858 2.00647 181 171 174
-1.18838 -3.66194 2.00780 178 171 173
-1.19907 -3.66530 2.00912 180 171 170
-1.20976 -3.66866 2.01045 180 171 171
-1.22043 -3.67201 2.01177 181 175 181
-1.23110 -3.67536 2.01309 179 175 176
-1.24175 -3.67871 2.01441 178 176 173
-1.25239 -3.68205 2.01573 181 176 177
-1.26303 -3.68539 2.01704 179 174 180
-1.27365 -3.68873 2.01836 179 174 176
-0.94126 -3.56665 1.96372 185 181 186
-0.95216 -3.57008 1.96507 187 181 185
-0.96304 -3.57351 1.96643 186 180 180
-0.97392 -3.57694 1.96778 186 179 180
-0.98479 -3.58036 1.96914 186 179 178
-0.99564 -3.58378 1.97049 185 177 176
-1.00648 -3.58719 1.97184 186 179 179
-1.01732 -3.59061 1.97319 188 180 183
-1.02814 -3.59401 1.97453 187 179 182
-1.03895 -3.59742 1.97588 187 178 180
-1.04975 -3.60082 1.97722 186 178 176
-1.06053 -3.60422 1.97857 186 178 179
-1.07131 -3.60761 1.97991 184 178 181
-1.08207 -3.61100 1.98125 182 178 182
-1.09283 -3.61439 1.98259 183 178 182
-1.10357 -3.61777 1.98392 183 178 181
-1.11430 -3.62116 1.98526 183 177 181
-1.12502 -3.62453 1.98660 183 176 180
-1.13573 -3.62791 1.98793 184 176 180
-1.14643 -3.63128 1.98926 183 175 181
-1.15711 -3.63464 1.99059 182 175 182
-1.16779 -3.63800 1.99192 181 174 179
-1.17846 -3.64136 1.99325 181 174 179
-1.18911 -3.64472 1.99457 181 173 178
-1.19975 -3.64807 1.99590 181 172 175
-1.21039 -3.65142 1.99722 180 171 174
-1.22101 -3.65477 1.99854 180 173 181
-1.23162 -3.65811 1.99987 180 174 180
-1.24222 -3.66145 2.00118 179 177 181
-1.25281 -3.66478 2.00250 183 177 179
-1.26338 -3.66811 2.00382 181 176 181
-1.27395 -3.67144 2.00514 180 175 180
-1.28451 -3.67477 2.00645 181 173 179
-0.96492 -3.55664 1.95334 186 182 182
-0.97574 -3.56006 1.95469 187 182 183
-0.98655 -3.56347 1.95604 188 180 180
-0.99735 -3.56688 1.95740 187 178 179
-1.00814 -3.57029 1.95875 185 179 179
-1.01891 -3.57369 1.96009 185 179 180
-1.02968 -3.57709 1.96144 187 180 178
-1.04043 -3.58049 1.96279 189 179 180
-1.05118 -3.58388 1.96413 187 179 179
-1.06191 -3.58727 1.96547 186 180 181
-1.07263 -3.59066 1.96682 186 180 184
-1.08334 -3.59404 1.96816 186 180 185
-1.09404 -3.59742 1.96949 186 180 184
-1.10473 -3.60079 1.97083 184 180 183
-1.11540 -3.60416 1.97217 185 180 181
-1.12607 -3.60753 1.97350 185 178 181
-1.13673 -3.61090 1.97484 187 177 181
-1.14737 -3.61426 1.97617 185 178 182
-1.15800 -3.61762 1.97750 184 178 182
-1.16862 -3.62097 1.97883 183 177 184
-1.17924 -3.62432 1.98016 183 176 183
-1.18984 -3.62767 1.98148 183 175 182
-1.20043 -3.63102 1.98281 183 176 181
-1.21101 -3.63436 1.98413 183 175 178
-1.22157 -3.63770 1.98545 182 176 178
-1.23213 -3.64103 1.98677 181 176 178
-1.24268 -3.64436 1.98809 180 175 179
-1.25321 -3.64769 1.98941 181 174 179
-1.26374 -3.65101 1.99073 180 175 183
-1.27425 -3.65433 1.99204 180 175 183
-1.28476 -3.65765 1.99336 184 177 183
-1.29525 -3.66096 1.99467 181 173 181
-0.99904 -3.55015 1.94443 189 181 180
-1.00977 -3.55355 1.94578 187 181 181
-1.02050 -3.55694 1.94713 186 182 179
-1.03121 -3.56033 1.94848 187 181 177
-1.04191 -3.56372 1.94983 188 180 178
-1.05259 -3.56711 1.95117 187 179 180
-1.06327 -3.57049 1.95251 186 179 183
-1.07394 -3.57387 1.95385 185 179 187
-1.08460 -3.57724 1.95519 186 179 187
-1.09524 -3.58061 1.95653 186 180 183
-1.10587 -3.58398 1.95787 186 181 184
-1.11650 -3.58734 1.95921 185 181 184
-1.12711 -3.59070 1.96054 185 180 183
-1.13771 -3.59406 1.96187 188 179 183
-1.14830 -3.59741 1.96321 188 180 185
-1.15888 -3.60076 1.96454 186 180 183
-1.16945 -3.60411 1.96587 185 179 184
-1.18001 -3.60745 1.96719 186 180 182
-1.20109 -3.61413 1.96984 185 180 181
-1.21162 -3.61746 1.97117 183 178 179
-1.22213 -3.62079 1.97249 182 179 179
-1.23264 -3.62412 1.97381 182 179 178
-1.24313 -3.62744 1.97513 181 177 182
-1.25362 -3.63076 1.97645 182 176 183
-1.26409 -3.63408 1.97777 181 174 183
-1.27455 -3.63739 1.97908 181 174 182
-1.28500 -3.64070 1.98040 179 176 176
-1.29544 -3.64401 1.98171 180 177 181
-1.30587 -3.64731 1.98302 180 177 182
-1.02206 -3.54036 1.93430 187 182 182
-1.03272 -3.54375 1.93565 187 182 179
-1.04336 -3.54713 1.93699 187 181 179
-1.05400 -3.55050 1.93834 188 180 187
-1.06462 -3.55388 1.93968 186 178 189
-1.07524 -3.55725 1.94102 185 178 185
-1.08584 -3.56061 1.94236 188 180 181
-1.09643 -3.56397 1.94370 187 181 179
-1.10701 -3.56733 1.94504 186 181 183
-1.11758 -3.57069 1.94637 185 181 183
-1.12814 -3.57404 1.94771 184 181 182
-1.13869 -3.57739 1.94904 186 180 181
-1.14922 -3.58073 1.95037 187 180 184
-1.15975 -3.58408 1.95170 186 180 184
-1.21223 -3.60074 1.95833 186 181 181
-1.22269 -3.60406 1.95966 185 180 181
-1.23314 -3.60738 1.96098 183 181 181
-1.24358 -3.61069 1.96230 182 180 186
-1.25402 -3.61400 1.96362 183 178 186
-1.26444 -3.61731 1.96493 183 175 186
-1.27485 -3.62062 1.96625 182 177 183
-1.28525 -3.62392 1.96756 178 178 180
-1.29564 -3.62722 1.96888 179 175 184
-1.30601 -3.63051 1.97019 180 175 184
-1.31638 -3.63380 1.97150 182 175 183
-1.04481 -3.53069 1.92429 188 182 183
-1.05539 -3.53406 1.92563 189 181 187
-1.06596 -3.53743 1.92697 187 181 187
-1.07652 -3.54079 1.92831 186 180 183
-1.08707 -3.54415 1.92965 186 181 181
-1.09761 -3.54750 1.93099 187 183 181
-1.10813 -3.55085 1.93233 187 182 181
-1.11865 -3.55420 1.93367 187 181 182
-1.12916 -3.55754 1.93500 186 180 186
-1.13965 -3.56088 1.93633 188 181 185
-1.15014 -3.56422 1.93766 186 183 182
-1.22324 -3.58749 1.94695 186 182 188
-1.23364 -3.59080 1.94827 185 181 191
-1.24403 -3.59410 1.94959 184 181 195
-1.25441 -3.59741 1.95091 185 181 189
-1.26478 -3.60071 1.95222 184 179 187
-1.27514 -3.60401 1.95354 183 179 185
-1.28549 -3.60730 1.95485 181 180 185
-1.29583 -3.61059 1.95617 182 179 187
-1.30616 -3.61388 1.95748 181 179 190
-1.31647 -3.61716 1.95879 178 177 185
-1.32678 -3.62044 1.96010 181 175 186
-1.06728 -3.52114 1.91439 187 182 186
-1.07779 -3.52449 1.91573 190 182 186
-1.08829 -3.52784 1.91707 188 181 185
-1.09877 -3.53119 1.91841 187 182 187
-1.10925 -3.53453 1.91975 187 182 188
-1.22378 -3.57108 1.93436 188 182 190
-1.23413 -3.57438 1.93569 187 182 192
-1.24447 -3.57768 1.93701 187 183 195
-1.25480 -3.58097 1.93832 187 183 191
-1.26512 -3.58427 1.93964 185 183 189
-1.27543 -3.58756 1.94096 185 182 189
-1.28573 -3.59084 1.94227 183 181 188
-1.29602 -3.59413 1.94358 184 181 184
-1.30629 -3.59740 1.94489 183 180 183
-1.31656 -3.60068 1.94620 183 179 188
-1.32682 -3.60395 1.94751 184 177 188
-1.33707 -3.60722 1.94882 183 177 187
-1.08949 -3.51170 1.90462 187 182 183
-1.09993 -3.51504 1.90595 187 182 186
-1.11035 -3.51837 1.90729 188 181 184
-1.12076 -3.52170 1.90862 188 182 186
-1.13117 -3.52503 1.90996 187 182 183
-1.23462 -3.55812 1.92322 187 182 181
-1.24491 -3.56141 1.92454 187 182 191
-1.25519 -3.56470 1.92586 188 184 194
-1.26546 -3.56799 1.92718 188 183 194
-1.27572 -3.57127 1.92849 187 183 194
-1.28597 -3.57455 1.92981 186 182 192
-1.29620 -3.57782 1.93112 186 183 187
-1.30643 -3.58109 1.93243 184 183 186
-1.31665 -3.58436 1.93374 185 180 190
-1.32686 -3.58763 1.93505 185 179 193
-1.33705 -3.59089 1.93636 186 179 191
-1.34724 -3.59415 1.93766 185 180 191
-1.23511 -3.54202 1.91088 188 184 184
-1.24535 -3.54531 1.91220 188 183 190
-1.25557 -3.54859 1.91352 189 185 193
-1.26579 -3.55186 1.91484 190 184 199
-1.27600 -3.55514 1.91615 189 185 202
-1.28620 -3.55841 1.91747 189 184 197
-1.29639 -3.56167 1.91878 188 185 193
-1.30657 -3.56494 1.92009 187 184 191
-1.31674 -3.56820 1.92140 186 181 195
-1.32689 -3.57146 1.92271 187 180 197
-1.33704 -3.57471 1.92401 188 180 198
-1.34718 -3.57796 1.92532 188 181 193
-1.35731 -3.58121 1.92663 186 183 190
-1.23559 -3.52608 1.89866 189 184 184
-1.24578 -3.52935 1.89998 189 185 188
-1.25596 -3.53262 1.90130 192 185 187
-1.26612 -3.53589 1.90261 189 183 194
-1.27628 -3.53916 1.90393 188 183 193
-1.28643 -3.54242 1.90524 189 186 196
-1.29657 -3.54568 1.90655 191 186 194
-1.30670 -3.54894 1.90786 189 184 194
-1.31682 -3.55219 1.90917 188 184 195
-1.32693 -3.55544 1.91048 189 187 193
-1.33703 -3.55869 1.91179 189 182 192
-1.34712 -3.56193 1.91310 189 182 195
-1.35720 -3.56517 1.91440 187 182 192
-1.23606 -3.51029 1.88656 189 184 189
-1.24620 -3.51355 1.88787 190 185 191
-1.25633 -3.51682 1.88919 195 187 190
-1.26645 -3.52008 1.89051 192 184 195
-1.27656 -3.52334 1.89182 188 181 197
-1.28666 -3.52659 1.89313 187 185 198
-1.29675 -3.52984 1.89445 191 187 196
-1.30684 -3.53309 1.89576 191 186 196
-1.31691 -3.53634 1.89707 189 186 196
-1.32697 -3.53958 1.89837 189 187 198
-1.33702 -3.54282 1.89968 192 185 200
-1.34706 -3.54605 1.90099 190 186 198
-1.35709 -3.54928 1.90229 188 183 194
-1.22643 -3.49138 1.87325 190 182 189
-1.23653 -3.49464 1.87457 188 184 192
-1.24662 -3.49790 1.87588 189 185 194
-1.25671 -3.50116 1.87720 192 186 194
-1.26678 -3.50441 1.87852 191 185 199
-1.27684 -3.50766 1.87983 191 186 201
-1.28689 -3.51091 1.88114 191 186 194
-1.29694 -3.51415 1.88245 191 187 197
-1.30697 -3.51739 1.88376 190 187 199
-1.31699 -3.52063 1.88507 190 187 201
-1.32700 -3.52386 1.88638 191 188 197
-1.33701 -3.52710 1.88769 191 187 195
-1.34700 -3.53032 1.88899 191 187 198
-1.35699 -3.53355 1.89030 191 189 197
-1.22694 -3.47590 1.86137 193 183 191
-1.29711 -3.49861 1.87058 190 187 200
-1.30710 -3.50185 1.87189 189 188 198
-1.31707 -3.50507 1.87319 190 188 198
-1.32704 -3.50830 1.87450 192 187 197
-1.33700 -3.51152 1.87581 192 187 198
-1.34694 -3.51474 1.87711 192 189 200
-1.35688 -3.51796 1.87842 193 189 199
-1.31716 -3.48967 1.86143 192 187 194
-1.32708 -3.49288 1.86273 193 188 197
-1.33699 -3.49610 1.86404 194 188 200
-1.34689 -3.49931 1.86534 192 187 206
-1.35678 -3.50252 1.86665 191 186 202
-1.31724 -3.47440 1.84977 193 188 195
-1.32711 -3.47761 1.85108 191 187 196
-1.33698 -3.48082 1.85238 195 187 199
-1.34683 -3.48402 1.85368 195 187 201
-1.35667 -3.48723 1.85499 192 186 203
-1.32715 -3.46248 1.83953 191 187 194
-1.33696 -3.46568 1.84083 191 188 195
-1.32718 -3.44749 1.82808 193 192 196
0.24837 -4.28358 2.13716 153 146 137
0.22673 -4.26880 2.13715 155 147 138
0.20531 -4.25418 2.13715 154 146 138
0.18410 -4.23970 2.13714 153 144 137
0.27331 -4.31402 2.12189 152 143 136
0.25136 -4.29897 2.12197 155 147 140
0.22963 -4.28406 2.12204 156 148 141
0.20812 -4.26931 2.12211 156 149 143
0.18684 -4.25471 2.12219 155 148 142
0.27640 -4.32964 2.10653 155 144 137
0.25436 -4.31445 2.10668 157 147 140
0.23255 -4.29942 2.10684 156 148 140
0.21096 -4.28455 2.10699 156 149 145
0.18959 -4.26982 2.10714 157 149 147
0.16844 -4.25525 2.10728 157 149 147
0.14750 -4.24082 2.10743 157 150 142
0.12677 -4.22653 2.10757 156 148 137
0.10625 -4.21239 2.10772 153 147 137
0.27951 -4.34535 2.09107 155 145 136
0.25738 -4.33003 2.09130 156 148 140
0.23549 -4.31488 2.09153 154 148 142
0.21381 -4.29987 2.09176 155 148 148
0.19236 -4.28503 2.09199 157 148 149
0.17113 -4.27033 2.09221 158 148 149
0.15011 -4.25578 2.09244 158 149 145
0.12930 -4.24137 2.09266 158 151 144
0.10870 -4.22711 2.09288 157 151 144
0.08831 -4.21300 2.09309 156 149 134
0.06812 -4.19902 2.09331 156 146 134
0.04812 -4.18518 2.09352 143 132 126
0.02833 -4.17148 2.09373 145 134 129
0.00872 -4.15790 2.09394 152 142 131
-0.01069 -4.14447 2.09414 153 142 135
0.28264 -4.36117 2.07550 153 146 136
0.26043 -4.34572 2.07582 156 147 140
0.23844 -4.33043 2.07613 155 148 143
0.21669 -4.31530 2.07644 155 148 146
0.19515 -4.30033 2.07675 157 149 146
0.17384 -4.28550 2.07705 158 148 146
0.15274 -4.27083 2.07735 158 148 145
0.13185 -4.25631 2.07765 158 151 147
0.11118 -4.24193 2.07794 156 151 145
0.09071 -4.22769 2.07823 156 151 142
0.07044 -4.21360 2.07852 157 150 140
0.03051 -4.18583 2.07909 154 144 129
0.01083 -4.17215 2.07937 154 143 131
-0.00865 -4.15860 2.07965 153 142 136
0.28579 -4.37708 2.05984 151 146 139
0.26349 -4.36150 2.06024 155 147 139
0.24142 -4.34609 2.06063 156 148 141
0.21958 -4.33083 2.06102 156 149 141
0.19796 -4.31572 2.06141 157 149 142
0.17656 -4.30078 2.06179 158 149 144
0.15538 -4.28598 2.06217 157 149 146
0.13442 -4.27133 2.06254 156 150 146
0.11367 -4.25683 2.06292 156 150 142
0.09312 -4.24248 2.06328 155 151 145
0.07278 -4.22827 2.06365 157 150 147
0.05264 -4.21420 2.06401 157 149 143
-0.02596 -4.15929 2.06541 152 143 135
0.28896 -4.39311 2.04407 151 147 140
0.26657 -4.37739 2.04455 153 148 142
0.24441 -4.36184 2.04503 155 148 142
0.22249 -4.34645 2.04550 156 149 140
0.20078 -4.33122 2.04597 157 149 139
0.17931 -4.31614 2.04643 157 150 143
0.07513 -4.24303 2.04868 157 150 152
0.05492 -4.22884 2.04912 157 149 147
0.03491 -4.21480 2.04955 156 149 145
0.01509 -4.20089 2.04998 158 147 147
-0.00453 -4.18712 2.05040 156 148 144
-0.02396 -4.17348 2.05082 156 149 142
-0.04320 -4.15997 2.05123 152 147 138
0.29215 -4.40923 2.02820 152 146 136
0.26967 -4.39338 2.02877 153 147 141
0.24743 -4.37770 2.02933 155 148 144
0.22541 -4.36218 2.02988 156 150 141
0.20363 -4.34682 2.03043 157 149 139
0.18207 -4.33161 2.03098 157 150 143
0.05721 -4.24358 2.03413 157 150 147
0.03713 -4.22941 2.03464 156 148 149
0.01724 -4.21539 2.03514 157 148 150
-0.00245 -4.20151 2.03564 157 148 146
-0.02195 -4.18776 2.03613 158 151 147
-0.04126 -4.17414 2.03662 157 151 148
-0.06038 -4.16066 2.03710 158 148 136
0.29536 -4.42547 2.01222 153 146 133
0.27279 -4.40948 2.01288 153 146 136
0.25046 -4.39366 2.01352 155 148 141
0.22836 -4.37800 2.01416 156 150 144
0.20649 -4.36251 2.01480 157 149 146
0.18484 -4.34718 2.01543 158 149 146
0.03936 -4.24412 2.01964 156 148 149
0.01940 -4.22998 2.02022 157 148 145
-0.00036 -4.21598 2.02079 158 147 145
-0.01993 -4.20212 2.02136 159 149 148
-0.03931 -4.18839 2.02192 157 149 146
-0.05850 -4.17480 2.02247 159 150 141
-0.07750 -4.16134 2.02302 158 149 143
0.29860 -4.44181 1.99614 153 146 137
0.27594 -4.42568 1.99689 154 147 138
0.25351 -4.40972 1.99762 155 147 141
0.23133 -4.39393 1.99834 156 148 147
0.20937 -4.37831 1.99906 157 148 151
0.18764 -4.36284 1.99977 159 148 146
0.00174 -4.23055 2.00585 159 148 143
-0.01790 -4.21657 2.00649 158 149 147
-0.03735 -4.20273 2.00713 156 149 144
-0.05660 -4.18903 2.00776 157 148 144
-0.07567 -4.17546 2.00838 158 148 148
-0.09456 -4.16202 2.00900 160 150 142
-0.11326 -4.14871 2.00961 160 152 138
0.30185 -4.45826 1.97996 154 145 143
0.27910 -4.44199 1.98079 156 147 144
0.25659 -4.42589 1.98161 155 147 141
0.23431 -4.40997 1.98242 156 147 143
0.21227 -4.39421 1.98322 157 147 144
0.19045 -4.37861 1.98402 158 148 143
-0.03537 -4.21716 1.99225 156 150 144
-0.05469 -4.20335 1.99295 157 149 148
-0.07383 -4.18966 1.99365 157 148 151
-0.09278 -4.17611 1.99434 158 149 145
-0.11155 -4.16270 1.99502 159 150 144
-0.13014 -4.14941 1.99570 163 151 142
0.30513 -4.47481 1.96366 153 144 140
0.28228 -4.45840 1.96458 154 146 142
0.25968 -4.44217 1.96549 155 148 138
0.23732 -4.42611 1.96639 156 148 139
0.21518 -4.41021 1.96728 157 148 139
0.19328 -4.39448 1.96816 156 147 142
-0.07198 -4.20395 1.97883 157 147 151
-0.09100 -4.19029 1.97959 158 148 143
-0.10983 -4.17677 1.98035 159 149 143
-0.12848 -4.16337 1.98110 160 149 142
-0.14696 -4.15010 1.98184 161 152 137
-0.16526 -4.13696 1.98258 162 152 139
-0.18338 -4.12394 1.98331 161 151 141
0.30843 -4.49148 1.94726 151 145 136
0.28549 -4.47493 1.94827 153 145 139
0.26280 -4.45855 1.94927 154 146 139
0.24034 -4.44235 1.95026 156 149 141
0.21812 -4.42632 1.95124 157 150 143
0.19613 -4.41045 1.95220 158 150 143
0.17438 -4.39475 1.95316 157 148 145
-0.12682 -4.17742 1.96641 158 151 144
-0.14535 -4.16404 1.96723 161 152 141
-0.16371 -4.15079 1.96803 160 152 146
-0.18190 -4.13767 1.96883 161 153 150
0.31175 -4.50826 1.93075 150 146 128
0.28872 -4.49156 1.93185 152 144 132
0.26593 -4.47504 1.93294 154 145 141
0.24338 -4.45870 1.93402 155 147 141
0.22108 -4.44253 1.93508 156 149 143
0.19900 -4.42653 1.93614 158 150 144
0.17716 -4.41069 1.93718 157 150 145
0.15554 -4.39502 1.93822 156 149 141
-0.16216 -4.16471 1.95340 161 153 152
-0.18041 -4.15148 1.95427 160 153 150
-0.19848 -4.13838 1.95514 161 153 144
0.31509 -4.52515 1.91413 150 144 131
0.29197 -4.50831 1.91532 153 144 137
0.22405 -4.45885 1.91883 155 147 142
0.20189 -4.44271 1.91997 156 148 147
0.17996 -4.42674 1.92110 157 150 148
0.15826 -4.41093 1.92222 157 150 147
0.13678 -4.39529 1.92333 158 149 143
-0.16060 -4.17871 1.93869 162 154 157
-0.17891 -4.16538 1.93963 161 154 153
-0.19704 -4.15217 1.94057 162 153 147
-0.21500 -4.13909 1.94149 161 152 144
-0.23280 -4.12613 1.94241 164 153 146
-0.25042 -4.11329 1.94332 164 153 150
-0.26789 -4.10058 1.94422 163 154 150
0.31846 -4.54216 1.89739 151 144 131
0.20480 -4.45899 1.90370 155 146 134
0.18278 -4.44288 1.90492 157 147 142
0.16099 -4.42694 1.90613 156 149 140
0.13943 -4.41117 1.90732 158 148 139
0.11810 -4.39556 1.90851 158 149 141
-0.15903 -4.19280 1.92388 161 153 150
-0.17740 -4.17936 1.92490 162 154 152
-0.19559 -4.16604 1.92591 162 155 149
-0.21362 -4.15286 1.92691 161 155 143
-0.23147 -4.13980 1.92790 164 154 147
-0.24915 -4.12686 1.92888 163 153 150
-0.26667 -4.11404 1.92985 162 152 150
-0.28402 -4.10134 1.93081 162 153 143
0.20772 -4.47539 1.88732 154 147 142
0.18562 -4.45914 1.88863 155 148 142
0.14210 -4.42715 1.89121 155 148 146
0.12068 -4.41141 1.89248 157 150 140
0.09948 -4.39583 1.89374 158 150 140
0.07850 -4.38040 1.89499 157 150 143
-0.15745 -4.20697 1.90899 160 152 145
-0.17588 -4.19342 1.91008 160 153 149
-0.19414 -4.18000 1.91116 162 154 152
-0.21222 -4.16671 1.91223 164 155 151
-0.23013 -4.15354 1.91330 163 156 154
-0.24787 -4.14050 1.91435 162 154 151
-0.26545 -4.12758 1.91539 162 153 147
-0.28286 -4.11478 1.91643 162 153 144
-0.30011 -4.10210 1.91745 161 154 144
-0.31720 -4.08954 1.91846 162 156 146
0.12328 -4.42736 1.87636 155 149 141
0.10200 -4.41164 1.87770 158 149 142
0.08094 -4.39609 1.87903 157 149 144
0.06010 -4.38070 1.88035 157 149 145
-0.15586 -4.22122 1.89400 160 151 141
-0.17435 -4.20756 1.89517 161 151 141
-0.19267 -4.19403 1.89633 161 152 141
-0.21081 -4.18064 1.89748 163 153 150
-0.22879 -4.16736 1.89861 163 155 152
-0.24659 -4.15422 1.89974 166 154 148
-0.26422 -4.14120 1.90085 165 153 144
-0.28169 -4.12830 1.90196 163 153 143
-0.29899 -4.11552 1.90305 162 153 144
-0.31613 -4.10286 1.90413 161 153 146
-0.33312 -4.09032 1.90521 161 153 143
0.21363 -4.50850 1.85423 156 147 138
0.10454 -4.42757 1.86156 156 148 145
0.08340 -4.41188 1.86298 154 150 142
0.06248 -4.39636 1.86438 156 149 140
0.04177 -4.38099 1.86577 159 151 141
0.02127 -4.36578 1.86715 158 151 144
0.00097 -4.35073 1.86851 159 152 147
-0.01911 -4.33582 1.86986 159 149 143
-0.03900 -4.32107 1.87119 159 149 143
-0.05869 -4.30646 1.87251 160 150 146
-0.07818 -4.29200 1.87382 158 151 145
-0.09748 -4.27768 1.87512 158 154 149
-0.11659 -4.26350 1.87640 161 155 145
-0.13552 -4.24946 1.87767 160 154 144
-0.15426 -4.23556 1.87893 162 152 145
-0.17282 -4.22179 1.88017 161 151 145
-0.19120 -4.20815 1.88141 160 151 145
-0.20940 -4.19465 1.88263 160 152 149
-0.22743 -4.18127 1.88384 160 153 150
-0.24529 -4.16802 1.88504 162 154 148
-0.26298 -4.15490 1.88622 163 155 146
-0.28051 -4.14190 1.88740 163 156 144
-0.29787 -4.12902 1.88857 162 156 144
-0.31506 -4.11626 1.88972 162 156 148
0.23922 -4.54207 1.83592 158 146 142
0.21661 -4.52522 1.83753 158 148 143
0.19424 -4.50854 1.83912 158 148 145
0.08587 -4.42777 1.84682 157 149 143
0.06487 -4.41211 1.84831 157 150 145
0.04408 -4.39662 1.84978 159 149 142
0.02350 -4.38128 1.85125 159 150 145
0.00314 -4.36610 1.85269 160 153 146
-0.01702 -4.35108 1.85413 160 151 144
-0.03698 -4.33620 1.85554 160 151 146
-0.05674 -4.32147 1.85695 159 150 148
-0.07631 -4.30689 1.85834 158 151 150
-0.09568 -4.29245 1.85971 157 154 151
-0.11485 -4.27816 1.86108 161 154 150
-0.13384 -4.26400 1.86243 161 153 149
-0.15265 -4.24999 1.86376 162 153 151
-0.17127 -4.23611 1.86508 161 152 151
-0.18971 -4.22236 1.86640 160 151 149
-0.20798 -4.20875 1.86769 158 152 148
-0.22607 -4.19526 1.86898 159 151 148
-0.24399 -4.18191 1.87025 159 152 149
-0.26174 -4.16868 1.87151 160 153 148
-0.27932 -4.15557 1.87276 162 155 149
-0.29673 -4.14259 1.87400 162 156 152
0.02576 -4.39688 1.83525 156 152 141
0.00531 -4.38157 1.83678 158 151 141
-0.01492 -4.36642 1.83830 160 148 146
-0.03495 -4.35142 1.83980 160 148 149
-0.05479 -4.33657 1.84129 160 150 152
-0.07442 -4.32187 1.84276 161 151 149
-0.09386 -4.30731 1.84422 160 152 146
-0.11310 -4.29290 1.84566 161 154 148
-0.13216 -4.27863 1.84709 162 154 150
-0.15103 -4.26450 1.84850 163 153 155
-0.16972 -4.25051 1.84991 162 153 154
-0.18822 -4.23665 1.85129 161 154 157
-0.20655 -4.22293 1.85267 160 153 152
-0.22470 -4.20933 1.85403 160 152 151
-0.24268 -4.19587 1.85538 159 152 152
-0.26049 -4.18254 1.85671 160 153 148
-0.27812 -4.16933 1.85804 161 153 146
-0.29560 -4.15625 1.85935 161 154 150
0.00750 -4.39714 1.82077 156 149 133
-0.01281 -4.38186 1.82237 159 148 145
-0.03291 -4.36674 1.82396 160 150 150
-0.05282 -4.35177 1.82553 161 150 156
-0.07252 -4.33694 1.82708 163 152 149
-0.09203 -4.32227 1.82862 162 153 147
-0.11134 -4.30774 1.83015 162 152 150
-0.13047 -4.29335 1.83166 162 151 150
-0.14940 -4.27910 1.83315 161 151 151
-0.16815 -4.26500 1.83463 162 154 148
-0.18672 -4.25103 1.83610 162 154 149
-0.20511 -4.23719 1.83755 164 153 144
-0.22332 -4.22349 1.83899 162 153 149
-0.24136 -4.20992 1.84041 161 154 154
-0.25923 -4.19648 1.84183 162 153 147
-0.27692 -4.18317 1.84322 162 151 146
-0.29445 -4.16998 1.84461 161 151 149
0.00971 -4.41281 1.80465 157 147 137
-0.01068 -4.39741 1.80634 159 148 141
-0.03086 -4.38215 1.80801 159 151 143
-0.05083 -4.36706 1.80967 160 151 148
-0.07061 -4.35211 1.81131 160 152 143
-0.09019 -4.33731 1.81293 160 154 147
-0.10957 -4.32266 1.81454 161 153 155
-0.12876 -4.30816 1.81613 162 151 153
-0.14776 -4.29380 1.81771 161 151 150
-0.16658 -4.27957 1.81927 161 152 140
-0.18521 -4.26549 1.82082 162 152 147
-0.20366 -4.25154 1.82235 165 154 151
-0.22194 -4.23773 1.82386 163 155 149
-0.24004 -4.22405 1.82536 161 156 149
-0.25796 -4.21051 1.82685 162 154 145
-0.27572 -4.19709 1.82832 163 152 143
-0.29330 -4.18379 1.82978 162 151 147
-0.31072 -4.17063 1.83123 162 152 149
-0.39542 -4.10661 1.83825 164 158 151
-0.00854 -4.41305 1.79021 159 149 137
-0.02879 -4.39767 1.79197 159 149 139
-0.04884 -4.38244 1.79371 160 151 143
-0.06869 -4.36737 1.79544 163 153 141
-0.08833 -4.35245 1.79715 162 153 146
-0.10779 -4.33768 1.79884 162 154 151
-0.12705 -4.32306 1.80051 163 152 152
-0.14611 -4.30858 1.80217 163 154 150
-0.16500 -4.29424 1.80381 163 152 146
-0.18369 -4.28004 1.80544 162 151 147
-0.20221 -4.26598 1.80705 162 152 143
-0.22054 -4.25206 1.80864 163 154 145
-0.23870 -4.23827 1.81022 163 156 151
-0.25669 -4.22462 1.81179 162 155 150
-0.27450 -4.21109 1.81333 164 154 151
-0.29215 -4.19769 1.81487 164 154 153
-0.30962 -4.18442 1.81639 163 153 149
-0.32694 -4.17127 1.81789 162 153 146
-0.37791 -4.13257 1.82233 163 155 147
-0.39459 -4.11990 1.82378 163 156 150
-0.02671 -4.41328 1.77583 156 148 132
-0.04683 -4.39792 1.77766 159 151 137
-0.06675 -4.38273 1.77947 160 153 142
-0.08647 -4.36769 1.78126 159 152 148
-0.10599 -4.35279 1.78304 161 154 150
-0.12532 -4.33805 1.78480 162 152 149
-0.14446 -4.32345 1.78654 164 154 150
-0.16340 -4.30899 1.78826 163 154 149
-0.18217 -4.29468 1.78997 163 153 151
-0.20074 -4.28051 1.79166 162 153 144
-0.21914 -4.26647 1.79333 163 153 145
-0.23736 -4.25257 1.79499 163 153 145
-0.25541 -4.23881 1.79663 163 154 145
-0.27328 -4.22517 1.79826 164 156 158
-0.29098 -4.21167 1.79987 164 155 155
-0.30852 -4.19829 1.80146 164 155 150
-0.32588 -4.18504 1.80304 163 154 149
-0.34309 -4.17192 1.80461 164 153 149
-0.36013 -4.15892 1.80616 163 154 146
-0.37702 -4.14603 1.80770 162 155 146
-0.39375 -4.13327 1.80922 162 153 147
-0.04481 -4.41350 1.76150 160 151 136
-0.06480 -4.39818 1.76340 159 150 142
-0.08459 -4.38301 1.76528 159 152 146
-0.10419 -4.36800 1.76714 160 152 145
-0.12358 -4.35313 1.76898 161 151 144
-0.14279 -4.33841 1.77081 165 153 144
-0.16180 -4.32384 1.77261 163 154 142
-0.18063 -4.30941 1.77440 162 154 145
-0.19927 -4.29512 1.77617 163 152 142
-0.21773 -4.28097 1.77793 164 153 147
-0.23601 -4.26696 1.77967 164 153 147
-0.25412 -4.25309 1.78139 162 153 145
-0.27205 -4.23934 1.78309 163 155 151
-0.28981 -4.22573 1.78478 164 156 152
-0.30740 -4.21225 1.78645 166 156 150
-0.32483 -4.19889 1.78811 165 155 150
-0.34209 -4.18566 1.78975 163 154 151
-0.35919 -4.17256 1.79137 161 154 150
-0.37612 -4.15958 1.79298 159 153 147
-0.39291 -4.14671 1.79458 160 152 143
-0.06284 -4.41373 1.74722 160 151 148
-0.08271 -4.39844 1.74919 160 151 146
-0.10237 -4.38330 1.75114 160 152 144
-0.12184 -4.36831 1.75307 159 153 142
-0.14111 -4.35347 1.75498 161 154 144
-0.16019 -4.33878 1.75687 160 153 141
-0.17908 -4.32423 1.75874 161 154 143
-0.19779 -4.30983 1.76060 163 155 144
-0.21631 -4.29556 1.76243 164 155 150
-0.23466 -4.28144 1.76425 165 153 149
-0.25282 -4.26745 1.76605 163 154 143
-0.27081 -4.25360 1.76783 163 153 138
-0.28863 -4.23987 1.76960 164 155 145
-0.30628 -4.22628 1.77135 166 156 149
-0.32376 -4.21282 1.77308 165 157 147
-0.34108 -4.19949 1.77480 166 157 150
-0.35823 -4.18628 1.77650 165 157 156
-0.37522 -4.17320 1.77818 163 155 152
-0.39206 -4.16023 1.77985 163 153 146
-0.02039 -4.46070 1.72677 157 147 141
-0.04073 -4.44496 1.72887 158 150 140
-0.06087 -4.42938 1.73095 158 151 145
-0.08081 -4.41396 1.73301 158 152 147
-0.10054 -4.39869 1.73504 159 151 148
-0.12008 -4.38358 1.73706 157 152 138
-0.13942 -4.36862 1.73905 158 154 137
-0.15857 -4.35381 1.74103 158 153 131
-0.17752 -4.33914 1.74299 160 153 140
-0.19630 -4.32462 1.74492 164 153 143
-0.21488 -4.31024 1.74684 164 154 146
-0.23329 -4.29600 1.74874 164 153 146
-0.25152 -4.28190 1.75062 164 153 146
-0.26957 -4.26793 1.75249 163 153 143
-0.28745 -4.25410 1.75433 163 154 148
-0.30515 -4.24041 1.75616 162 154 150
-0.32269 -4.22684 1.75797 163 155 146
-0.34006 -4.21340 1.75976 166 155 145
-0.35727 -4.20009 1.76154 166 156 152
-0.37432 -4.18690 1.76329 165 156 154
-0.39121 -4.17383 1.76504 164 155 150
-0.01825 -4.47672 1.71021 158 148 146
-0.03867 -4.46084 1.71240 157 148 141
-0.05889 -4.44513 1.71457 156 150 141
-0.07890 -4.42958 1.71672 159 151 147
-0.09870 -4.41419 1.71884 160 151 148
-0.11831 -4.39895 1.72095 159 153 141
-0.13772 -4.38386 1.72303 160 152 137
-0.15693 -4.36893 1.72509 160 151 134
-0.17596 -4.35414 1.72713 159 152 146
-0.19479 -4.33950 1.72915 161 151 147
-0.21345 -4.32501 1.73116 161 153 149
-0.23192 -4.31065 1.73314 163 154 149
-0.25020 -4.29644 1.73510 164 154 152
-0.26832 -4.28236 1.73704 163 153 150
-0.28625 -4.26842 1.73897 164 153 150
-0.30402 -4.25461 1.74088 164 154 151
-0.32162 -4.24093 1.74276 164 153 147
-0.33904 -4.22739 1.74463 164 153 145
-0.35631 -4.21397 1.74649 163 154 150
-0.37341 -4.20068 1.74832 165 156 157
-0.39035 -4.18751 1.75014 165 156 152
-0.07697 -4.44530 1.70033 157 151 143
-0.09685 -4.42978 1.70254 160 152 148
-0.11653 -4.41441 1.70473 161 153 150
-0.13601 -4.39920 1.70691 161 154 140
-0.15529 -4.38415 1.70905 161 153 137
-0.17438 -4.36924 1.71118 158 151 145
-0.19328 -4.35448 1.71329 160 150 146
-0.21200 -4.33986 1.71537 161 152 149
-0.23053 -4.32539 1.71744 162 154 145
-0.24888 -4.31106 1.71949 164 153 144
-0.26706 -4.29687 1.72151 163 152 148
-0.28506 -4.28282 1.72352 163 153 150
-0.30288 -4.26890 1.72550 164 154 153
-0.32053 -4.25511 1.72747 164 154 149
-0.33802 -4.24146 1.72942 164 153 148
-0.35534 -4.22794 1.73135 163 153 144
-0.37249 -4.21454 1.73326 164 154 149
-0.38949 -4.20127 1.73515 165 155 148
-0.09499 -4.44547 1.68614 159 152 143
-0.11474 -4.42998 1.68842 162 152 143
-0.13429 -4.41464 1.69068 160 154 141
-0.15364 -4.39946 1.69292 162 154 142
-0.17280 -4.38443 1.69513 161 153 148
-0.19177 -4.36954 1.69732 162 151 143
-0.21055 -4.35481 1.69950 161 151 140
-0.22914 -4.34022 1.70165 160 153 142
-0.24756 -4.32578 1.70377 162 153 142
-0.26579 -4.31147 1.70588 163 152 146
-0.28385 -4.29730 1.70797 164 152 146
-0.30173 -4.28327 1.71004 165 154 148
-0.31944 -4.26938 1.71209 164 154 145
-0.33699 -4.25562 1.71411 165 155 146
-0.35436 -4.24199 1.71612 164 154 144
-0.37157 -4.22848 1.71811 163 154 146
-0.38862 -4.21511 1.72008 163 155 146
-0.11293 -4.44563 1.67200 163 153 147
-0.13255 -4.43017 1.67435 160 153 142
-0.15197 -4.41486 1.67668 161 153 143
-0.19024 -4.38471 1.68126 164 154 145
-0.20908 -4.36985 1.68352 164 153 142
-0.22774 -4.35514 1.68576 160 152 142
-0.24622 -4.34058 1.68797 161 152 138
-0.26452 -4.32616 1.69016 162 151 140
-0.28263 -4.31188 1.69233 162 151 140
-0.30058 -4.29774 1.69448 163 152 142
-0.31835 -4.28373 1.69661 163 154 141
-0.33595 -4.26986 1.69872 163 155 145
-0.35338 -4.25612 1.70080 163 156 147
-0.37064 -4.24251 1.70287 163 155 150
-0.38775 -4.22903 1.70492 163 156 152
-0.11112 -4.46139 1.65548 162 153 150
-0.13081 -4.44580 1.65792 162 152 142
-0.15030 -4.43037 1.66034 162 153 139
-0.18870 -4.39996 1.66510 163 153 145
-0.20761 -4.38498 1.66745 163 155 146
-0.22634 -4.37016 1.66977 163 154 145
-0.24488 -4.35547 1.67207 165 153 137
-0.26323 -4.34094 1.67434 164 151 137
-0.28141 -4.32654 1.67660 161 150 132
-0.29942 -4.31228 1.67883 162 150 141
-0.31725 -4.29817 1.68104 162 152 147
-0.33490 -4.28418 1.68323 162 153 144
-0.35239 -4.27033 1.68540 163 154 142
-0.36971 -4.25662 1.68754 163 155 146
-0.10929 -4.47725 1.63885 162 151 147
-0.12905 -4.46153 1.64139 163 151 143
-0.14862 -4.44597 1.64390 163 152 143
-0.18715 -4.41531 1.64884 162 153 145
-0.20613 -4.40021 1.65127 162 153 145
-0.22492 -4.38526 1.65368 164 153 151
-0.24352 -4.37046 1.65607 167 153 145
-0.26194 -4.35580 1.65843 165 152 141
-0.28018 -4.34129 1.66077 163 151 136
-0.29825 -4.32692 1.66308 161 150 142
-0.31614 -4.31269 1.66538 161 149 146
-0.33385 -4.29859 1.66765 160 152 144
-0.35140 -4.28463 1.66990 163 154 143
-0.36878 -4.27081 1.67213 163 153 146
-0.20464 -4.41553 1.63500 164 154 146
-0.22349 -4.40046 1.63749 164 153 153
-0.24216 -4.38554 1.63997 164 152 150
-0.26065 -4.37076 1.64242 164 153 147
-0.27895 -4.35613 1.64484 163 154 147
-0.29707 -4.34164 1.64724 163 153 144
-0.31502 -4.32730 1.64962 161 152 144
-0.33279 -4.31309 1.65197 159 151 140
-0.35040 -4.29902 1.65430 160 152 142
-0.36783 -4.28508 1.65661 161 154 141
-0.22206 -4.41575 1.62121 165 153 151
-0.24079 -4.40071 1.62377 164 153 149
-0.25934 -4.38581 1.62631 164 153 148
-0.27771 -4.37106 1.62882 163 155 149
-0.29589 -4.35646 1.63130 164 155 149
-0.31390 -4.34200 1.63377 163 155 150
-0.33173 -4.32767 1.63620 163 154 142
-0.34939 -4.31349 1.63862 162 152 137
-0.20163 -4.44646 1.60214 163 153 146
-0.23941 -4.41597 1.60747 164 154 145
-0.25803 -4.40095 1.61010 166 153 144
-0.27645 -4.38609 1.61269 164 155 146
-0.29470 -4.37136 1.61527 164 154 150
-0.31277 -4.35678 1.61782 165 155 153
-0.33066 -4.34235 1.62034 167 155 145
-0.34838 -4.32805 1.62284 166 154 137
-0.25670 -4.41619 1.59379 165 153 142
-0.27519 -4.40120 1.59647 164 153 144
-0.29350 -4.38636 1.59914 164 152 148
-0.31163 -4.37166 1.60177 165 154 147
-0.32958 -4.35711 1.60438 166 155 142
-0.34736 -4.34270 1.60696 165 155 141
-0.27393 -4.41641 1.58015 164 151 139
-0.29230 -4.40145 1.58290 164 152 142
-0.31049 -4.38663 1.58563 165 153 141
-0.32850 -4.37196 1.58832 164 154 139
-0.34634 -4.35743 1.59099 164 155 142
-0.29109 -4.41663 1.56657 163 153 139
-0.30934 -4.40169 1.56938 164 153 137
-0.32741 -4.38690 1.57217 164 154 140
-0.34531 -4.37226 1.57493 163 154 145
-0.30818 -4.41684 1.55304 163 152 140
-0.32632 -4.40193 1.55592 163 153 142
-0.34427 -4.38717 1.55876 161 153 144
-0.32521 -4.41706 1.53956 161 152 141
-0.34323 -4.40218 1.54250 161 152 140
-0.34218 -4.41727 1.52613 163 151 141
1.42928 -2.53773 1.38451 164 137 128
1.44389 -2.53802 1.36988 165 141 127
1.43519 -2.54596 1.37104 161 138 126
1.45856 -2.53831 1.35520 165 143 134
1.44986 -2.54626 1.35634 165 143 130
1.44113 -2.55423 1.35749 163 141 128
1.48197 -2.53064 1.33933 163 143 131
1.47328 -2.53860 1.34046 164 145 135
1.46457 -2.54657 1.34160 167 145 136
1.45585 -2.55455 1.34273 167 145 136
1.44711 -2.56255 1.34387 165 144 128
1.50542 -2.52297 1.32344 165 142 135
1.49674 -2.53092 1.32456 165 144 135
1.48805 -2.53889 1.32568 164 144 139
1.47934 -2.54687 1.32680 166 147 137
1.47062 -2.55487 1.32792 168 147 138
1.46188 -2.56289 1.32905 169 147 138
1.45312 -2.57092 1.33018 167 144 130
1.52890 -2.51528 1.30752 163 141 131
1.52025 -2.52323 1.30863 163 141 131
1.51157 -2.53120 1.30973 166 144 141
1.50288 -2.53918 1.31084 165 144 136
1.49417 -2.54718 1.31195 164 144 136
1.48544 -2.55519 1.31306 167 147 130
1.47670 -2.56322 1.31417 166 148 138
1.46794 -2.57127 1.31529 167 147 139
1.55243 -2.50758 1.29158 158 137 131
1.54378 -2.51553 1.29267 159 138 137
1.53512 -2.52350 1.29376 163 142 134
1.52645 -2.53148 1.29485 163 143 132
1.51775 -2.53947 1.29595 164 145 134
1.50904 -2.54749 1.29704 164 146 132
1.50032 -2.55552 1.29814 164 146 132
1.49157 -2.56356 1.29924 167 147 129
1.48281 -2.57162 1.30035 166 149 140
1.57599 -2.49986 1.27561 157 132 122
1.56736 -2.50781 1.27669 156 133 128
1.55872 -2.51578 1.27776 159 138 132
1.55006 -2.52376 1.27884 161 141 137
1.54138 -2.53176 1.27992 164 142 138
1.53268 -2.53977 1.28100 163 143 136
1.52397 -2.54780 1.28209 164 143 131
1.51524 -2.55584 1.28317 164 144 131
1.50650 -2.56390 1.28426 165 146 130
1.49774 -2.57197 1.28535 166 146 133
1.48896 -2.58006 1.28644 167 148 136
1.59098 -2.50009 1.26068 158 136 126
1.58235 -2.50805 1.26174 158 136 124
1.57370 -2.51603 1.26280 159 136 129
1.56504 -2.52403 1.26387 160 138 131
1.55636 -2.53204 1.26494 161 140 135
1.54767 -2.54006 1.26601 161 141 136
1.53896 -2.54811 1.26708 163 143 136
1.53023 -2.55616 1.26815 165 143 132
1.52148 -2.56424 1.26922 165 144 133
1.51272 -2.57233 1.27030 167 144 134
1.50394 -2.58043 1.27138 167 144 136
1.49514 -2.58856 1.27246 168 146 135
1.61463 -2.49235 1.24465 158 135 129
1.60602 -2.50031 1.24569 159 137 130
1.59739 -2.50829 1.24674 158 139 127
1.58874 -2.51628 1.24779 157 138 124
1.58008 -2.52429 1.24884 159 139 130
1.57140 -2.53232 1.24990 161 138 131
1.56270 -2.54036 1.25095 161 139 133
1.55399 -2.54842 1.25201 160 140 134
1.54526 -2.55649 1.25307 162 142 134
1.53651 -2.56458 1.25413 165 142 134
1.52775 -2.57268 1.25520 167 143 134
1.51897 -2.58080 1.25627 169 143 139
1.51017 -2.58894 1.25734 169 144 136
1.50135 -2.59709 1.25841 169 146 135
1.63832 -2.48460 1.22859 159 139 134
1.62972 -2.49256 1.22962 160 137 133
1.62111 -2.50054 1.23065 161 136 130
1.61248 -2.50853 1.23169 160 137 134
1.60384 -2.51654 1.23272 159 141 133
1.59517 -2.52456 1.23376 157 140 126
1.58649 -2.53260 1.23480 159 140 130
1.57780 -2.54066 1.23585 160 139 131
1.56908 -2.54873 1.23689 161 138 129
1.56035 -2.55682 1.23794 161 139 129
1.55160 -2.56492 1.23899 162 140 134
1.54284 -2.57304 1.24004 166 140 137
1.53405 -2.58118 1.24110 167 142 132
1.52525 -2.58933 1.24215 169 144 136
1.51644 -2.59749 1.24321 168 145 130
1.50760 -2.60568 1.24427 168 147 134
1.49875 -2.61388 1.24533 169 148 136
1.65347 -2.48479 1.21352 161 140 133
1.64487 -2.49277 1.21453 160 140 135
1.63626 -2.50076 1.21556 160 137 134
1.62763 -2.50877 1.21658 161 137 133
1.61898 -2.51679 1.21760 161 137 132
1.61032 -2.52483 1.21863 160 139 130
1.60164 -2.53289 1.21966 159 139 127
1.59294 -2.54096 1.22069 160 138 131
1.58423 -2.54904 1.22172 159 139 134
1.57549 -2.55715 1.22275 162 141 129
1.56674 -2.56526 1.22379 163 138 128
1.55798 -2.57340 1.22483 162 139 132
1.54919 -2.58155 1.22587 164 140 132
1.54039 -2.58972 1.22691 166 142 130
1.53158 -2.59790 1.22796 167 145 132
1.52274 -2.60610 1.22901 169 147 128
1.51389 -2.61431 1.23005 170 147 132
1.50502 -2.62254 1.23110 170 148 134
1.66867 -2.48499 1.19839 164 143 133
1.66008 -2.49298 1.19940 164 142 134
1.65146 -2.50099 1.20041 161 140 134
1.64283 -2.50901 1.20142 160 138 137
1.63419 -2.51705 1.20243 159 138 136
1.62552 -2.52510 1.20344 160 138 128
1.61684 -2.53317 1.20446 160 138 125
1.60814 -2.54126 1.20547 159 138 128
1.59943 -2.54936 1.20649 161 137 130
1.59069 -2.55748 1.20751 158 139 131
1.58194 -2.56561 1.20854 162 140 130
1.57317 -2.57376 1.20956 164 139 129
1.56439 -2.58192 1.21059 162 140 131
1.55559 -2.59011 1.21162 163 141 128
1.54677 -2.59830 1.21265 164 142 131
1.53793 -2.60652 1.21369 166 144 132
1.52908 -2.61475 1.21472 169 147 134
1.52021 -2.62299 1.21576 171 148 137
1.51132 -2.63126 1.21680 169 147 139
1.50241 -2.63954 1.21784 171 149 145
1.69251 -2.47720 1.18222 164 144 136
1.68393 -2.48519 1.18322 160 143 134
1.67534 -2.49319 1.18421 162 143 131
1.66672 -2.50121 1.18520 163 143 130
1.65809 -2.50925 1.18620 162 141 131
1.64944 -2.51730 1.18720 160 138 134
1.64078 -2.52537 1.18820 160 138 133
1.63209 -2.53346 1.18920 160 138 124
1.62340 -2.54156 1.19020 160 138 122
1.61468 -2.54967 1.19121 159 138 132
1.60595 -2.55781 1.19222 161 137 129
1.59719 -2.56595 1.19323 159 138 128
1.58843 -2.57412 1.19424 162 139 131
1.57964 -2.58230 1.19526 165 139 134
1.57084 -2.59050 1.19627 163 140 137
1.56202 -2.59871 1.19729 162 141 130
1.55318 -2.60694 1.19831 162 143 129
1.54432 -2.61518 1.19933 164 145 132
1.53545 -2.62345 1.20036 167 146 134
1.52656 -2.63172 1.20138 169 148 132
1.51765 -2.64002 1.20241 169 147 139
1.50873 -2.64833 1.20344 171 150 147
1.49978 -2.65666 1.20447 172 148 140
1.69065 -2.49340 1.16896 161 143 136
1.68203 -2.50144 1.16994 162 142 134
1.67340 -2.50949 1.17093 164 142 132
1.66475 -2.51756 1.17191 163 139 129
1.65609 -2.52564 1.17290 161 137 127
1.64740 -2.53374 1.17389 161 137 128
1.63871 -2.54186 1.17488 160 138 123
1.62999 -2.54999 1.17587 160 138 121
1.62125 -2.55814 1.17687 160 138 132
1.61250 -2.56630 1.17786 159 138 131
1.60373 -2.57448 1.17886 159 139 133
1.59495 -2.58268 1.17986 162 140 132
1.58614 -2.59089 1.18087 165 140 136
1.57732 -2.59912 1.18187 164 141 139
1.56848 -2.60736 1.18288 163 140 132
1.55963 -2.61562 1.18389 162 142 129
1.55075 -2.62390 1.18490 163 144 132
1.54186 -2.63219 1.18591 166 146 130
1.53295 -2.64050 1.18693 168 149 127
1.52403 -2.64883 1.18794 167 148 137
1.51508 -2.65718 1.18896 170 150 142
1.50612 -2.66554 1.18998 173 149 136
1.68877 -2.50974 1.15560 162 142 136
1.68012 -2.51782 1.15657 164 141 136
1.67145 -2.52592 1.15755 164 139 132
1.66277 -2.53403 1.15852 162 138 128
1.65407 -2.54216 1.15950 160 138 130
1.64535 -2.55031 1.16048 160 138 129
1.63662 -2.55847 1.16146 160 137 123
1.62787 -2.56665 1.16244 159 137 128
1.61910 -2.57484 1.16343 160 138 131
1.61031 -2.58306 1.16442 160 139 136
1.60150 -2.59128 1.16541 162 141 132
1.59268 -2.59953 1.16640 163 141 134
1.58384 -2.60779 1.16739 164 142 136
1.57499 -2.61606 1.16839 164 140 130
1.56611 -2.62436 1.16938 162 141 126
1.55722 -2.63267 1.17038 163 144 129
1.54831 -2.64099 1.17138 165 145 128
1.53938 -2.64934 1.17239 167 146 138
1.53043 -2.65770 1.17339 168 148 139
1.52147 -2.66607 1.17440 170 149 140
1.51249 -2.67446 1.17541 172 149 133
1.69554 -2.51808 1.14118 162 142 130
1.68688 -2.52619 1.14214 163 141 130
1.67819 -2.53432 1.14310 163 141 134
1.66949 -2.54247 1.14406 162 138 133
1.66077 -2.55063 1.14503 159 138 133
1.65204 -2.55880 1.14600 161 138 131
1.64328 -2.56700 1.14697 160 137 124
1.63451 -2.57521 1.14794 159 136 125
1.62573 -2.58344 1.14891 160 137 129
1.61692 -2.59168 1.14989 160 139 131
1.60810 -2.59994 1.15087 162 141 129
1.59926 -2.60821 1.15185 163 141 131
1.59040 -2.61650 1.15283 163 142 132
1.58152 -2.62481 1.15381 162 142 130
1.57263 -2.63314 1.15480 162 141 124
1.56372 -2.64148 1.15578 163 143 127
1.55479 -2.64984 1.15677 166 143 129
1.54584 -2.65822 1.15776 167 144 144
1.53688 -2.66661 1.15876 169 146 140
1.52790 -2.67502 1.15975 170 148 138
1.51890 -2.68344 1.16075 170 148 134
1.69367 -2.53461 1.12762 161 142 129
1.68497 -2.54277 1.12857 162 141 137
1.67625 -2.55095 1.12952 161 139 134
1.66751 -2.55914 1.13048 160 138 131
1.65876 -2.56735 1.13144 162 138 128
1.64999 -2.57557 1.13239 161 137 123
1.64120 -2.58382 1.13335 159 135 123
1.63239 -2.59207 1.13432 159 137 126
1.62357 -2.60035 1.13528 161 139 129
1.61473 -2.60864 1.13624 161 140 127
1.60587 -2.61695 1.13721 162 140 129
1.59700 -2.62527 1.13818 163 142 131
1.58810 -2.63361 1.13915 163 142 130
1.57919 -2.64197 1.14013 163 141 125
1.57026 -2.65035 1.14110 164 141 132
1.56131 -2.65874 1.14208 167 142 134
1.55235 -2.66715 1.14306 167 143 140
1.54336 -2.67557 1.14404 169 145 139
1.53436 -2.68401 1.14502 169 147 139
1.52534 -2.69247 1.14601 170 148 135
1.70050 -2.54308 1.11302 161 143 138
1.69178 -2.55127 1.11396 161 142 141
1.68305 -2.55948 1.11490 161 141 135
1.67429 -2.56770 1.11585 161 138 131
1.66552 -2.57594 1.11679 163 137 131
1.65673 -2.58420 1.11774 161 135 128
1.64792 -2.59247 1.11868 159 135 121
1.63910 -2.60076 1.11963 157 135 122
1.63026 -2.60907 1.12059 161 137 128
1.62140 -2.61739 1.12154 161 138 127
1.61252 -2.62573 1.12250 162 139 129
1.60363 -2.63409 1.12345 163 141 135
1.59471 -2.64246 1.12441 165 143 128
1.58578 -2.65085 1.12537 163 143 126
1.57684 -2.65926 1.12634 163 140 134
1.56787 -2.66769 1.12730 165 141 133
1.55888 -2.67613 1.12827 167 143 132
1.54988 -2.68459 1.12924 168 146 134
1.54086 -2.69306 1.13021 167 148 138
1.53182 -2.70155 1.13118 169 148 134
1.69863 -2.55981 1.09927 161 142 141
1.68988 -2.56805 1.10020 161 141 134
1.68111 -2.57631 1.10113 162 138 131
1.67232 -2.58458 1.10206 161 136 133
1.66351 -2.59287 1.10300 159 135 131
1.65469 -2.60118 1.10393 157 134 122
1.64584 -2.60950 1.10487 156 135 120
1.63698 -2.61784 1.10581 160 136 126
1.62811 -2.62620 1.10675 161 138 127
1.61921 -2.63457 1.10770 161 139 131
1.61030 -2.64296 1.10864 162 141 137
1.60137 -2.65137 1.10959 165 144 130
1.59242 -2.65979 1.11054 162 143 128
1.58345 -2.66823 1.11149 162 140 136
1.57446 -2.67669 1.11244 163 141 131
1.56546 -2.68516 1.11340 165 142 127
1.55644 -2.69365 1.11435 167 146 129
1.54740 -2.70216 1.11531 167 147 135
1.52926 -2.71923 1.11724 168 148 136
1.70553 -2.56841 1.08450 161 141 137
1.69675 -2.57668 1.08541 161 140 131
1.68796 -2.58497 1.08633 161 138 129
1.67916 -2.59327 1.08725 160 136 128
1.67033 -2.60159 1.08817 158 136 127
1.66149 -2.60993 1.08910 157 136 125
1.65263 -2.61829 1.09002 157 137 124
1.64375 -2.62666 1.09095 159 137 126
1.63485 -2.63505 1.09188 160 139 127
1.62594 -2.64345 1.09281 160 140 129
1.61701 -2.65188 1.09374 162 141 133
1.60806 -2.66032 1.09468 165 142 130
