ply
format ascii 1.0
element face 0
property list uchar int vertex_indices
element vertex 1295
property float x
property float y
property float z
property uchar diffuse_red
property uchar diffuse_green
property uchar diffuse_blue
end_header
1.16482 -3.36045 1.77608 144 124 107
1.16201 -3.37089 1.78305 144 123 107
1.15920 -3.38135 1.79004 144 127 116
1.15638 -3.39181 1.79703 148 127 117
1.15356 -3.40229 1.80403 147 128 119
1.15073 -3.41279 1.81104 146 128 117
1.14790 -3.42329 1.81806 145 128 114
1.14507 -3.43381 1.82509 145 128 111
1.14224 -3.44434 1.83212 146 129 114
1.13940 -3.45488 1.83916 144 127 108
1.13656 -3.46544 1.84622 142 124 102
1.13371 -3.47600 1.85328 140 123 105
1.13086 -3.48658 1.86034 140 124 109
1.12801 -3.49718 1.86742 140 123 112
1.12516 -3.50778 1.87450 139 122 107
1.12230 -3.51840 1.88160 137 120 96
1.11944 -3.52903 1.88870 134 118 95
1.11657 -3.53967 1.89581 134 117 98
1.11370 -3.55033 1.90293 135 118 97
1.11083 -3.56099 1.91005 135 118 95
1.10795 -3.57168 1.91719 135 117 97
1.10508 -3.58237 1.92433 133 116 104
1.10219 -3.59308 1.93149 132 116 108
1.09931 -3.60379 1.93865 134 116 109
1.09642 -3.61453 1.94582 135 117 108
1.09353 -3.62527 1.95299 135 120 106
1.09063 -3.63603 1.96018 135 120 104
1.08773 -3.64680 1.96738 135 119 104
1.08483 -3.65758 1.97458 135 117 108
1.08192 -3.66838 1.98179 134 117 107
1.07901 -3.67919 1.98901 133 117 107
1.07610 -3.69001 1.99624 131 116 106
1.07318 -3.70084 2.00348 130 115 106
1.07026 -3.71169 2.01073 132 117 104
1.06734 -3.72255 2.01798 132 118 103
1.06441 -3.73342 2.02525 132 119 100
1.06148 -3.74431 2.03252 132 118 98
1.05854 -3.75521 2.03980 131 114 99
1.05560 -3.76612 2.04709 130 112 102
1.05266 -3.77705 2.05439 132 110 100
1.04972 -3.78799 2.06170 134 109 97
1.04677 -3.79894 2.06902 130 110 97
1.04382 -3.80991 2.07634 127 109 91
1.19427 -3.25614 1.69142 147 133 116
1.19148 -3.26648 1.69832 146 133 119
1.18870 -3.27683 1.70522 146 131 118
1.18591 -3.28719 1.71214 147 130 116
1.18311 -3.29757 1.71906 147 128 126
1.18032 -3.30796 1.72599 150 127 119
1.17752 -3.31836 1.73293 149 130 112
1.17472 -3.32877 1.73988 148 130 108
1.17191 -3.33919 1.74683 146 130 105
1.16910 -3.34963 1.75380 146 128 108
1.16629 -3.36008 1.76077 146 125 111
1.16347 -3.37054 1.76775 144 123 109
1.16065 -3.38102 1.77474 143 123 111
1.15783 -3.39150 1.78173 143 127 119
1.15501 -3.40200 1.78874 145 127 118
1.15218 -3.41251 1.79575 145 128 116
1.14934 -3.42304 1.80277 145 129 116
1.14651 -3.43357 1.80980 145 129 115
1.14367 -3.44412 1.81684 147 128 105
1.14083 -3.45468 1.82389 146 128 108
1.13798 -3.46526 1.83094 144 128 108
1.13513 -3.47584 1.83801 141 126 105
1.13228 -3.48644 1.84508 141 124 105
1.12942 -3.49705 1.85216 141 123 106
1.12656 -3.50768 1.85925 140 123 108
1.12370 -3.51831 1.86634 138 121 105
1.12084 -3.52896 1.87345 136 119 98
1.11797 -3.53962 1.88056 134 117 97
1.11509 -3.55030 1.88768 134 118 100
1.11222 -3.56099 1.89482 136 119 103
1.10934 -3.57169 1.90195 134 118 103
1.10645 -3.58240 1.90910 132 117 99
1.10357 -3.59312 1.91626 131 116 100
1.10068 -3.60386 1.92342 131 115 105
1.09778 -3.61461 1.93060 133 116 108
1.09489 -3.62538 1.93778 135 118 110
1.09199 -3.63615 1.94497 135 120 108
1.08908 -3.64694 1.95217 134 120 103
1.08617 -3.65775 1.95938 134 118 99
1.08326 -3.66856 1.96659 134 116 101
1.08035 -3.67939 1.97382 133 118 108
1.07743 -3.69023 1.98105 134 119 109
1.07451 -3.70109 1.98829 133 117 107
1.07158 -3.71195 1.99554 132 117 105
1.06866 -3.72284 2.00280 132 119 105
1.06572 -3.73373 2.01007 130 119 107
1.06279 -3.74464 2.01735 129 118 106
1.05985 -3.75556 2.02464 131 116 101
1.05691 -3.76649 2.03193 132 113 103
1.05396 -3.77744 2.03923 131 113 112
1.05101 -3.78839 2.04655 130 111 110
1.04806 -3.79937 2.05387 129 110 96
1.04510 -3.81035 2.06120 127 109 95
1.04214 -3.82135 2.06854 126 110 93
1.19020 -3.27631 1.68983 149 132 119
1.18741 -3.28670 1.69675 149 131 117
1.18461 -3.29709 1.70368 147 129 117
1.18181 -3.30750 1.71061 149 129 123
1.17901 -3.31792 1.71756 151 128 118
1.17620 -3.32835 1.72451 149 130 112
1.17339 -3.33879 1.73147 148 130 107
1.17058 -3.34925 1.73843 146 130 103
1.16776 -3.35971 1.74541 146 128 107
1.16494 -3.37019 1.75239 146 126 112
1.16212 -3.38069 1.75938 143 122 109
1.15929 -3.39119 1.76638 143 123 114
1.15646 -3.40171 1.77339 145 126 121
1.15363 -3.41224 1.78041 147 128 117
1.15079 -3.42278 1.78743 147 128 114
1.14795 -3.43334 1.79447 147 129 111
1.14511 -3.44390 1.80151 148 128 114
1.14226 -3.45448 1.80856 149 127 110
1.13941 -3.46508 1.81562 147 127 108
1.13656 -3.47568 1.82268 144 127 107
1.13370 -3.48630 1.82976 142 126 108
1.13084 -3.49693 1.83684 140 125 108
1.12798 -3.50757 1.84393 139 125 104
1.12511 -3.51823 1.85104 138 123 103
1.12224 -3.52890 1.85814 137 119 102
1.11937 -3.53958 1.86526 135 116 99
1.11649 -3.55027 1.87239 136 116 101
1.11361 -3.56098 1.87952 137 118 106
1.11072 -3.57170 1.88666 138 119 110
1.10784 -3.58243 1.89382 134 116 110
1.10494 -3.59317 1.90098 130 114 108
1.10205 -3.60393 1.90814 130 114 106
1.09915 -3.61470 1.91532 130 113 104
1.09625 -3.62548 1.92251 134 114 107
1.09335 -3.63628 1.92970 137 117 113
1.09044 -3.64709 1.93690 138 119 112
1.08753 -3.65791 1.94412 137 120 105
1.08461 -3.66875 1.95134 133 119 99
1.08169 -3.67960 1.95857 132 119 102
1.07877 -3.69046 1.96580 131 120 111
1.07584 -3.70133 1.97305 131 119 113
1.07291 -3.71222 1.98030 132 117 107
1.06998 -3.72312 1.98757 133 118 107
1.06704 -3.73403 1.99484 132 118 108
1.06410 -3.74496 2.00212 131 117 109
1.06116 -3.75590 2.00941 130 117 108
1.05821 -3.76685 2.01671 129 114 104
1.05526 -3.77782 2.02402 129 112 99
1.05231 -3.78880 2.03134 130 112 104
1.04935 -3.79979 2.03866 130 112 100
1.04639 -3.81080 2.04599 128 108 93
1.04342 -3.82182 2.05334 126 108 93
1.04045 -3.83285 2.06069 126 108 97
1.18891 -3.28620 1.68131 149 131 120
1.18611 -3.29661 1.68824 149 130 115
1.18331 -3.30704 1.69518 148 129 114
1.18050 -3.31747 1.70213 149 129 118
1.17769 -3.32792 1.70908 150 129 117
1.17488 -3.33838 1.71604 148 130 113
1.17206 -3.34886 1.72301 149 129 110
1.16924 -3.35934 1.72999 147 129 107
1.16641 -3.36984 1.73698 146 128 107
1.16359 -3.38035 1.74397 145 125 105
1.16076 -3.39088 1.75098 143 124 100
1.15792 -3.40141 1.75799 144 124 108
1.15508 -3.41196 1.76501 146 126 114
1.15224 -3.42252 1.77204 148 129 113
1.14940 -3.43310 1.77907 149 129 117
1.14655 -3.44368 1.78612 148 128 116
1.14370 -3.45428 1.79317 148 126 117
1.14085 -3.46489 1.80024 147 127 115
1.13799 -3.47552 1.80731 146 127 109
1.13513 -3.48615 1.81438 145 127 103
1.13226 -3.49680 1.82147 143 127 108
1.12940 -3.50747 1.82857 143 127 110
1.12652 -3.51814 1.83567 141 125 104
1.12365 -3.52883 1.84278 138 122 101
1.12077 -3.53953 1.84990 137 118 103
1.11789 -3.55024 1.85703 135 116 105
1.11500 -3.56097 1.86417 134 118 108
1.11212 -3.57171 1.87132 135 120 109
1.10922 -3.58246 1.87847 136 120 106
1.10633 -3.59322 1.88564 135 118 100
1.10343 -3.60400 1.89281 133 116 99
1.10053 -3.61479 1.89999 133 115 102
1.09762 -3.62559 1.90718 134 115 99
1.09471 -3.63641 1.91438 136 115 102
1.09180 -3.64724 1.92159 138 116 110
1.08888 -3.65808 1.92880 136 118 107
1.08596 -3.66893 1.93603 133 119 98
1.08304 -3.67980 1.94326 132 119 96
1.08011 -3.69068 1.95050 134 119 103
1.07718 -3.70158 1.95775 133 119 105
1.07425 -3.71249 1.96501 132 118 104
1.07131 -3.72341 1.97228 131 115 102
1.06837 -3.73434 1.97955 133 116 103
1.06542 -3.74529 1.98684 134 116 106
1.06247 -3.75625 1.99413 132 117 102
1.05952 -3.76722 2.00144 131 117 100
1.05657 -3.77821 2.00875 130 116 104
1.05361 -3.78921 2.01607 128 115 99
1.05065 -3.80022 2.02340 130 113 100
1.04768 -3.81125 2.03074 130 111 97
1.04471 -3.82229 2.03808 127 108 95
1.04174 -3.83334 2.04544 125 108 102
1.03876 -3.84441 2.05281 126 107 106
1.18481 -3.30657 1.67969 147 130 111
1.18200 -3.31703 1.68664 151 130 113
1.17919 -3.32750 1.69360 151 130 116
1.17637 -3.33798 1.70056 151 130 116
1.17355 -3.34847 1.70754 150 129 114
1.17072 -3.35897 1.71452 150 127 114
1.16789 -3.36949 1.72151 147 127 114
1.16506 -3.38002 1.72851 145 125 110
1.16223 -3.39056 1.73552 145 124 106
1.15939 -3.40112 1.74253 144 125 103
1.15655 -3.41169 1.74955 145 127 105
1.15370 -3.42227 1.75659 146 128 109
1.15085 -3.43286 1.76363 147 129 110
1.14800 -3.44346 1.77068 147 129 113
1.14515 -3.45408 1.77773 148 127 117
1.14229 -3.46471 1.78480 149 126 117
1.13942 -3.47535 1.79187 147 127 116
1.13656 -3.48601 1.79895 147 126 114
1.13369 -3.49668 1.80605 145 125 112
1.13082 -3.50736 1.81314 143 125 117
1.12794 -3.51805 1.82025 143 125 115
1.12506 -3.52876 1.82737 142 123 108
1.12218 -3.53948 1.83449 139 120 102
1.11929 -3.55021 1.84163 137 117 101
1.11641 -3.56096 1.84877 136 116 100
1.11351 -3.57172 1.85592 134 117 98
1.11062 -3.58249 1.86308 135 118 99
1.10772 -3.59327 1.87024 136 118 102
1.10481 -3.60407 1.87742 136 118 97
1.10191 -3.61488 1.88461 134 116 95
1.09900 -3.62570 1.89180 134 114 99
1.09608 -3.63654 1.89900 135 115 102
1.09316 -3.64738 1.90621 135 117 106
1.09024 -3.65825 1.91343 135 118 108
1.08732 -3.66912 1.92066 135 119 106
1.08439 -3.68001 1.92790 134 118 108
1.08146 -3.69091 1.93514 136 117 109
1.07852 -3.70183 1.94240 138 118 106
1.07559 -3.71275 1.94966 134 119 102
1.07264 -3.72369 1.95693 132 119 100
1.06970 -3.73465 1.96421 132 115 102
1.06675 -3.74562 1.97150 133 114 107
1.06380 -3.75660 1.97880 134 115 114
1.06084 -3.76759 1.98611 133 116 112
1.05788 -3.77860 1.99342 133 115 109
1.05492 -3.78962 2.00075 133 114 111
1.05195 -3.80065 2.00808 132 113 105
1.04898 -3.81170 2.01542 131 112 107
1.04600 -3.82276 2.02277 129 110 106
1.04303 -3.83383 2.03013 127 108 98
1.04004 -3.84492 2.03750 126 108 97
1.03706 -3.85602 2.04488 125 107 102
1.18351 -3.31658 1.67110 147 129 110
1.18069 -3.32707 1.67806 150 130 114
1.17786 -3.33757 1.68503 150 130 119
1.17504 -3.34808 1.69201 151 130 118
1.17221 -3.35860 1.69899 150 129 114
1.16938 -3.36914 1.70599 148 128 110
1.16654 -3.37969 1.71299 145 128 108
1.16370 -3.39025 1.72000 147 126 105
1.16086 -3.40082 1.72702 145 124 105
1.15801 -3.41141 1.73404 144 125 106
1.15516 -3.42201 1.74108 145 128 106
1.15231 -3.43262 1.74812 145 130 108
1.14946 -3.44324 1.75518 148 130 111
1.14660 -3.45388 1.76224 148 129 112
1.14373 -3.46453 1.76930 147 128 118
1.14087 -3.47519 1.77638 147 127 115
1.13800 -3.48587 1.78347 145 127 114
1.13512 -3.49655 1.79056 146 125 118
1.13225 -3.50725 1.79767 146 124 117
1.12937 -3.51797 1.80478 143 124 115
1.12648 -3.52869 1.81190 143 123 112
1.12360 -3.53943 1.81902 142 121 109
1.12071 -3.55018 1.82616 140 118 102
1.11781 -3.56095 1.83331 139 116 95
1.11491 -3.57173 1.84046 137 116 99
1.11201 -3.58252 1.84762 135 117 102
1.10911 -3.59332 1.85480 135 117 101
1.10620 -3.60414 1.86198 135 116 101
1.10329 -3.61497 1.86916 134 116 99
1.10038 -3.62581 1.87636 133 116 97
1.09746 -3.63666 1.88357 135 115 100
1.09453 -3.64753 1.89078 136 115 106
1.09161 -3.65842 1.89800 136 117 111
1.08868 -3.66931 1.90524 136 117 110
1.08575 -3.68022 1.91248 134 118 103
1.08281 -3.69114 1.91973 133 118 104
1.07987 -3.70207 1.92698 134 117 110
1.07693 -3.71302 1.93425 132 117 107
1.07398 -3.72398 1.94153 130 118 101
1.07103 -3.73496 1.94881 129 119 99
1.06808 -3.74594 1.95611 130 117 102
1.06512 -3.75695 1.96341 130 114 107
1.06216 -3.76796 1.97072 129 115 110
1.05919 -3.77899 1.97804 131 117 111
1.05623 -3.79003 1.98537 133 117 111
1.05325 -3.80108 1.99271 134 116 110
1.05028 -3.81215 2.00005 133 113 105
1.04730 -3.82323 2.00741 131 112 104
1.04432 -3.83433 2.01477 130 110 104
1.04133 -3.84544 2.02215 128 108 101
1.03834 -3.85656 2.02953 127 108 101
1.03535 -3.86769 2.03692 127 106 106
1.18219 -3.32664 1.66247 148 129 107
1.17937 -3.33716 1.66944 150 129 112
1.17654 -3.34769 1.67642 150 128 117
1.17370 -3.35823 1.68341 150 129 118
1.17087 -3.36878 1.69041 150 128 112
1.16803 -3.37935 1.69741 148 128 110
1.16518 -3.38993 1.70443 147 127 108
1.16234 -3.40052 1.71145 150 125 104
1.15949 -3.41113 1.71848 147 124 104
1.15663 -3.42175 1.72552 145 127 107
1.15377 -3.43238 1.73256 145 130 106
1.15091 -3.44302 1.73962 144 130 111
1.14805 -3.45368 1.74668 147 128 115
1.14518 -3.46434 1.75376 147 127 116
1.14231 -3.47503 1.76084 147 128 117
1.13944 -3.48572 1.76793 147 128 113
1.13656 -3.49643 1.77502 147 125 111
1.13368 -3.50715 1.78213 146 124 112
1.13080 -3.51788 1.78925 145 125 111
1.12791 -3.52862 1.79637 144 124 109
1.12502 -3.53938 1.80350 142 123 107
1.12212 -3.55015 1.81064 139 121 108
1.11922 -3.56094 1.81779 137 118 106
1.11632 -3.57174 1.82495 136 118 102
1.11342 -3.58255 1.83211 135 117 106
1.11051 -3.59337 1.83929 135 117 107
1.10759 -3.60421 1.84647 135 116 105
1.10468 -3.61505 1.85367 135 116 108
1.10176 -3.62592 1.86087 133 116 105
1.09884 -3.63679 1.86808 131 116 95
1.09591 -3.64768 1.87529 133 116 97
1.09298 -3.65858 1.88252 135 116 107
1.09005 -3.66950 1.88976 135 117 113
1.08711 -3.68043 1.89700 135 117 111
1.08417 -3.69137 1.90426 133 117 105
1.08123 -3.70232 1.91152 133 118 104
1.07828 -3.71329 1.91879 132 119 108
1.07533 -3.72427 1.92607 131 120 107
1.07237 -3.73527 1.93336 132 121 95
1.06941 -3.74627 1.94065 130 120 96
1.06645 -3.75730 1.94796 129 117 106
1.06349 -3.76833 1.95528 130 114 108
1.06052 -3.77938 1.96260 131 116 108
1.05754 -3.79044 1.96993 133 118 106
1.05457 -3.80152 1.97727 132 119 110
1.05159 -3.81260 1.98463 131 117 111
1.04860 -3.82371 1.99199 131 113 102
1.04562 -3.83482 1.99935 131 110 98
1.04262 -3.84595 2.00673 130 108 99
1.03963 -3.85709 2.01412 128 109 98
1.03663 -3.86825 2.02151 127 109 101
1.03363 -3.87942 2.02892 128 109 102
1.18087 -3.33675 1.65380 146 130 108
1.17804 -3.34729 1.66078 147 131 109
1.17520 -3.35786 1.66777 149 130 111
1.17236 -3.36843 1.67477 149 129 117
1.16952 -3.37901 1.68178 150 127 109
1.16667 -3.38961 1.68880 149 127 112
1.16382 -3.40023 1.69582 147 125 112
1.16096 -3.41085 1.70286 148 124 111
1.15810 -3.42149 1.70990 147 124 112
1.15524 -3.43214 1.71695 146 127 114
1.15238 -3.44280 1.72401 147 129 106
1.14951 -3.45347 1.73107 147 131 112
1.14664 -3.46416 1.73815 145 130 121
1.14376 -3.47486 1.74524 145 130 121
1.14089 -3.48557 1.75233 147 131 117
1.13800 -3.49630 1.75943 146 128 112
1.13512 -3.50704 1.76654 146 125 111
1.13223 -3.51779 1.77366 145 124 107
1.12934 -3.52856 1.78078 144 125 109
1.12644 -3.53933 1.78792 143 124 113
1.12354 -3.55013 1.79506 140 123 110
1.12064 -3.56093 1.80222 136 120 107
1.11773 -3.57175 1.80938 134 118 106
1.11482 -3.58258 1.81655 135 118 101
1.11191 -3.59342 1.82373 135 117 101
1.10899 -3.60427 1.83091 135 117 101
1.10607 -3.61514 1.83811 135 116 96
1.10315 -3.62603 1.84532 136 116 101
1.10022 -3.63692 1.85253 135 116 105
1.09729 -3.64783 1.85975 133 116 101
1.09436 -3.65875 1.86698 134 117 102
1.09142 -3.66969 1.87422 134 117 107
1.08848 -3.68064 1.88147 135 118 108
1.08553 -3.69160 1.88873 135 119 106
1.08258 -3.70257 1.89599 135 118 103
1.07963 -3.71356 1.90327 135 117 99
1.07668 -3.72456 1.91055 135 118 101
1.07372 -3.73558 1.91784 134 120 103
1.07075 -3.74661 1.92515 132 120 99
1.06779 -3.75765 1.93246 130 119 105
1.06482 -3.76870 1.93978 129 119 109
1.06184 -3.77977 1.94710 130 117 105
1.05886 -3.79085 1.95444 131 116 105
1.05588 -3.80195 1.96179 135 116 102
1.05290 -3.81306 1.96914 133 117 101
1.04991 -3.82418 1.97651 131 117 102
1.04692 -3.83532 1.98388 131 113 90
1.04392 -3.84647 1.99126 132 108 85
1.04092 -3.85763 1.99865 130 107 90
1.03792 -3.86881 2.00605 128 109 92
1.03491 -3.88000 2.01346 127 109 98
1.03190 -3.89121 2.02088 128 106 99
1.17955 -3.34690 1.64508 145 131 112
1.17670 -3.35748 1.65208 148 133 114
1.17386 -3.36807 1.65908 150 131 114
1.17101 -3.37868 1.66609 148 130 117
1.16816 -3.38929 1.67311 150 129 115
1.16530 -3.39993 1.68014 150 128 118
1.16245 -3.41057 1.68718 148 126 115
1.15958 -3.42122 1.69422 147 125 113
1.15672 -3.43189 1.70128 147 127 117
1.15385 -3.44257 1.70834 147 127 119
1.15098 -3.45327 1.71541 149 129 114
1.14810 -3.46398 1.72249 148 130 114
1.14522 -3.47470 1.72958 147 130 119
1.14234 -3.48543 1.73667 146 132 120
1.13945 -3.49617 1.74378 145 132 114
1.13656 -3.50693 1.75089 144 129 108
1.13367 -3.51770 1.75801 142 124 115
1.13077 -3.52849 1.76514 142 124 113
1.12787 -3.53929 1.77228 143 124 109
1.12497 -3.55010 1.77943 143 123 109
1.12206 -3.56092 1.78659 141 121 108
1.11915 -3.57176 1.79375 137 119 108
1.11624 -3.58261 1.80093 134 118 111
1.11332 -3.59347 1.80811 135 119 106
1.11040 -3.60434 1.81530 136 118 101
1.10747 -3.61523 1.82250 137 117 100
1.10454 -3.62614 1.82971 136 116 101
1.10161 -3.63705 1.83692 136 115 107
1.09868 -3.64798 1.84415 135 116 107
1.09574 -3.65892 1.85139 135 118 102
1.09280 -3.66988 1.85863 134 121 104
1.08985 -3.68085 1.86588 133 121 108
1.08690 -3.69183 1.87314 134 121 107
1.08395 -3.70282 1.88041 135 119 105
1.08099 -3.71383 1.88769 134 118 105
1.07803 -3.72485 1.89498 132 116 108
1.07506 -3.73589 1.90227 133 116 111
1.07210 -3.74694 1.90958 133 118 107
1.06913 -3.75800 1.91689 132 117 101
1.06615 -3.76908 1.92422 132 118 97
1.06317 -3.78017 1.93155 130 116 96
1.06019 -3.79127 1.93889 130 114 99
1.05720 -3.80239 1.94624 132 114 103
1.05421 -3.81352 1.95360 135 115 106
1.05122 -3.82466 1.96097 133 116 104
1.04822 -3.83582 1.96835 131 116 105
1.04522 -3.84699 1.97573 129 112 100
1.04222 -3.85817 1.98313 129 110 103
1.03921 -3.86937 1.99053 128 110 99
1.03620 -3.88058 1.99794 127 109 101
1.03318 -3.89181 2.00537 126 109 101
1.03017 -3.90305 2.01280 128 107 104
1.17821 -3.35710 1.63632 144 131 111
1.17537 -3.36771 1.64333 151 132 116
1.17251 -3.37834 1.65035 152 131 119
1.16966 -3.38897 1.65737 150 131 118
1.16680 -3.39962 1.66440 150 130 116
1.16393 -3.41029 1.67144 149 130 114
1.16107 -3.42096 1.67849 147 128 110
1.15820 -3.43165 1.68555 147 127 106
1.15532 -3.44235 1.69261 148 128 114
1.15245 -3.45306 1.69969 148 129 118
1.14957 -3.46379 1.70677 148 130 115
1.14668 -3.47453 1.71386 148 130 114
1.14380 -3.48528 1.72096 147 129 112
1.14091 -3.49605 1.72807 148 129 115
1.13801 -3.50682 1.73519 146 130 111
1.13511 -3.51762 1.74231 144 129 107
1.13221 -3.52842 1.74945 143 128 111
1.12931 -3.53924 1.75659 144 126 110
1.12640 -3.55007 1.76374 144 125 110
1.12349 -3.56091 1.77090 143 123 106
1.12057 -3.57177 1.77807 139 120 105
1.11765 -3.58264 1.78525 136 118 105
1.11473 -3.59352 1.79243 134 118 102
1.11181 -3.60441 1.79963 136 119 103
1.10888 -3.61532 1.80683 137 118 103
1.10594 -3.62625 1.81404 137 116 100
1.10301 -3.63718 1.82126 136 116 100
1.10007 -3.64813 1.82849 133 117 105
1.09712 -3.65909 1.83573 132 117 105
1.09418 -3.67007 1.84298 135 119 103
1.09123 -3.68106 1.85023 135 121 105
1.08827 -3.69206 1.85750 134 122 108
1.08531 -3.70308 1.86477 134 120 110
1.08235 -3.71410 1.87206 136 118 111
1.07939 -3.72515 1.87935 137 116 109
1.07642 -3.73620 1.88665 136 115 109
1.07345 -3.74727 1.89396 134 117 111
1.07047 -3.75836 1.90128 131 119 106
1.06749 -3.76945 1.90860 131 119 104
1.06451 -3.78056 1.91594 133 118 107
1.06152 -3.79169 1.92328 129 118 106
1.05853 -3.80282 1.93064 127 116 96
1.05554 -3.81397 1.93800 132 115 98
1.05254 -3.82514 1.94537 135 115 107
1.04954 -3.83632 1.95275 134 114 104
1.04653 -3.84751 1.96015 132 113 98
1.04352 -3.85872 1.96754 130 110 95
1.04051 -3.86994 1.97495 129 109 101
1.03749 -3.88117 1.98237 128 109 96
1.03447 -3.89242 1.98980 129 110 99
1.03145 -3.90368 1.99723 128 109 96
1.02842 -3.91495 2.00468 129 108 99
1.17688 -3.36735 1.62752 142 130 108
1.17402 -3.37800 1.63454 150 132 116
1.17116 -3.38865 1.64157 151 132 123
1.16829 -3.39932 1.64860 149 131 120
1.16543 -3.41000 1.65565 149 131 118
1.16256 -3.42070 1.66270 148 129 112
1.15968 -3.43140 1.66976 145 128 108
1.15680 -3.44212 1.67683 146 127 109
1.15392 -3.45286 1.68391 147 129 116
1.15104 -3.46360 1.69099 148 129 121
1.14815 -3.47436 1.69809 148 130 119
1.14526 -3.48513 1.70519 148 131 122
1.14236 -3.49592 1.71230 147 130 119
1.13947 -3.50672 1.71942 146 130 116
1.13656 -3.51753 1.72655 145 129 106
1.13366 -3.52835 1.73369 142 129 105
1.13075 -3.53919 1.74084 142 129 110
1.12784 -3.55004 1.74799 144 127 110
1.12492 -3.56090 1.75516 144 126 109
1.12200 -3.57178 1.76233 141 124 105
1.11908 -3.58267 1.76951 138 121 104
1.11615 -3.59357 1.77670 135 119 105
1.11322 -3.60448 1.78390 134 119 104
1.11029 -3.61541 1.79110 136 119 107
1.10735 -3.62636 1.79832 136 118 107
1.10441 -3.63731 1.80554 135 118 105
1.10146 -3.64828 1.81278 135 116 103
1.09852 -3.65926 1.82002 132 116 100
1.09556 -3.67026 1.82727 131 117 103
1.09261 -3.68127 1.83453 136 119 113
1.08965 -3.69229 1.84180 138 120 108
1.08669 -3.70333 1.84908 136 120 100
1.08372 -3.71438 1.85636 135 119 104
1.08075 -3.72544 1.86366 135 118 105
1.07778 -3.73652 1.87096 136 116 104
1.07480 -3.74761 1.87828 134 116 105
1.07182 -3.75871 1.88560 133 118 108
1.06884 -3.76983 1.89293 132 119 100
1.06585 -3.78096 1.90027 131 118 101
1.06286 -3.79210 1.90762 132 118 101
1.05986 -3.80326 1.91498 131 117 101
1.05686 -3.81443 1.92234 130 115 99
1.05386 -3.82562 1.92972 132 113 103
1.05085 -3.83682 1.93711 133 112 112
1.04784 -3.84803 1.94450 133 110 107
1.04483 -3.85926 1.95190 133 109 101
1.04181 -3.87050 1.95932 129 110 101
1.03879 -3.88176 1.96674 128 110 105
1.03577 -3.89302 1.97417 126 110 98
1.03274 -3.90431 1.98161 128 110 97
1.02970 -3.91560 1.98906 129 111 94
1.02667 -3.92691 1.99652 127 110 90
1.17553 -3.37766 1.61868 142 127 108
1.17267 -3.38833 1.62571 151 130 116
1.16980 -3.39902 1.63275 153 131 119
1.16693 -3.40972 1.63980 151 131 117
1.16405 -3.42043 1.64685 150 131 122
1.16117 -3.43116 1.65392 147 130 118
1.15829 -3.44190 1.66099 146 129 114
1.15541 -3.45265 1.66807 148 128 116
1.15252 -3.46342 1.67516 148 129 120
1.14962 -3.47419 1.68226 148 129 120
1.14673 -3.48499 1.68936 151 129 115
1.14383 -3.49579 1.69648 150 129 119
1.14093 -3.50661 1.70360 148 130 119
1.13802 -3.51744 1.71074 147 131 118
1.13511 -3.52828 1.71788 146 128 113
1.13220 -3.53914 1.72503 145 127 110
1.12928 -3.55001 1.73219 144 127 112
1.12636 -3.56089 1.73935 141 126 112
1.12343 -3.57179 1.74653 139 125 112
1.12051 -3.58270 1.75371 138 122 108
1.11757 -3.59362 1.76091 136 120 104
1.11464 -3.60456 1.76811 135 119 105
1.11170 -3.61550 1.77532 137 120 105
1.10876 -3.62647 1.78254 137 118 105
1.10581 -3.63744 1.78977 135 117 105
1.10287 -3.64843 1.79700 134 118 103
1.09991 -3.65944 1.80425 134 116 104
1.09696 -3.67045 1.81150 135 115 105
1.09400 -3.68148 1.81877 134 117 108
1.09103 -3.69253 1.82604 135 120 111
1.08807 -3.70358 1.83332 136 122 108
1.08509 -3.71465 1.84061 135 121 100
1.08212 -3.72574 1.84791 137 121 94
1.07914 -3.73683 1.85522 138 119 95
1.07616 -3.74794 1.86254 135 117 104
1.07318 -3.75907 1.86986 133 117 108
1.07019 -3.77021 1.87720 132 119 110
1.06719 -3.78136 1.88454 131 117 107
1.06420 -3.79252 1.89190 133 114 106
1.06120 -3.80370 1.89926 134 112 102
1.05819 -3.81490 1.90663 133 113 101
1.05519 -3.82610 1.91401 132 114 100
1.05217 -3.83732 1.92140 131 114 103
1.04916 -3.84856 1.92880 131 114 108
1.04614 -3.85981 1.93621 131 113 108
1.04312 -3.87107 1.94362 130 111 103
1.04009 -3.88235 1.95105 128 109 103
1.03706 -3.89364 1.95848 128 108 106
1.03403 -3.90494 1.96593 128 109 104
1.03099 -3.91626 1.97338 129 109 101
1.02795 -3.92759 1.98084 130 109 99
1.02491 -3.93894 1.98832 128 108 98
1.17131 -3.39871 1.61684 149 132 120
1.16843 -3.40943 1.62389 151 133 122
1.16555 -3.42017 1.63095 151 133 118
1.16267 -3.43091 1.63802 151 131 122
1.15978 -3.44167 1.64509 148 130 120
1.15689 -3.45244 1.65218 148 128 118
1.15400 -3.46323 1.65927 149 128 120
1.15110 -3.47403 1.66637 149 130 124
1.14820 -3.48484 1.67348 149 131 121
1.14530 -3.49566 1.68060 151 130 118
1.14239 -3.50650 1.68773 147 129 120
1.13948 -3.51735 1.69486 146 130 117
1.13657 -3.52821 1.70201 147 130 116
1.13365 -3.53909 1.70916 147 127 113
1.13073 -3.54998 1.71632 147 125 111
1.12780 -3.56088 1.72349 145 125 118
1.12487 -3.57180 1.73067 143 125 115
1.12194 -3.58273 1.73786 141 125 109
1.11900 -3.59367 1.74506 139 122 105
1.11606 -3.60463 1.75226 137 120 105
1.11312 -3.61560 1.75948 136 119 105
1.11018 -3.62658 1.76670 138 119 104
1.10723 -3.63758 1.77393 138 118 99
1.10427 -3.64859 1.78117 137 116 99
1.10131 -3.65961 1.78842 136 116 102
1.09835 -3.67064 1.79568 134 117 104
1.09539 -3.68169 1.80295 134 117 110
1.09242 -3.69276 1.81022 133 119 113
1.08945 -3.70384 1.81751 134 120 111
1.08647 -3.71493 1.82480 136 120 109
1.08349 -3.72603 1.83211 135 119 103
1.08051 -3.73715 1.83942 135 120 99
1.07753 -3.74828 1.84674 134 119 102
1.07453 -3.75943 1.85407 132 119 112
1.07154 -3.77059 1.86141 132 117 114
1.06854 -3.78176 1.86876 133 116 109
1.06554 -3.79295 1.87611 132 115 108
1.06254 -3.80415 1.88348 133 113 107
1.05953 -3.81536 1.89086 135 112 103
1.05652 -3.82659 1.89824 134 111 102
1.05350 -3.83783 1.90563 132 113 101
1.05048 -3.84909 1.91304 131 114 97
1.04746 -3.86036 1.92045 130 115 103
1.04443 -3.87164 1.92787 128 114 112
1.04140 -3.88294 1.93530 129 112 102
1.03837 -3.89425 1.94274 128 111 102
1.03533 -3.90557 1.95019 128 110 108
1.03228 -3.91691 1.95765 128 110 111
1.02924 -3.92827 1.96511 126 110 106
1.02619 -3.93963 1.97259 127 108 107
1.02314 -3.95102 1.98007 127 106 109
1.16994 -3.40915 1.60792 147 134 119
1.16706 -3.41990 1.61499 150 136 120
1.16417 -3.43067 1.62206 153 134 120
1.16128 -3.44144 1.62913 154 132 123
1.15838 -3.45224 1.63622 152 130 121
1.15549 -3.46304 1.64332 151 129 117
1.15259 -3.47386 1.65042 151 130 120
1.14968 -3.48469 1.65754 150 131 123
1.14677 -3.49553 1.66466 150 131 120
1.14386 -3.50639 1.67179 152 130 116
1.14095 -3.51726 1.67893 147 129 110
1.13803 -3.52814 1.68608 144 130 114
1.13510 -3.53904 1.69323 144 128 119
1.13218 -3.54995 1.70040 144 126 117
1.12925 -3.56087 1.70757 146 125 114
1.12632 -3.57181 1.71476 146 124 116
1.12338 -3.58276 1.72195 143 123 114
1.12044 -3.59372 1.72915 140 122 107
1.11749 -3.60470 1.73636 138 121 103
1.11455 -3.61569 1.74358 136 120 102
1.11160 -3.62669 1.75080 136 119 101
1.10864 -3.63771 1.75804 136 118 102
1.10568 -3.64874 1.76528 134 117 101
1.10272 -3.65978 1.77254 134 115 102
1.09976 -3.67084 1.77980 134 116 104
1.09679 -3.68191 1.78707 133 117 104
1.09381 -3.69299 1.79435 133 117 107
1.09084 -3.70409 1.80164 133 119 111
1.08786 -3.71520 1.80894 134 121 110
1.08487 -3.72633 1.81624 136 120 109
1.08189 -3.73747 1.82356 135 119 107
1.07889 -3.74862 1.83088 135 119 105
1.07590 -3.75979 1.83822 134 118 104
1.07290 -3.77097 1.84556 132 118 108
1.06990 -3.78216 1.85291 131 118 108
1.06689 -3.79337 1.86027 132 117 106
1.06388 -3.80459 1.86764 131 116 107
1.06087 -3.81583 1.87502 132 115 104
1.05785 -3.82707 1.88241 132 113 101
1.05483 -3.83834 1.88981 131 111 105
1.05181 -3.84962 1.89722 132 110 109
1.04878 -3.86091 1.90463 132 112 100
1.04575 -3.87221 1.91206 130 113 101
1.04271 -3.88353 1.91949 127 112 106
1.03967 -3.89486 1.92693 128 113 98
1.03663 -3.90621 1.93439 128 111 96
1.03358 -3.91757 1.94185 130 110 97
1.03053 -3.92895 1.94932 131 110 99
1.02748 -3.94034 1.95680 126 107 106
1.02442 -3.95174 1.96429 127 106 104
1.02136 -3.96316 1.97179 127 107 100
1.16857 -3.41963 1.59896 148 132 120
1.16568 -3.43042 1.60604 151 135 119
1.16278 -3.44122 1.61312 154 134 119
1.15988 -3.45203 1.62021 153 133 123
1.15698 -3.46285 1.62731 150 132 118
1.15407 -3.47369 1.63442 149 131 113
1.15117 -3.48454 1.64154 152 131 119
1.14825 -3.49540 1.64866 151 132 125
1.14534 -3.50628 1.65579 151 131 123
1.14242 -3.51717 1.66294 150 131 122
1.13949 -3.52807 1.67009 148 130 115
1.13657 -3.53899 1.67725 147 130 113
1.13364 -3.54992 1.68442 145 129 116
1.13070 -3.56086 1.69160 145 127 113
1.12776 -3.57182 1.69878 147 126 111
1.12482 -3.58279 1.70598 145 126 112
1.12188 -3.59377 1.71318 141 124 112
1.11893 -3.60477 1.72039 138 122 106
1.11598 -3.61578 1.72762 136 122 101
1.11302 -3.62680 1.73485 136 121 102
1.11006 -3.63784 1.74209 137 118 104
1.10710 -3.64889 1.74933 136 116 106
1.10413 -3.65995 1.75659 132 116 105
1.10116 -3.67103 1.76386 132 116 100
1.09819 -3.68212 1.77113 135 117 93
1.09521 -3.69323 1.77842 135 117 95
1.09223 -3.70435 1.78571 136 118 107
1.08925 -3.71548 1.79301 134 120 112
1.08626 -3.72663 1.80032 134 120 110
1.08327 -3.73779 1.80764 136 120 108
1.08027 -3.74896 1.81497 135 119 104
1.07727 -3.76015 1.82231 134 118 100
1.07427 -3.77135 1.82965 134 118 98
1.07126 -3.78256 1.83701 133 119 98
1.06825 -3.79379 1.84437 133 119 96
1.06523 -3.80504 1.85175 135 117 102
1.06222 -3.81629 1.85913 133 116 110
1.05919 -3.82756 1.86652 132 115 103
1.05617 -3.83885 1.87393 130 114 97
1.05314 -3.85015 1.88134 130 113 98
1.05011 -3.86146 1.88876 131 112 105
1.04707 -3.87279 1.89619 132 114 102
1.04403 -3.88413 1.90362 130 113 102
1.04098 -3.89548 1.91107 128 111 104
1.03794 -3.90685 1.91853 128 112 108
1.03488 -3.91823 1.92599 130 112 107
1.03183 -3.92963 1.93347 130 111 101
1.02877 -3.94104 1.94095 131 110 101
1.02571 -3.95247 1.94845 129 108 99
1.02264 -3.96391 1.95595 128 106 97
1.01957 -3.97536 1.96346 125 105 97
1.17298 -3.40857 1.57582 142 125 114
1.17008 -3.41936 1.58288 146 129 117
1.16719 -3.43017 1.58996 149 132 122
1.16429 -3.44099 1.59705 151 135 118
1.16139 -3.45182 1.60414 153 134 112
1.15848 -3.46266 1.61124 153 134 118
1.15557 -3.47352 1.61835 151 133 119
1.15266 -3.48439 1.62547 149 133 117
1.14974 -3.49527 1.63260 150 134 118
1.14682 -3.50617 1.63974 149 134 121
1.14389 -3.51708 1.64689 150 130 121
1.14097 -3.52800 1.65404 150 130 119
1.13803 -3.53894 1.66121 148 130 115
1.13510 -3.54989 1.66838 149 130 111
1.13216 -3.56085 1.67556 145 129 111
1.12922 -3.57183 1.68275 144 128 113
1.12627 -3.58282 1.68995 145 127 114
1.12332 -3.59382 1.69715 143 127 112
1.12037 -3.60484 1.70437 139 125 109
1.11741 -3.61587 1.71160 136 122 103
1.11445 -3.62691 1.71883 136 123 97
1.11149 -3.63797 1.72607 134 121 100
1.10852 -3.64904 1.73333 135 118 107
1.10555 -3.66013 1.74059 137 116 109
1.10258 -3.67123 1.74786 135 116 107
1.09960 -3.68234 1.75513 135 117 106
1.09662 -3.69347 1.76242 134 118 102
1.09363 -3.70461 1.76972 133 118 99
1.09064 -3.71576 1.77702 135 119 105
1.08765 -3.72693 1.78434 135 119 109
1.08465 -3.73811 1.79166 133 120 112
1.08165 -3.74930 1.79899 133 121 110
1.07864 -3.76051 1.80634 133 119 103
1.07564 -3.77173 1.81369 133 118 102
1.07263 -3.78297 1.82105 132 119 102
1.06961 -3.79422 1.82842 132 120 102
1.06659 -3.80548 1.83579 131 119 100
1.06357 -3.81676 1.84318 131 117 100
1.06054 -3.82805 1.85058 130 117 106
1.05751 -3.83936 1.85798 130 116 105
1.05448 -3.85068 1.86540 130 117 107
1.05144 -3.86201 1.87282 131 117 108
1.04840 -3.87336 1.88025 132 116 104
1.04535 -3.88472 1.88770 132 113 101
1.04230 -3.89610 1.89515 130 111 97
1.03925 -3.90749 1.90261 126 111 97
1.03619 -3.91890 1.91008 128 110 104
1.03313 -3.93032 1.91756 129 111 104
1.03007 -3.94175 1.92505 130 111 100
1.02700 -3.95320 1.93255 129 110 98
1.02393 -3.96466 1.94005 130 108 88
1.02085 -3.97613 1.94757 127 105 88
1.01777 -3.98763 1.95510 122 106 96
1.18317 -3.37593 1.53851 144 136 122
1.17740 -3.39749 1.55261 147 131 112
1.17450 -3.40828 1.55967 144 126 114
1.17161 -3.41909 1.56674 145 126 120
1.16871 -3.42992 1.57382 148 131 117
1.16580 -3.44076 1.58091 151 134 122
1.16290 -3.45161 1.58801 153 136 124
1.15998 -3.46247 1.59512 153 136 120
1.15707 -3.47335 1.60223 153 135 119
1.15415 -3.48424 1.60936 152 134 121
1.15123 -3.49514 1.61649 153 133 122
1.14830 -3.50606 1.62363 152 134 121
1.14538 -3.51699 1.63078 151 133 119
1.14244 -3.52793 1.63794 149 132 119
1.13951 -3.53889 1.64510 149 133 116
1.13657 -3.54986 1.65228 148 131 114
1.13362 -3.56084 1.65946 147 128 111
1.13068 -3.57184 1.66666 146 128 110
1.12773 -3.58285 1.67386 144 127 115
1.12477 -3.59387 1.68107 145 125 121
1.12182 -3.60491 1.68829 143 124 115
1.11885 -3.61596 1.69552 139 124 106
1.11589 -3.62703 1.70276 136 123 105
1.11292 -3.63811 1.71000 136 121 106
1.10995 -3.64920 1.71726 133 121 108
1.10697 -3.66030 1.72452 134 120 111
1.10399 -3.67142 1.73179 138 118 110
1.10101 -3.68256 1.73908 137 116 104
1.09802 -3.69370 1.74637 136 116 97
1.09503 -3.70486 1.75367 135 117 97
1.09204 -3.71604 1.76098 135 118 102
1.08904 -3.72723 1.76830 136 119 105
1.08604 -3.73843 1.77562 137 118 106
1.08303 -3.74964 1.78296 133 119 104
1.08003 -3.76087 1.79031 131 120 102
1.07701 -3.77212 1.79766 132 118 104
1.07400 -3.78338 1.80502 132 116 104
1.07098 -3.79465 1.81240 133 116 106
1.06795 -3.80593 1.81978 134 117 113
1.06492 -3.81723 1.82717 134 116 112
1.06189 -3.82855 1.83457 131 115 105
1.05886 -3.83987 1.84198 128 115 107
1.05582 -3.85121 1.84940 130 117 107
1.05278 -3.86257 1.85683 132 117 109
1.04973 -3.87394 1.86426 134 115 109
1.04668 -3.88532 1.87171 132 113 105
1.04362 -3.89672 1.87917 131 111 104
1.04057 -3.90814 1.88663 129 112 99
1.03750 -3.91956 1.89411 127 112 96
1.03444 -3.93100 1.90159 128 110 98
1.03137 -3.94246 1.90908 130 110 99
1.02830 -3.95393 1.91658 130 111 107
1.02522 -3.96541 1.92410 126 110 107
1.02214 -3.97691 1.93162 129 107 92
1.01905 -3.98842 1.93915 129 105 90
1.01596 -3.99995 1.94669 129 108 98
1.17893 -3.39718 1.53641 143 131 126
1.17604 -3.40799 1.54347 144 128 116
1.17313 -3.41882 1.55055 145 126 113
1.17023 -3.42967 1.55763 146 129 118
1.16732 -3.44053 1.56472 150 132 118
1.16441 -3.45140 1.57182 154 135 119
1.16149 -3.46228 1.57893 154 135 121
1.15858 -3.47318 1.58605 153 136 121
1.15565 -3.48409 1.59318 152 137 117
1.15273 -3.49501 1.60031 152 135 114
1.14980 -3.50595 1.60746 153 133 112
1.14686 -3.51690 1.61461 152 133 116
1.14393 -3.52786 1.62177 152 132 116
1.14099 -3.53884 1.62894 151 130 116
1.13804 -3.54983 1.63612 149 131 116
1.13509 -3.56083 1.64331 148 131 114
1.13214 -3.57185 1.65050 145 130 115
1.12919 -3.58288 1.65771 143 129 113
1.12623 -3.59393 1.66492 144 127 112
1.12327 -3.60498 1.67215 143 126 113
1.12030 -3.61606 1.67938 141 124 109
1.11733 -3.62714 1.68662 141 124 103
1.11436 -3.63824 1.69387 139 122 104
1.11138 -3.64935 1.70113 137 121 107
1.10840 -3.66048 1.70840 135 121 108
1.10542 -3.67162 1.71567 134 120 108
1.10243 -3.68277 1.72296 135 119 107
1.09944 -3.69394 1.73026 135 117 106
1.09644 -3.70512 1.73756 135 116 105
1.09344 -3.71632 1.74487 135 117 103
1.09044 -3.72753 1.75219 135 119 103
1.08743 -3.73875 1.75953 135 119 106
1.08442 -3.74999 1.76687 135 119 110
1.08141 -3.76124 1.77421 134 120 108
1.07839 -3.77250 1.78157 134 121 103
1.07537 -3.78378 1.78894 134 120 103
1.07235 -3.79508 1.79632 135 118 102
1.06932 -3.80638 1.80370 137 116 101
1.06629 -3.81770 1.81110 136 116 107
1.06325 -3.82904 1.81850 135 115 106
1.06021 -3.84039 1.82592 133 115 102
1.05716 -3.85175 1.83334 131 117 106
1.05412 -3.86313 1.84077 132 117 105
1.05107 -3.87452 1.84821 131 115 105
1.04801 -3.88593 1.85566 133 113 107
1.04495 -3.89735 1.86312 132 111 105
1.04189 -3.90878 1.87059 131 110 107
1.03882 -3.92023 1.87807 129 111 107
1.03575 -3.93169 1.88556 127 112 99
1.03268 -3.94317 1.89305 129 111 99
1.02960 -3.95466 1.90056 131 111 99
1.02652 -3.96617 1.90808 132 110 104
1.02343 -3.97769 1.91560 129 109 102
1.02034 -3.98923 1.92314 129 106 94
1.01725 -4.00078 1.93068 128 106 92
1.01415 -4.01234 1.93824 131 108 98
1.18048 -3.39687 1.52014 142 126 120
1.17757 -3.40770 1.52721 140 128 117
1.17467 -3.41855 1.53429 142 129 114
1.17176 -3.42942 1.54137 145 128 115
1.16885 -3.44029 1.54847 149 131 119
1.16593 -3.45118 1.55557 152 134 121
1.16301 -3.46209 1.56269 157 137 121
1.16009 -3.47300 1.56981 156 136 125
1.15716 -3.48393 1.57694 152 136 126
1.15423 -3.49488 1.58408 151 135 111
1.15129 -3.50584 1.59122 153 134 113
1.14836 -3.51681 1.59838 154 135 118
1.14542 -3.52779 1.60554 153 134 118
1.14247 -3.53879 1.61272 154 132 114
1.13952 -3.54980 1.61990 153 130 113
1.13657 -3.56082 1.62709 151 128 115
1.13361 -3.57186 1.63429 148 129 114
1.13065 -3.58291 1.64150 144 129 112
1.12769 -3.59398 1.64872 143 127 113
1.12472 -3.60506 1.65595 145 126 110
1.12175 -3.61615 1.66318 143 125 108
1.11878 -3.62726 1.67043 139 123 106
1.11580 -3.63837 1.67768 138 122 103
1.11282 -3.64951 1.68494 137 121 100
1.10983 -3.66066 1.69221 136 121 101
1.10685 -3.67182 1.69949 135 120 100
1.10385 -3.68299 1.70678 134 119 99
1.10086 -3.69418 1.71408 134 117 103
1.09786 -3.70538 1.72139 134 116 99
1.09485 -3.71660 1.72871 133 116 96
1.09185 -3.72783 1.73603 134 117 101
1.08884 -3.73907 1.74337 135 119 104
1.08582 -3.75033 1.75071 136 119 106
1.08280 -3.76161 1.75806 134 119 103
1.07978 -3.77289 1.76543 134 120 100
1.07675 -3.78419 1.77280 135 119 97
1.07372 -3.79551 1.78018 134 118 99
1.07069 -3.80684 1.78757 134 118 105
1.06765 -3.81818 1.79497 134 118 106
1.06461 -3.82954 1.80237 133 120 112
1.06157 -3.84091 1.80979 135 117 114
1.05852 -3.85229 1.81722 133 117 108
1.05546 -3.86369 1.82465 133 117 104
1.05241 -3.87510 1.83210 134 117 96
1.04935 -3.88653 1.83955 130 115 94
1.04628 -3.89797 1.84702 132 112 104
1.04321 -3.90943 1.85449 132 111 103
1.04014 -3.92090 1.86197 131 111 100
1.03707 -3.93239 1.86947 132 110 97
1.03399 -3.94389 1.87697 130 110 99
1.03090 -3.95540 1.88448 130 111 98
1.02782 -3.96693 1.89200 128 110 100
1.02473 -3.97847 1.89953 129 109 100
1.02163 -3.99003 1.90707 129 108 99
1.01853 -4.00160 1.91462 127 107 96
1.01543 -4.01319 1.92217 125 109 99
1.01232 -4.02479 1.92974 129 110 104
1.17621 -3.41828 1.51797 148 131 117
1.17329 -3.42916 1.52506 147 132 116
1.17038 -3.44006 1.53216 148 133 117
1.16746 -3.45097 1.53926 151 134 122
1.16453 -3.46189 1.54638 155 137 124
1.16160 -3.47283 1.55350 157 138 125
1.15867 -3.48378 1.56064 155 136 124
1.15574 -3.49475 1.56778 155 135 123
1.15280 -3.50572 1.57493 156 134 116
1.14986 -3.51671 1.58209 155 135 122
1.14691 -3.52772 1.58926 155 135 128
1.14396 -3.53874 1.59643 154 132 124
1.14101 -3.54977 1.60362 152 131 119
1.13805 -3.56081 1.61082 150 131 115
1.13509 -3.57187 1.61802 149 130 113
1.13213 -3.58294 1.62523 147 130 108
1.12916 -3.59403 1.63245 145 129 106
1.12619 -3.60513 1.63968 144 126 114
1.12321 -3.61624 1.64692 143 125 114
1.12023 -3.62737 1.65417 141 124 108
1.11725 -3.63851 1.66143 140 122 109
1.11426 -3.64966 1.66869 138 119 110
1.11127 -3.66083 1.67597 136 117 102
1.10828 -3.67201 1.68325 136 118 101
1.10528 -3.68321 1.69055 136 119 102
1.10228 -3.69442 1.69785 135 118 102
1.09928 -3.70564 1.70516 134 116 105
1.09627 -3.71688 1.71248 133 116 102
1.09326 -3.72813 1.71981 132 116 99
1.09024 -3.73940 1.72715 133 118 103
1.08722 -3.75068 1.73449 135 119 107
1.08420 -3.76197 1.74185 135 119 109
1.08117 -3.77328 1.74922 134 119 107
1.07814 -3.78460 1.75659 134 121 103
1.07510 -3.79594 1.76398 135 120 103
1.07207 -3.80729 1.77137 133 117 109
1.06902 -3.81865 1.77877 133 116 114
1.06598 -3.83003 1.78619 133 118 111
1.06293 -3.84143 1.79361 131 120 113
1.05987 -3.85283 1.80104 133 120 115
1.05682 -3.86425 1.80848 132 118 113
1.05375 -3.87569 1.81593 131 116 109
1.05069 -3.88714 1.82338 131 113 100
1.04762 -3.89860 1.83085 129 111 99
1.04455 -3.91008 1.83833 130 111 107
1.04147 -3.92158 1.84582 130 111 108
1.03839 -3.93308 1.85331 131 111 100
1.03531 -3.94461 1.86082 134 110 98
1.03222 -3.95614 1.86833 131 111 108
1.02912 -3.96769 1.87586 132 112 110
1.02603 -3.97926 1.88339 127 111 98
1.02293 -3.99084 1.89093 127 109 96
1.01982 -4.00243 1.89849 127 108 102
1.01672 -4.01404 1.90605 127 108 99
1.01360 -4.02567 1.91362 126 110 101
1.01049 -4.03731 1.92120 130 111 101
1.16313 -3.47266 1.53714 158 139 125
1.16019 -3.48363 1.54428 158 138 127
1.15725 -3.49461 1.55142 155 137 125
1.15431 -3.50561 1.55858 156 135 124
1.15136 -3.51662 1.56574 157 133 125
1.14841 -3.52765 1.57291 156 134 125
1.14546 -3.53869 1.58009 156 133 125
1.14250 -3.54974 1.58728 154 132 124
1.13954 -3.56080 1.59448 150 131 125
1.13657 -3.57188 1.60169 149 131 119
1.13360 -3.58297 1.60890 148 132 113
1.13063 -3.59408 1.61613 145 130 112
1.12765 -3.60520 1.62336 145 127 110
1.12467 -3.61634 1.63060 146 127 109
1.12169 -3.62748 1.63785 144 126 107
1.11870 -3.63865 1.64511 141 124 104
1.11571 -3.64982 1.65238 140 121 105
1.11272 -3.66101 1.65966 139 120 107
1.10972 -3.67221 1.66695 136 119 106
1.10672 -3.68343 1.67425 136 118 109
1.10371 -3.69466 1.68155 139 117 108
1.10070 -3.70591 1.68887 137 117 103
1.09769 -3.71717 1.69619 134 116 102
1.09467 -3.72844 1.70352 133 113 102
1.09165 -3.73973 1.71087 135 114 108
1.08863 -3.75103 1.71822 135 117 113
1.08560 -3.76234 1.72558 134 118 109
1.08257 -3.77367 1.73295 133 118 107
1.07953 -3.78502 1.74033 133 119 112
1.07649 -3.79637 1.74771 135 120 113
1.07345 -3.80775 1.75511 135 120 111
1.07040 -3.81913 1.76252 133 117 109
1.06735 -3.83053 1.76993 131 116 111
1.06429 -3.84195 1.77736 132 116 104
1.06124 -3.85338 1.78479 133 116 103
1.05817 -3.86482 1.79224 135 116 109
1.05511 -3.87628 1.79969 133 115 109
1.05204 -3.88775 1.80715 132 113 108
1.04896 -3.89924 1.81463 131 111 103
1.04588 -3.91074 1.82211 130 110 100
1.04280 -3.92225 1.82960 129 109 101
1.03972 -3.93378 1.83710 130 111 107
1.03663 -3.94533 1.84461 130 112 103
1.03353 -3.95689 1.85213 131 112 99
1.03044 -3.96846 1.85966 131 112 104
1.02733 -3.98005 1.86719 132 113 105
1.02423 -3.99165 1.87474 130 111 96
1.02112 -4.00327 1.88230 128 110 95
1.01801 -4.01490 1.88986 127 109 100
1.01489 -4.02655 1.89744 126 108 101
1.01177 -4.03821 1.90503 127 110 101
1.00864 -4.04988 1.91262 130 111 98
1.17052 -3.45054 1.50646 158 144 125
1.16759 -3.46151 1.51359 158 144 125
1.16465 -3.47248 1.52072 160 144 126
1.16171 -3.48348 1.52786 161 143 128
1.15877 -3.49448 1.53501 160 141 127
1.15582 -3.50550 1.54216 159 139 122
1.15287 -3.51653 1.54933 159 137 116
1.14991 -3.52758 1.55650 157 134 120
1.14696 -3.53863 1.56369 156 134 122
1.14399 -3.54971 1.57088 155 134 120
1.14103 -3.56079 1.57808 153 132 121
1.13806 -3.57189 1.58529 151 131 121
1.13508 -3.58301 1.59251 152 131 117
1.13211 -3.59413 1.59974 147 130 110
1.12913 -3.60527 1.60698 143 126 108
1.12614 -3.61643 1.61422 142 125 111
1.12315 -3.62760 1.62148 143 126 108
1.12016 -3.63878 1.62874 142 125 103
1.11717 -3.64998 1.63601 139 123 101
1.11417 -3.66119 1.64330 137 122 103
1.11116 -3.67241 1.65059 135 120 102
1.10816 -3.68365 1.65789 134 119 101
1.10515 -3.69490 1.66520 135 120 104
1.10213 -3.70617 1.67251 136 119 103
1.09911 -3.71745 1.67984 134 117 101
1.09609 -3.72875 1.68718 132 116 102
1.09307 -3.74005 1.69452 134 114 106
1.09004 -3.75138 1.70188 136 115 110
1.08700 -3.76271 1.70924 136 117 112
1.08397 -3.77406 1.71662 136 117 109
1.08093 -3.78543 1.72400 136 118 106
1.07788 -3.79681 1.73139 135 119 108
1.07483 -3.80820 1.73879 135 119 109
1.07178 -3.81961 1.74620 135 118 105
1.06873 -3.83103 1.75362 134 117 103
1.06567 -3.84247 1.76105 133 116 107
1.06260 -3.85392 1.76849 133 116 104
1.05954 -3.86539 1.77594 131 114 105
1.05646 -3.87687 1.78340 131 114 108
1.05339 -3.88836 1.79086 132 114 106
1.05031 -3.89987 1.79834 133 113 106
1.04723 -3.91139 1.80582 133 113 107
1.04414 -3.92293 1.81332 131 112 106
1.04105 -3.93448 1.82082 131 112 103
1.03795 -3.94605 1.82834 131 113 107
1.03486 -3.95763 1.83586 130 113 104
1.03175 -3.96923 1.84339 130 113 97
1.02865 -3.98084 1.85093 132 113 91
1.02554 -3.99246 1.85848 134 111 96
1.02242 -4.00410 1.86605 131 111 97
1.01930 -4.01576 1.87362 129 110 100
1.01618 -4.02743 1.88120 131 109 102
1.01306 -4.03911 1.88879 130 108 102
1.00993 -4.05081 1.89639 132 111 103
1.00679 -4.06253 1.90400 130 110 101
1.15734 -3.50539 1.52569 163 144 127
1.15439 -3.51644 1.53286 160 141 124
1.15143 -3.52750 1.54003 158 139 122
1.14252 -3.56078 1.56162 155 134 125
1.13955 -3.57190 1.56883 151 132 118
1.13657 -3.58304 1.57606 149 132 115
1.13359 -3.59419 1.58329 149 131 113
1.13061 -3.60535 1.59053 147 130 107
1.12762 -3.61652 1.59778 144 127 108
1.12462 -3.62771 1.60504 142 125 114
1.12163 -3.63892 1.61230 141 124 111
1.11863 -3.65014 1.61958 139 124 105
1.11562 -3.66137 1.62687 140 123 105
1.11261 -3.67261 1.63416 138 121 105
1.10960 -3.68387 1.64146 136 120 104
1.10659 -3.69515 1.64878 136 120 105
1.10357 -3.70643 1.65610 137 119 108
1.10055 -3.71774 1.66343 136 117 109
1.09752 -3.72905 1.67077 134 117 106
1.09449 -3.74038 1.67812 133 116 109
1.09145 -3.75173 1.68548 134 116 114
1.08842 -3.76309 1.69285 136 119 108
1.08537 -3.77446 1.70022 135 119 98
1.08233 -3.78585 1.70761 137 118 102
1.07928 -3.79725 1.71501 138 118 113
1.07623 -3.80866 1.72241 137 119 112
1.07317 -3.82009 1.72983 136 119 105
1.07011 -3.83154 1.73725 135 118 103
1.06704 -3.84300 1.74468 133 118 102
1.06398 -3.85447 1.75212 132 118 104
1.06090 -3.86596 1.75958 132 117 104
1.05783 -3.87746 1.76704 131 115 107
1.05475 -3.88898 1.77451 130 114 112
1.05166 -3.90051 1.78199 130 114 107
1.04857 -3.91205 1.78948 130 113 106
1.04548 -3.92361 1.79697 131 112 107
1.04239 -3.93519 1.80448 132 112 106
1.03929 -3.94678 1.81200 131 114 105
1.03618 -3.95838 1.81953 130 114 107
1.03308 -3.97000 1.82706 129 114 110
1.02996 -3.98163 1.83461 129 113 109
1.02685 -3.99328 1.84217 131 113 95
1.02373 -4.00494 1.84973 131 111 94
1.02061 -4.01662 1.85731 129 110 98
1.01748 -4.02832 1.86489 128 111 102
1.01435 -4.04002 1.87249 128 111 106
1.01121 -4.05175 1.88009 128 110 103
1.00807 -4.06348 1.88770 129 111 103
1.00493 -4.07524 1.89533 128 109 103
1.15294 -3.52743 1.52350 162 142 125
1.14997 -3.53853 1.53069 159 139 125
1.14105 -3.57191 1.55232 153 133 128
1.13807 -3.58307 1.55954 150 131 121
1.13508 -3.59424 1.56678 147 130 114
1.12910 -3.61662 1.58127 147 126 106
1.12610 -3.62783 1.58854 144 125 102
1.12310 -3.63906 1.59581 141 124 109
1.12009 -3.65029 1.60309 139 122 111
1.11708 -3.66155 1.61038 138 122 107
1.11407 -3.67281 1.61767 138 121 105
1.11105 -3.68410 1.62498 137 119 106
1.10803 -3.69539 1.63230 136 118 112
1.10501 -3.70670 1.63962 138 117 107
1.10198 -3.71802 1.64696 138 117 105
1.09895 -3.72936 1.65430 136 116 109
1.09592 -3.74071 1.66165 134 116 110
1.09288 -3.75208 1.66902 133 115 111
1.08983 -3.76346 1.67639 132 117 111
1.08679 -3.77485 1.68377 132 120 107
1.08374 -3.78626 1.69116 133 120 99
1.08068 -3.79769 1.69856 133 120 103
1.07762 -3.80912 1.70597 134 119 110
1.07456 -3.82058 1.71339 135 118 108
1.07150 -3.83204 1.72081 135 117 107
1.06843 -3.84352 1.72825 134 117 110
1.06535 -3.85502 1.73570 132 118 108
1.06228 -3.86653 1.74315 131 117 105
1.05919 -3.87805 1.75062 133 115 106
1.05611 -3.88959 1.75809 133 114 101
1.05302 -3.90115 1.76557 130 114 108
1.04993 -3.91271 1.77307 128 114 104
1.04683 -3.92430 1.78057 128 113 103
1.04373 -3.93589 1.78808 129 112 106
1.04062 -3.94751 1.79560 132 114 107
1.03752 -3.95913 1.80313 130 116 109
1.03440 -3.97077 1.81068 128 115 104
1.03129 -3.98243 1.81823 129 116 102
1.02817 -3.99410 1.82579 128 115 103
1.02504 -4.00579 1.83336 129 112 96
1.02191 -4.01749 1.84093 129 110 91
1.01878 -4.02920 1.84852 128 109 96
1.01564 -4.04094 1.85612 128 110 98
1.01250 -4.05268 1.86373 126 111 100
1.00936 -4.06444 1.87135 127 110 99
1.00621 -4.07622 1.87898 126 111 103
1.00306 -4.08801 1.88661 125 109 108
1.15149 -3.53848 1.51410 162 144 128
1.14852 -3.54961 1.52131 158 142 125
1.13956 -3.58310 1.54297 150 133 126
1.13058 -3.61671 1.56471 143 127 115
1.12758 -3.62795 1.57197 142 126 116
1.12457 -3.63919 1.57925 140 125 114
1.12156 -3.65045 1.58653 139 124 117
1.11855 -3.66173 1.59382 140 122 117
1.11553 -3.67302 1.60112 139 121 114
1.11251 -3.68432 1.60844 137 121 109
1.10949 -3.69564 1.61575 137 120 108
1.10646 -3.70697 1.62308 136 118 112
1.10342 -3.71831 1.63042 136 118 109
1.10039 -3.72967 1.63777 137 117 104
1.09735 -3.74104 1.64513 135 115 104
1.09430 -3.75243 1.65249 134 115 103
1.09126 -3.76383 1.65987 134 115 107
1.08820 -3.77525 1.66725 134 119 113
1.08515 -3.78668 1.67465 133 121 110
1.08209 -3.79813 1.68205 133 120 103
1.07903 -3.80959 1.68946 134 119 104
1.07596 -3.82106 1.69688 135 120 106
1.07289 -3.83255 1.70431 136 119 103
1.06981 -3.84405 1.71175 135 118 102
1.06674 -3.85557 1.71920 134 117 107
1.06365 -3.86710 1.72666 132 117 106
1.06057 -3.87865 1.73413 131 116 104
1.05748 -3.89021 1.74161 132 114 105
1.05438 -3.90179 1.74910 132 113 102
1.05128 -3.91338 1.75659 130 115 106
1.04818 -3.92498 1.76410 129 115 105
1.04508 -3.93660 1.77162 128 115 101
1.04197 -3.94824 1.77914 130 114 97
1.03885 -3.95989 1.78668 129 114 98
1.03573 -3.97155 1.79422 128 115 105
1.03261 -3.98323 1.80178 129 116 99
1.02949 -3.99493 1.80934 131 115 97
1.02636 -4.00663 1.81692 132 114 100
1.02322 -4.01836 1.82450 129 110 99
1.02009 -4.03010 1.83209 127 109 96
1.01694 -4.04185 1.83969 127 109 95
1.01380 -4.05362 1.84731 129 110 93
