ply
format ascii 1.0
element face 0
property list uchar int vertex_indices
element vertex 1257
property float x
property float y
property float z
property uchar diffuse_red
property uchar diffuse_green
property uchar diffuse_blue
end_header
1.70724 -2.79312 -0.56640 146 160 155
1.69268 -2.80337 -0.55988 155 161 161
1.67814 -2.81360 -0.55337 160 165 169
1.66362 -2.82382 -0.54688 169 169 165
1.64912 -2.83403 -0.54039 170 180 157
1.63464 -2.84422 -0.53391 166 169 165
1.62017 -2.85440 -0.52743 157 157 162
1.60573 -2.86457 -0.52097 158 159 159
1.59131 -2.87472 -0.51451 164 163 168
1.57690 -2.88486 -0.50807 163 156 158
1.56252 -2.89498 -0.50163 166 168 165
1.54815 -2.90510 -0.49520 159 166 170
1.53380 -2.91519 -0.48878 170 163 166
1.51947 -2.92528 -0.48237 161 161 164
1.50516 -2.93535 -0.47596 168 170 174
1.49087 -2.94541 -0.46957 170 170 173
1.47660 -2.95546 -0.46318 166 168 179
1.46235 -2.96549 -0.45680 167 174 179
1.44812 -2.97551 -0.45043 160 165 174
1.43390 -2.98551 -0.44407 164 175 172
1.41970 -2.99550 -0.43772 162 171 175
1.40553 -3.00548 -0.43137 175 185 179
1.39137 -3.01545 -0.42504 175 180 177
1.37723 -3.02540 -0.41871 176 183 183
1.36311 -3.03534 -0.41239 185 193 188
1.34900 -3.04527 -0.40608 184 188 186
1.33492 -3.05518 -0.39977 180 181 181
1.32085 -3.06508 -0.39348 179 179 184
1.30680 -3.07497 -0.38719 180 183 188
1.29277 -3.08484 -0.38091 173 180 178
1.27876 -3.09471 -0.37464 164 170 167
1.26477 -3.10455 -0.36838 172 177 169
1.25080 -3.11439 -0.36213 175 178 173
1.23684 -3.12421 -0.35588 168 167 172
1.76079 -2.73555 -0.60688 155 154 161
1.74619 -2.74583 -0.60034 160 162 156
1.73162 -2.75610 -0.59381 158 158 151
1.71707 -2.76636 -0.58728 161 160 163
1.70253 -2.77660 -0.58077 159 160 153
1.68802 -2.78683 -0.57426 152 154 148
1.67352 -2.79705 -0.56776 157 156 156
1.65905 -2.80725 -0.56127 160 167 156
1.64459 -2.81744 -0.55479 159 162 166
1.63015 -2.82762 -0.54832 163 165 163
1.61573 -2.83778 -0.54186 164 168 160
1.60133 -2.84793 -0.53540 158 160 160
1.58695 -2.85806 -0.52895 160 161 161
1.57259 -2.86818 -0.52252 160 161 163
1.55825 -2.87829 -0.51609 161 161 156
1.54393 -2.88838 -0.50967 167 159 152
1.52962 -2.89847 -0.50325 171 169 171
1.51534 -2.90853 -0.49685 176 171 168
1.50107 -2.91859 -0.49045 169 171 164
1.48682 -2.92863 -0.48407 169 170 169
1.47259 -2.93866 -0.47769 167 168 169
1.45838 -2.94867 -0.47132 163 163 173
1.44419 -2.95867 -0.46496 166 166 173
1.43002 -2.96866 -0.45860 171 168 172
1.41587 -2.97864 -0.45226 170 180 167
1.40173 -2.98860 -0.44592 178 182 173
1.38761 -2.99855 -0.43959 184 190 188
1.37352 -3.00848 -0.43327 172 174 184
1.35944 -3.01841 -0.42696 175 178 190
1.34537 -3.02832 -0.42066 187 194 190
1.33133 -3.03821 -0.41436 181 185 187
1.31731 -3.04810 -0.40807 177 182 185
1.30330 -3.05797 -0.40180 181 180 181
1.28931 -3.06783 -0.39553 183 178 172
1.27534 -3.07767 -0.38926 184 185 172
1.26139 -3.08751 -0.38301 172 179 171
1.24746 -3.09733 -0.37676 172 180 170
1.23354 -3.10713 -0.37052 168 178 174
1.21965 -3.11693 -0.36430 158 166 171
1.71235 -2.74996 -0.60156 153 154 151
1.69786 -2.76018 -0.59506 155 157 159
1.68339 -2.77039 -0.58856 157 162 158
1.66893 -2.78059 -0.58207 158 163 155
1.65450 -2.79077 -0.57559 163 170 161
1.64009 -2.80095 -0.56912 172 172 158
1.62569 -2.81110 -0.56265 162 158 164
1.61132 -2.82125 -0.55620 158 152 160
1.59696 -2.83138 -0.54975 163 163 161
1.58263 -2.84149 -0.54331 157 158 163
1.56831 -2.85160 -0.53688 161 167 164
1.55401 -2.86169 -0.53046 162 169 161
1.53973 -2.87177 -0.52405 156 159 167
1.52547 -2.88183 -0.51765 167 170 167
1.51123 -2.89188 -0.51125 169 174 181
1.49700 -2.90192 -0.50486 165 173 174
1.48280 -2.91194 -0.49849 168 177 168
1.46861 -2.92195 -0.49212 170 172 170
1.45444 -2.93195 -0.48575 168 168 168
1.44029 -2.94194 -0.47940 170 165 169
1.42616 -2.95191 -0.47306 168 167 172
1.41205 -2.96186 -0.46672 171 174 178
1.39796 -2.97181 -0.46039 169 180 177
1.38388 -2.98174 -0.45407 177 182 178
1.36982 -2.99166 -0.44776 181 188 186
1.35579 -3.00157 -0.44145 178 185 184
1.34177 -3.01146 -0.43516 179 186 184
1.32776 -3.02134 -0.42887 183 189 183
1.31378 -3.03121 -0.42259 188 187 179
1.29982 -3.04106 -0.41632 185 180 177
1.28587 -3.05091 -0.41006 176 171 177
1.27194 -3.06074 -0.40380 176 179 177
1.25803 -3.07055 -0.39756 182 188 173
1.24414 -3.08036 -0.39132 171 180 166
1.23026 -3.09015 -0.38509 161 170 158
1.21641 -3.09992 -0.37887 155 164 164
1.69320 -2.74385 -0.60927 151 153 155
1.67878 -2.75404 -0.60278 153 149 152
1.66437 -2.76422 -0.59630 156 160 156
1.64998 -2.77439 -0.58982 158 155 155
1.63561 -2.78454 -0.58336 154 157 159
1.62126 -2.79468 -0.57691 160 155 157
1.60693 -2.80481 -0.57046 161 161 164
1.59262 -2.81492 -0.56402 154 162 162
1.57832 -2.82502 -0.55759 164 167 164
1.56405 -2.83511 -0.55117 163 161 160
1.54979 -2.84518 -0.54476 162 164 166
1.53555 -2.85524 -0.53836 169 174 172
1.52134 -2.86529 -0.53196 175 177 180
1.50714 -2.87532 -0.52557 172 170 172
1.49295 -2.88534 -0.51919 161 163 178
1.47879 -2.89535 -0.51282 160 166 171
1.46465 -2.90534 -0.50646 164 169 170
1.45052 -2.91532 -0.50011 163 165 164
1.43641 -2.92529 -0.49376 165 171 170
1.42233 -2.93524 -0.48743 164 170 169
1.40826 -2.94519 -0.48110 156 167 161
1.39420 -2.95512 -0.47478 165 174 174
1.38017 -2.96503 -0.46847 175 187 184
1.36615 -2.97493 -0.46216 179 181 180
1.35216 -2.98482 -0.45587 179 180 180
1.33818 -2.99470 -0.44958 179 183 177
1.32422 -3.00456 -0.44330 176 180 175
1.31028 -3.01442 -0.43703 169 169 172
1.29635 -3.02425 -0.43077 174 174 182
1.28245 -3.03408 -0.42451 179 180 183
1.26856 -3.04389 -0.41826 172 176 183
1.25469 -3.05369 -0.41203 170 177 174
1.24084 -3.06348 -0.40580 177 186 173
1.22700 -3.07325 -0.39957 178 183 174
1.21319 -3.08302 -0.39336 175 175 171
1.67420 -2.73779 -0.61691 162 170 165
1.65983 -2.74795 -0.61044 157 164 168
1.64549 -2.75810 -0.60398 162 162 163
1.63116 -2.76823 -0.59752 164 164 159
1.61685 -2.77835 -0.59108 161 163 167
1.60256 -2.78846 -0.58464 167 171 175
1.58829 -2.79856 -0.57821 166 166 171
1.57404 -2.80864 -0.57179 173 171 175
1.55981 -2.81871 -0.56538 170 176 172
1.54560 -2.82876 -0.55898 164 159 155
1.53140 -2.83881 -0.55258 161 171 175
1.51723 -2.84884 -0.54619 160 158 167
1.50307 -2.85885 -0.53982 170 176 173
1.48893 -2.86886 -0.53344 167 174 168
1.47481 -2.87885 -0.52708 166 172 172
1.46071 -2.88882 -0.52073 168 169 172
1.44662 -2.89879 -0.51438 172 173 181
1.43256 -2.90874 -0.50805 169 166 169
1.41851 -2.91868 -0.50172 176 173 172
1.40448 -2.92860 -0.49540 171 176 177
1.39047 -2.93851 -0.48909 164 174 165
1.37648 -2.94841 -0.48278 167 172 166
1.36250 -2.95830 -0.47649 168 172 174
1.34855 -2.96817 -0.47020 164 171 178
1.33461 -2.97803 -0.46392 172 180 180
1.32069 -2.98788 -0.45765 177 180 173
1.30679 -2.99771 -0.45139 175 173 177
1.29291 -3.00754 -0.44513 170 172 175
1.27904 -3.01734 -0.43888 173 163 169
1.26519 -3.02714 -0.43264 176 173 179
1.25136 -3.03693 -0.42641 172 178 183
1.23755 -3.04670 -0.42019 170 172 165
1.22376 -3.05646 -0.41398 176 182 175
1.20998 -3.06620 -0.40777 182 185 192
1.19622 -3.07593 -0.40157 184 181 192
1.68398 -2.71146 -0.63744 157 165 163
1.66964 -2.72162 -0.63097 158 157 179
1.65532 -2.73176 -0.62451 164 167 165
1.64102 -2.74190 -0.61805 150 164 173
1.62673 -2.75201 -0.61161 165 163 167
1.61247 -2.76212 -0.60517 167 162 162
1.59822 -2.77221 -0.59874 161 161 169
1.58400 -2.78229 -0.59232 174 170 177
1.56979 -2.79235 -0.58591 170 166 173
1.55560 -2.80240 -0.57951 177 176 174
1.54143 -2.81244 -0.57311 170 170 174
1.52727 -2.82247 -0.56673 167 159 162
1.51314 -2.83248 -0.56035 171 172 173
1.49902 -2.84248 -0.55398 167 155 160
1.48493 -2.85246 -0.54762 174 173 170
1.47085 -2.86244 -0.54126 168 171 174
1.45679 -2.87240 -0.53492 169 180 182
1.44275 -2.88234 -0.52858 176 177 172
1.42872 -2.89228 -0.52225 177 175 176
1.41472 -2.90220 -0.51593 157 165 172
1.40073 -2.91211 -0.50962 163 172 168
1.38676 -2.92200 -0.50332 169 176 173
1.37281 -2.93188 -0.49702 167 178 170
1.35887 -2.94175 -0.49073 169 175 168
1.34496 -2.95161 -0.48445 167 167 171
1.33106 -2.96145 -0.47818 169 166 177
1.31718 -2.97129 -0.47192 170 169 176
1.30332 -2.98110 -0.46566 169 168 163
1.28948 -2.99091 -0.45942 177 178 179
1.27565 -3.00070 -0.45318 183 186 189
1.26185 -3.01048 -0.44695 183 181 181
1.24806 -3.02025 -0.44072 178 179 180
1.23429 -3.03001 -0.43451 173 179 181
1.22053 -3.03975 -0.42830 175 178 174
1.20680 -3.04948 -0.42210 178 182 180
1.19308 -3.05920 -0.41591 175 177 186
1.17938 -3.06890 -0.40973 170 169 179
1.66511 -2.70554 -0.64495 156 157 157
1.65083 -2.71567 -0.63850 162 161 170
1.63657 -2.72578 -0.63205 173 170 164
1.62233 -2.73588 -0.62562 156 160 173
1.60811 -2.74597 -0.61919 167 172 167
1.59391 -2.75604 -0.61277 166 163 156
1.57972 -2.76611 -0.60636 161 156 157
1.56556 -2.77615 -0.59995 166 166 175
1.55141 -2.78619 -0.59356 170 169 176
1.53728 -2.79621 -0.58717 172 180 171
1.52317 -2.80622 -0.58079 166 164 172
1.50908 -2.81621 -0.57442 163 164 168
1.49500 -2.82619 -0.56806 167 167 165
1.48095 -2.83616 -0.56171 164 152 153
1.46691 -2.84612 -0.55536 169 173 171
1.45289 -2.85606 -0.54903 170 173 172
1.43889 -2.86599 -0.54270 170 182 174
1.42491 -2.87591 -0.53638 168 166 170
1.41094 -2.88581 -0.53007 164 164 166
1.39700 -2.89570 -0.52376 159 167 169
1.38307 -2.90558 -0.51747 166 177 176
1.36916 -2.91545 -0.51118 170 182 183
1.35526 -2.92530 -0.50490 165 175 174
1.34139 -2.93514 -0.49863 171 177 175
1.32753 -2.94497 -0.49236 169 174 174
1.31370 -2.95478 -0.48611 175 178 179
1.29987 -2.96458 -0.47986 167 165 178
1.28607 -2.97437 -0.47362 164 164 169
1.27229 -2.98415 -0.46739 171 177 181
1.25852 -2.99392 -0.46117 178 183 184
1.24477 -3.00367 -0.45495 180 185 180
1.23104 -3.01341 -0.44875 175 183 181
1.21732 -3.02313 -0.44255 170 179 183
1.20363 -3.03285 -0.43636 178 181 181
1.18995 -3.04255 -0.43017 182 186 177
1.17629 -3.05224 -0.42400 176 181 171
1.16264 -3.06191 -0.41783 169 170 166
1.64637 -2.69967 -0.65241 155 156 153
1.63215 -2.70976 -0.64597 158 162 163
1.61795 -2.71985 -0.63954 165 168 169
1.60378 -2.72991 -0.63312 164 170 175
1.58961 -2.73997 -0.62671 156 161 167
1.57547 -2.75001 -0.62031 158 158 160
1.56135 -2.76004 -0.61392 170 166 168
1.54724 -2.77006 -0.60753 176 177 173
1.53315 -2.78006 -0.60115 174 175 180
1.51909 -2.79005 -0.59478 171 180 171
1.50504 -2.80003 -0.58842 165 166 164
1.49100 -2.81000 -0.58207 159 162 160
1.47699 -2.81995 -0.57572 172 180 171
1.46299 -2.82989 -0.56939 168 165 173
1.44901 -2.83981 -0.56306 169 171 171
1.43505 -2.84973 -0.55674 172 185 179
1.42111 -2.85963 -0.55043 169 176 177
1.40719 -2.86952 -0.54412 169 164 172
1.39328 -2.87939 -0.53783 163 167 166
1.37940 -2.88925 -0.53154 165 171 171
1.36553 -2.89910 -0.52526 172 181 178
1.35167 -2.90894 -0.51899 172 185 175
1.33784 -2.91876 -0.51272 165 175 168
1.32402 -2.92857 -0.50647 165 171 176
1.31023 -2.93837 -0.50022 158 168 176
1.29645 -2.94816 -0.49398 168 175 178
1.28268 -2.95793 -0.48775 170 172 177
1.26894 -2.96769 -0.48153 166 174 178
1.25521 -2.97744 -0.47531 165 172 177
1.24150 -2.98717 -0.46911 169 172 164
1.22781 -2.99690 -0.46291 174 181 168
1.21413 -3.00661 -0.45672 173 181 180
1.20048 -3.01631 -0.45053 172 179 185
1.18684 -3.02599 -0.44436 176 179 184
1.17322 -3.03567 -0.43819 178 180 179
1.15961 -3.04533 -0.43203 175 177 174
1.14602 -3.05498 -0.42588 174 172 172
0.06356 -3.82366 0.06419 128 130 124
0.05134 -3.83234 0.06973 124 128 120
1.64193 -2.68375 -0.66624 152 157 158
1.62776 -2.69383 -0.65981 163 162 171
1.61360 -2.70390 -0.65339 159 162 158
1.59946 -2.71395 -0.64698 159 160 153
1.58535 -2.72399 -0.64058 159 163 165
1.57124 -2.73401 -0.63419 157 159 168
1.55716 -2.74402 -0.62780 160 164 175
1.54310 -2.75402 -0.62142 167 166 172
1.52905 -2.76401 -0.61505 173 169 170
1.51503 -2.77398 -0.60869 173 175 189
1.50102 -2.78394 -0.60234 171 178 176
1.48702 -2.79389 -0.59600 167 164 161
1.47305 -2.80383 -0.58966 176 170 162
1.45910 -2.81375 -0.58333 181 183 174
1.44516 -2.82366 -0.57701 166 165 174
1.43124 -2.83355 -0.57070 167 173 172
1.41734 -2.84344 -0.56440 171 186 180
1.40346 -2.85331 -0.55810 168 168 169
1.38959 -2.86317 -0.55181 174 173 174
1.37575 -2.87301 -0.54553 160 164 168
1.36192 -2.88284 -0.53926 166 172 170
1.34810 -2.89266 -0.53300 176 180 173
1.33431 -2.90247 -0.52674 167 177 173
1.32053 -2.91227 -0.52050 163 172 170
1.30678 -2.92205 -0.51426 166 173 175
1.29304 -2.93182 -0.50803 165 169 174
1.27931 -2.94158 -0.50180 169 172 172
1.26561 -2.95132 -0.49559 172 171 168
1.25192 -2.96105 -0.48938 169 174 175
1.23825 -2.97077 -0.48318 173 180 174
1.22460 -2.98048 -0.47699 181 186 170
1.21096 -2.99017 -0.47081 180 180 174
1.19734 -2.99986 -0.46463 175 182 183
1.18374 -3.00953 -0.45847 172 183 185
1.17016 -3.01918 -0.45231 171 173 176
1.15659 -3.02883 -0.44616 172 174 178
1.14305 -3.03846 -0.44001 174 178 184
0.08795 -3.78864 0.03844 122 126 128
0.06353 -3.80600 0.04952 127 137 131
0.05133 -3.81467 0.05505 135 136 131
0.03916 -3.82333 0.06057 132 134 126
1.63752 -2.66793 -0.68000 151 158 152
1.62339 -2.67799 -0.67358 146 152 160
1.60927 -2.68803 -0.66717 159 163 164
1.59518 -2.69807 -0.66077 157 164 158
1.58110 -2.70809 -0.65437 155 157 153
1.56704 -2.71810 -0.64799 155 157 163
1.55300 -2.72809 -0.64161 160 162 166
1.53898 -2.73807 -0.63524 165 177 170
1.52497 -2.74804 -0.62888 167 165 172
1.51099 -2.75800 -0.62253 171 170 171
1.49702 -2.76794 -0.61618 174 175 185
1.48307 -2.77787 -0.60985 177 177 181
1.46914 -2.78779 -0.60352 174 174 176
1.45522 -2.79770 -0.59720 179 178 166
1.44133 -2.80759 -0.59089 174 175 169
1.42745 -2.81747 -0.58459 163 165 168
1.41359 -2.82734 -0.57829 162 169 166
1.39975 -2.83719 -0.57200 162 174 168
1.38592 -2.84703 -0.56572 165 161 154
1.37211 -2.85686 -0.55945 173 174 171
1.35832 -2.86668 -0.55319 163 167 172
1.34455 -2.87648 -0.54693 169 177 174
1.33080 -2.88627 -0.54069 177 180 170
1.31706 -2.89605 -0.53445 174 177 171
1.30335 -2.90582 -0.52822 173 172 175
1.28964 -2.91557 -0.52200 170 174 178
1.27596 -2.92531 -0.51578 162 166 167
1.26229 -2.93504 -0.50957 167 170 169
1.24865 -2.94475 -0.50337 175 174 173
1.23502 -2.95446 -0.49718 176 180 175
1.22140 -2.96415 -0.49100 178 185 178
1.20781 -2.97383 -0.48482 180 182 182
1.19423 -2.98349 -0.47866 181 181 179
1.18067 -2.99315 -0.47250 174 175 181
1.16712 -3.00279 -0.46635 170 177 184
1.15359 -3.01242 -0.46020 168 176 175
1.14008 -3.02204 -0.45407 172 171 176
1.12659 -3.03164 -0.44794 175 171 183
0.06349 -3.78844 0.03492 121 130 133
0.05133 -3.79710 0.04044 125 139 134
0.03918 -3.80574 0.04596 125 136 136
0.02705 -3.81438 0.05147 129 135 133
1.64724 -2.64213 -0.70010 143 147 156
1.63313 -2.65219 -0.69368 152 160 164
1.61904 -2.66223 -0.68727 156 159 158
1.60497 -2.67226 -0.68087 152 160 163
1.59091 -2.68228 -0.67447 153 155 159
1.57688 -2.69228 -0.66809 155 162 160
1.56286 -2.70227 -0.66171 159 164 155
1.54886 -2.71225 -0.65534 168 165 159
1.53488 -2.72221 -0.64898 163 161 162
1.52092 -2.73217 -0.64263 164 169 165
1.50697 -2.74211 -0.63629 167 169 164
1.49304 -2.75203 -0.62995 166 165 162
1.47913 -2.76195 -0.62362 175 173 184
1.46524 -2.77185 -0.61730 181 176 182
1.45137 -2.78173 -0.61099 174 175 180
1.43751 -2.79161 -0.60469 177 175 171
1.42368 -2.80147 -0.59840 172 176 170
1.40986 -2.81132 -0.59211 166 170 169
1.39605 -2.82116 -0.58583 163 164 168
1.38227 -2.83099 -0.57956 164 166 167
1.36850 -2.84080 -0.57330 169 167 160
1.35475 -2.85060 -0.56704 176 180 172
1.34102 -2.86038 -0.56079 162 164 166
1.32731 -2.87016 -0.55456 166 165 162
1.31361 -2.87992 -0.54832 169 171 167
1.29993 -2.88967 -0.54210 169 169 175
1.28627 -2.89941 -0.53589 179 177 188
1.27263 -2.90913 -0.52968 174 181 188
1.25900 -2.91884 -0.52348 160 171 164
1.24539 -2.92854 -0.51729 171 178 164
1.23180 -2.93823 -0.51111 180 180 172
1.21822 -2.94791 -0.50493 178 181 174
1.20467 -2.95757 -0.49876 174 177 177
1.19113 -2.96722 -0.49260 169 172 176
1.17760 -2.97686 -0.48645 172 174 173
1.16410 -2.98649 -0.48031 166 161 172
1.15061 -2.99610 -0.47417 166 166 177
1.13714 -3.00570 -0.46804 172 182 183
1.12368 -3.01529 -0.46192 175 178 179
1.11025 -3.02487 -0.45581 168 167 175
0.05132 -3.77961 0.02591 127 134 136
0.03921 -3.78825 0.03142 124 134 131
0.02711 -3.79687 0.03693 128 136 135
1.62877 -2.63653 -0.70728 150 149 152
1.61472 -2.64656 -0.70088 151 150 162
1.60069 -2.65657 -0.69449 156 158 159
1.58667 -2.66657 -0.68811 155 161 159
1.57268 -2.67656 -0.68173 153 156 156
1.55870 -2.68653 -0.67536 158 160 164
1.54474 -2.69649 -0.66900 162 172 167
1.53080 -2.70644 -0.66265 157 158 155
1.51688 -2.71637 -0.65631 165 159 160
1.50298 -2.72630 -0.64997 166 162 172
1.48909 -2.73621 -0.64364 171 175 168
1.47522 -2.74610 -0.63732 162 166 167
1.46137 -2.75599 -0.63101 172 175 182
1.44754 -2.76586 -0.62471 177 176 188
1.43372 -2.77572 -0.61842 173 173 178
1.41993 -2.78556 -0.61213 174 172 170
1.40615 -2.79540 -0.60585 167 174 173
1.39238 -2.80522 -0.59958 167 177 171
1.37864 -2.81503 -0.59332 167 170 173
1.36491 -2.82482 -0.58706 170 171 173
1.35120 -2.83461 -0.58082 171 175 170
1.33751 -2.84438 -0.57458 171 176 165
1.32384 -2.85413 -0.56835 164 165 162
1.31018 -2.86388 -0.56213 161 165 164
1.29654 -2.87361 -0.55591 166 176 177
1.28292 -2.88333 -0.54970 165 167 180
1.26931 -2.89304 -0.54350 175 182 189
1.25572 -2.90274 -0.53731 180 180 187
1.24215 -2.91242 -0.53113 163 172 171
1.22860 -2.92209 -0.52496 163 182 172
1.21506 -2.93175 -0.51879 172 180 177
1.20155 -2.94140 -0.51263 174 177 171
1.18804 -2.95104 -0.50648 172 177 178
1.17456 -2.96066 -0.50033 167 170 177
1.16109 -2.97027 -0.49420 167 170 171
1.14764 -2.97987 -0.48807 165 166 167
1.13421 -2.98945 -0.48195 174 177 176
1.12079 -2.99903 -0.47583 181 187 186
1.10739 -3.00859 -0.46973 179 184 182
1.09401 -3.01814 -0.46363 169 173 173
0.03923 -3.77084 0.01696 122 120 129
0.02716 -3.77945 0.02246 114 118 124
0.01511 -3.78805 0.02795 121 125 123
1.62442 -2.62097 -0.72081 151 155 150
1.61042 -2.63098 -0.71442 153 149 150
1.59643 -2.64097 -0.70804 145 141 152
1.58246 -2.65095 -0.70166 146 150 151
1.56850 -2.66092 -0.69530 146 153 152
1.55457 -2.67088 -0.68894 150 149 149
1.54065 -2.68082 -0.68258 152 152 158
1.52675 -2.69075 -0.67624 150 159 163
1.51287 -2.70067 -0.66991 151 159 161
1.49901 -2.71058 -0.66358 163 159 161
1.48516 -2.72047 -0.65726 166 168 173
1.47133 -2.73035 -0.65095 170 173 172
1.45752 -2.74021 -0.64465 164 169 170
1.44373 -2.75007 -0.63835 168 169 175
1.42995 -2.75991 -0.63207 172 169 177
1.41619 -2.76974 -0.62579 172 175 170
1.40245 -2.77956 -0.61952 176 166 158
1.38873 -2.78936 -0.61326 168 170 170
1.37503 -2.79915 -0.60700 171 174 173
1.36134 -2.80893 -0.60076 175 186 173
1.34767 -2.81870 -0.59452 171 175 177
1.33402 -2.82845 -0.58829 171 175 173
1.32038 -2.83820 -0.58207 166 165 166
1.30676 -2.84793 -0.57585 167 170 170
1.29316 -2.85764 -0.56964 155 161 168
1.27958 -2.86735 -0.56345 170 176 176
1.26601 -2.87704 -0.55725 166 168 175
1.25246 -2.88672 -0.55107 169 174 180
1.23893 -2.89639 -0.54490 173 171 177
1.22542 -2.90604 -0.53873 165 169 170
1.21192 -2.91569 -0.53257 163 177 172
1.19844 -2.92532 -0.52642 165 173 170
1.18498 -2.93494 -0.52027 166 174 166
1.17153 -2.94455 -0.51414 172 182 176
1.15810 -2.95414 -0.50801 174 177 178
1.14469 -2.96372 -0.50189 172 173 174
1.13129 -2.97329 -0.49578 170 175 173
1.11791 -2.98285 -0.48967 172 175 178
1.10455 -2.99240 -0.48357 173 177 183
1.09121 -3.00193 -0.47748 173 183 182
0.01519 -3.77071 0.01356 109 106 114
0.00318 -3.77929 0.01904 114 117 120
1.60614 -2.61548 -0.72789 143 148 154
1.59219 -2.62545 -0.72151 150 151 162
1.57826 -2.63542 -0.71515 150 148 147
1.56435 -2.64537 -0.70879 149 148 151
1.55046 -2.65531 -0.70244 148 154 151
1.53658 -2.66524 -0.69609 153 153 146
1.52272 -2.67515 -0.68976 150 152 153
1.50888 -2.68505 -0.68343 141 143 163
1.49505 -2.69494 -0.67712 153 159 170
1.48125 -2.70481 -0.67080 166 164 162
1.46746 -2.71468 -0.66450 164 169 170
1.45369 -2.72453 -0.65821 165 166 167
1.43994 -2.73437 -0.65192 161 157 157
1.42620 -2.74419 -0.64565 164 167 168
1.41248 -2.75400 -0.63938 168 170 165
1.39878 -2.76380 -0.63311 171 178 166
1.38510 -2.77359 -0.62686 179 176 158
1.37143 -2.78337 -0.62061 168 169 170
1.35779 -2.79313 -0.61438 174 174 174
1.34416 -2.80288 -0.60815 183 187 180
1.33054 -2.81262 -0.60192 172 179 177
1.31695 -2.82234 -0.59571 175 179 171
1.30337 -2.83206 -0.58950 164 165 170
1.28981 -2.84176 -0.58330 162 169 172
1.27626 -2.85145 -0.57711 155 159 167
1.26273 -2.86112 -0.57093 174 174 177
1.24922 -2.87079 -0.56476 175 177 178
1.23573 -2.88044 -0.55859 171 177 177
1.22225 -2.89008 -0.55243 173 177 172
1.20879 -2.89971 -0.54628 170 174 172
1.19535 -2.90932 -0.54013 175 180 176
1.18193 -2.91893 -0.53400 174 177 173
1.16852 -2.92852 -0.52787 164 172 166
1.15513 -2.93810 -0.52175 172 183 170
1.14175 -2.94766 -0.51563 173 178 174
1.12839 -2.95722 -0.50953 172 175 172
1.11505 -2.96676 -0.50343 173 181 179
1.10173 -2.97629 -0.49734 172 175 177
1.08842 -2.98581 -0.49126 169 171 174
1.07513 -2.99532 -0.48518 166 174 172
1.58798 -2.61002 -0.73491 150 149 148
1.57409 -2.61997 -0.72856 153 152 156
1.56022 -2.62990 -0.72221 159 162 144
1.54637 -2.63983 -0.71586 155 153 149
1.53253 -2.64974 -0.70953 149 155 146
1.51871 -2.65963 -0.70320 155 161 153
1.50491 -2.66952 -0.69689 153 156 150
1.49113 -2.67939 -0.69058 149 150 163
1.47736 -2.68925 -0.68427 156 158 168
1.46361 -2.69909 -0.67798 161 161 161
1.44988 -2.70893 -0.67170 157 162 167
1.43617 -2.71875 -0.66542 161 162 164
1.42247 -2.72856 -0.65915 163 163 154
1.40879 -2.73835 -0.65289 164 164 162
1.39513 -2.74814 -0.64663 166 166 160
1.38149 -2.75791 -0.64039 164 170 165
1.36786 -2.76767 -0.63415 169 173 164
1.35425 -2.77741 -0.62792 166 171 166
1.34066 -2.78715 -0.62170 174 173 166
1.32709 -2.79687 -0.61548 181 186 184
1.31353 -2.80658 -0.60928 178 181 169
1.29999 -2.81628 -0.60308 173 173 157
1.28647 -2.82596 -0.59689 161 165 168
1.27296 -2.83563 -0.59071 159 165 172
1.25947 -2.84529 -0.58453 165 165 169
1.24600 -2.85494 -0.57837 173 173 180
1.23254 -2.86458 -0.57221 174 179 181
1.21911 -2.87420 -0.56605 169 179 172
1.20568 -2.88381 -0.55991 170 171 168
1.19228 -2.89341 -0.55377 168 168 171
1.17889 -2.90300 -0.54765 173 176 172
1.16552 -2.91258 -0.54153 175 179 178
1.15217 -2.92214 -0.53541 161 172 170
1.13883 -2.93169 -0.52931 173 184 172
1.12551 -2.94123 -0.52321 176 180 174
1.11221 -2.95076 -0.51712 174 179 169
1.09892 -2.96027 -0.51104 176 182 177
1.08565 -2.96978 -0.50496 174 177 176
1.07240 -2.97927 -0.49890 175 172 170
1.05916 -2.98875 -0.49284 170 169 167
1.56994 -2.60461 -0.74189 148 148 144
1.55611 -2.61452 -0.73555 151 151 149
1.54230 -2.62443 -0.72922 157 162 146
1.52850 -2.63432 -0.72289 156 160 148
1.51472 -2.64420 -0.71657 150 155 146
1.50096 -2.65407 -0.71027 153 160 153
1.48722 -2.66392 -0.70396 152 157 146
1.47349 -2.67376 -0.69767 156 168 168
1.45978 -2.68359 -0.69139 156 155 166
1.44609 -2.69341 -0.68511 158 156 164
1.43242 -2.70321 -0.67884 160 161 168
1.41876 -2.71301 -0.67258 162 162 170
1.40512 -2.72278 -0.66633 167 178 166
1.39150 -2.73255 -0.66008 167 170 171
1.37790 -2.74231 -0.65384 172 172 173
1.36431 -2.75205 -0.64761 162 166 166
1.35074 -2.76178 -0.64139 165 165 159
1.33719 -2.77150 -0.63518 172 181 161
1.32365 -2.78120 -0.62897 179 179 172
1.31013 -2.79090 -0.62278 173 174 183
1.29663 -2.80058 -0.61659 171 175 170
1.28314 -2.81025 -0.61040 175 176 168
1.26968 -2.81990 -0.60423 169 171 180
1.25623 -2.82955 -0.59806 164 167 178
1.24279 -2.83918 -0.59190 172 177 181
1.22937 -2.84880 -0.58575 170 178 175
1.21597 -2.85841 -0.57961 170 180 172
1.20259 -2.86800 -0.57347 167 171 168
1.18922 -2.87759 -0.56734 169 170 168
1.17587 -2.88716 -0.56122 170 174 170
1.16254 -2.89672 -0.55511 173 175 167
1.14923 -2.90627 -0.54901 172 179 173
1.13593 -2.91580 -0.54291 156 168 172
1.12264 -2.92533 -0.53682 168 178 178
1.10938 -2.93484 -0.53074 174 179 178
1.09613 -2.94434 -0.52466 174 179 174
1.08289 -2.95383 -0.51859 175 181 179
1.06968 -2.96331 -0.51253 172 173 180
1.05648 -2.97277 -0.50648 169 164 174
1.04329 -2.98222 -0.50044 164 165 169
1.03013 -2.99167 -0.49440 158 165 164
1.01697 -3.00109 -0.48837 166 168 164
1.00384 -3.01051 -0.48235 174 171 169
0.99072 -3.01992 -0.47634 172 173 173
1.53825 -2.60911 -0.74250 143 148 150
1.52450 -2.61899 -0.73618 150 151 147
1.51076 -2.62885 -0.72987 154 155 150
1.49704 -2.63870 -0.72357 153 153 150
1.48333 -2.64854 -0.71728 152 159 159
1.46965 -2.65836 -0.71100 150 157 145
1.45598 -2.66818 -0.70472 154 166 167
1.44232 -2.67798 -0.69845 154 156 163
1.42869 -2.68776 -0.69219 162 157 169
1.41507 -2.69754 -0.68594 165 168 172
1.40147 -2.70730 -0.67969 163 170 173
1.38789 -2.71705 -0.67346 160 171 175
1.37432 -2.72679 -0.66723 163 174 181
1.36077 -2.73652 -0.66101 170 175 183
1.34724 -2.74623 -0.65479 172 174 170
1.33373 -2.75593 -0.64859 168 160 165
1.32023 -2.76562 -0.64239 171 171 162
1.30675 -2.77530 -0.63620 173 171 169
1.29329 -2.78496 -0.63002 167 165 172
1.27984 -2.79462 -0.62384 163 165 171
1.26641 -2.80426 -0.61768 165 172 177
1.25300 -2.81389 -0.61152 166 168 175
1.23960 -2.82350 -0.60537 162 167 179
1.22622 -2.83311 -0.59922 175 183 185
1.21286 -2.84270 -0.59309 175 186 178
1.19951 -2.85228 -0.58696 176 184 175
1.18619 -2.86185 -0.58084 168 170 171
1.17287 -2.87140 -0.57473 168 171 174
1.15958 -2.88095 -0.56862 173 181 177
1.14630 -2.89048 -0.56253 175 179 173
1.13304 -2.90000 -0.55644 170 179 171
1.11979 -2.90951 -0.55035 163 170 166
1.10656 -2.91901 -0.54428 168 173 173
1.09335 -2.92849 -0.53821 170 173 175
1.08015 -2.93797 -0.53215 173 174 178
1.06697 -2.94743 -0.52610 179 181 184
1.05381 -2.95688 -0.52006 175 180 183
1.04066 -2.96631 -0.51402 167 165 176
1.02753 -2.97574 -0.50799 165 161 175
1.01442 -2.98515 -0.50197 163 162 170
1.00132 -2.99456 -0.49595 167 166 169
0.98823 -3.00395 -0.48995 169 168 168
0.97517 -3.01333 -0.48395 166 168 167
1.52051 -2.60374 -0.74940 145 146 155
1.50681 -2.61358 -0.74310 149 151 150
1.49313 -2.62342 -0.73681 153 155 153
1.47947 -2.63324 -0.73053 155 154 156
1.46582 -2.64305 -0.72425 155 158 166
1.45219 -2.65284 -0.71798 159 160 150
1.43858 -2.66262 -0.71172 158 162 160
1.42498 -2.67240 -0.70547 161 167 162
1.41140 -2.68215 -0.69922 163 160 171
1.39784 -2.69190 -0.69299 163 170 175
1.38430 -2.70164 -0.68676 167 173 172
1.37077 -2.71136 -0.68054 161 162 169
1.35726 -2.72107 -0.67433 161 161 169
1.34377 -2.73076 -0.66812 166 169 180
1.33029 -2.74045 -0.66192 175 173 174
1.31683 -2.75012 -0.65573 170 164 174
1.30339 -2.75978 -0.64955 170 165 166
1.28996 -2.76943 -0.64338 167 161 163
1.27655 -2.77907 -0.63721 168 172 169
1.26316 -2.78869 -0.63105 166 172 178
1.24979 -2.79831 -0.62490 167 174 174
1.23643 -2.80791 -0.61876 167 172 165
1.22309 -2.81750 -0.61263 164 170 172
1.20976 -2.82707 -0.60650 174 176 176
1.19645 -2.83664 -0.60038 173 177 178
1.18316 -2.84619 -0.59427 176 178 177
1.16989 -2.85573 -0.58816 171 175 174
1.15663 -2.86526 -0.58206 171 175 176
1.14339 -2.87478 -0.57597 176 180 178
1.13016 -2.88428 -0.56989 174 180 175
1.11695 -2.89378 -0.56382 165 173 168
1.10376 -2.90326 -0.55775 168 171 163
1.09058 -2.91273 -0.55169 169 172 171
1.07742 -2.92218 -0.54564 168 173 173
1.06428 -2.93163 -0.53960 171 174 179
1.05115 -2.94107 -0.53356 175 173 179
1.03804 -2.95049 -0.52753 174 178 176
1.02495 -2.95990 -0.52151 173 171 171
1.01187 -2.96930 -0.51549 172 163 174
0.99881 -2.97869 -0.50949 167 164 176
0.98576 -2.98806 -0.50349 172 169 177
0.97273 -2.99743 -0.49749 173 171 175
0.95972 -3.00678 -0.49151 171 171 172
0.94672 -3.01612 -0.48553 176 174 173
1.51655 -2.58857 -0.76255 149 143 155
1.50289 -2.59840 -0.75626 153 150 154
1.48925 -2.60821 -0.74997 154 155 151
1.47562 -2.61802 -0.74370 155 161 156
1.46201 -2.62781 -0.73743 158 158 157
1.44842 -2.63759 -0.73117 154 157 166
1.43485 -2.64736 -0.72492 161 162 156
1.42129 -2.65711 -0.71868 160 164 157
1.40775 -2.66685 -0.71244 163 167 157
1.39423 -2.67658 -0.70621 158 157 159
1.38072 -2.68630 -0.69999 153 162 169
1.36723 -2.69601 -0.69378 157 159 166
1.35376 -2.70570 -0.68758 167 165 164
1.34031 -2.71538 -0.68138 166 161 162
1.32687 -2.72505 -0.67519 169 168 173
1.31345 -2.73471 -0.66901 179 174 171
1.30004 -2.74435 -0.66283 173 168 173
1.28666 -2.75399 -0.65667 171 172 169
1.27329 -2.76361 -0.65051 168 168 160
1.25993 -2.77322 -0.64436 168 177 173
1.24659 -2.78281 -0.63822 166 176 181
1.23327 -2.79240 -0.63208 174 179 173
1.21997 -2.80197 -0.62596 173 181 167
1.20668 -2.81153 -0.61984 170 175 167
1.19341 -2.82108 -0.61372 172 172 171
1.18016 -2.83062 -0.60762 174 176 179
1.16692 -2.84014 -0.60152 177 181 183
1.15370 -2.84965 -0.59543 176 178 180
1.14049 -2.85916 -0.58935 175 176 176
1.12730 -2.86865 -0.58328 174 171 169
1.11413 -2.87812 -0.57721 170 175 172
1.10097 -2.88759 -0.57115 165 171 168
1.08783 -2.89704 -0.56510 169 172 169
1.07471 -2.90649 -0.55906 174 177 172
1.06160 -2.91592 -0.55302 173 179 174
1.04851 -2.92534 -0.54699 173 181 180
1.03544 -2.93475 -0.54097 172 173 176
1.02238 -2.94414 -0.53495 170 170 171
1.00934 -2.95353 -0.52895 174 173 169
0.99631 -2.96290 -0.52295 172 171 172
0.98330 -2.97226 -0.51696 162 164 175
0.97031 -2.98161 -0.51097 169 167 174
0.95733 -2.99095 -0.50499 176 171 173
0.94437 -3.00027 -0.49902 175 171 173
0.93142 -3.00959 -0.49306 178 176 176
0.91849 -3.01889 -0.48711 167 170 170
1.49899 -2.58329 -0.76934 153 151 157
1.48538 -2.59309 -0.76307 157 158 157
1.47180 -2.60288 -0.75680 160 157 156
1.45823 -2.61266 -0.75054 151 152 153
1.44468 -2.62242 -0.74429 154 152 157
1.43114 -2.63217 -0.73805 157 158 162
1.41762 -2.64191 -0.73181 158 164 157
1.40412 -2.65163 -0.72559 158 163 159
1.39064 -2.66135 -0.71937 162 166 162
1.37717 -2.67105 -0.71315 162 166 159
1.36372 -2.68074 -0.70695 158 159 167
1.35028 -2.69042 -0.70075 160 160 168
1.33687 -2.70008 -0.69456 171 170 167
1.32347 -2.70973 -0.68838 169 167 166
1.31008 -2.71937 -0.68221 170 168 170
1.29672 -2.72900 -0.67605 182 182 174
1.28337 -2.73862 -0.66989 176 171 171
1.27003 -2.74822 -0.66374 174 173 172
1.25672 -2.75782 -0.65760 179 186 170
1.24342 -2.76740 -0.65146 169 178 178
1.23013 -2.77697 -0.64533 170 176 182
1.21687 -2.78652 -0.63921 179 186 181
1.20362 -2.79607 -0.63310 176 181 170
1.19038 -2.80560 -0.62700 165 170 168
1.17716 -2.81512 -0.62090 163 170 169
1.16396 -2.82463 -0.61481 175 176 169
1.15078 -2.83413 -0.60873 179 183 181
1.13761 -2.84362 -0.60266 177 183 187
1.12446 -2.85309 -0.59659 174 172 176
1.11132 -2.86256 -0.59053 174 165 165
1.09820 -2.87201 -0.58448 168 170 170
1.08510 -2.88144 -0.57844 168 173 172
1.07201 -2.89087 -0.57240 178 178 174
1.05894 -2.90029 -0.56637 182 182 175
1.04589 -2.90969 -0.56035 173 175 176
1.03285 -2.91909 -0.55434 175 184 181
1.01982 -2.92847 -0.54833 177 184 179
1.00682 -2.93784 -0.54233 171 172 174
0.99383 -2.94719 -0.53634 169 171 170
0.98085 -2.95654 -0.53035 168 171 172
0.96789 -2.96588 -0.52438 161 163 173
0.95495 -2.97520 -0.51841 161 163 171
0.94202 -2.98451 -0.51244 166 170 169
0.92911 -2.99381 -0.50649 170 172 170
0.91622 -3.00310 -0.50054 172 172 173
0.90334 -3.01238 -0.49460 165 169 171
0.89047 -3.02164 -0.48867 154 157 163
0.87763 -3.03090 -0.48274 153 154 162
1.48154 -2.57806 -0.77609 156 153 157
1.46799 -2.58783 -0.76983 157 156 161
1.45446 -2.59758 -0.76358 164 156 159
1.44095 -2.60733 -0.75734 147 146 152
1.42745 -2.61706 -0.75111 150 149 157
1.41397 -2.62679 -0.74488 162 158 157
1.40051 -2.63649 -0.73866 162 162 158
1.38706 -2.64619 -0.73245 164 169 165
1.37363 -2.65588 -0.72625 166 170 172
1.36022 -2.66555 -0.72005 169 173 172
1.34682 -2.67521 -0.71386 169 164 172
1.33345 -2.68486 -0.70768 168 167 169
1.32008 -2.69450 -0.70151 167 165 167
1.30674 -2.70412 -0.69534 167 167 166
1.29341 -2.71373 -0.68919 165 166 170
1.28010 -2.72334 -0.68304 170 175 174
1.26680 -2.73292 -0.67690 173 177 171
1.25352 -2.74250 -0.67076 176 172 171
1.24026 -2.75207 -0.66463 184 185 180
1.22701 -2.76162 -0.65852 170 173 177
1.21378 -2.77116 -0.65240 166 167 177
1.20057 -2.78069 -0.64630 183 187 186
1.18737 -2.79021 -0.64020 179 177 169
1.17419 -2.79971 -0.63412 167 170 169
1.16102 -2.80921 -0.62803 161 170 167
1.14788 -2.81869 -0.62196 170 174 159
1.13474 -2.82816 -0.61589 176 178 168
1.12163 -2.83762 -0.60984 174 179 181
1.10853 -2.84707 -0.60378 174 176 183
1.09545 -2.85650 -0.59774 179 179 177
1.08238 -2.86593 -0.59170 177 181 178
1.06933 -2.87534 -0.58568 176 181 175
1.05629 -2.88474 -0.57965 183 184 177
1.04327 -2.89413 -0.57364 183 184 184
1.03027 -2.90351 -0.56763 169 171 177
1.01728 -2.91287 -0.56163 171 177 176
1.00431 -2.92223 -0.55564 173 178 175
0.99136 -2.93157 -0.54966 167 172 172
0.97842 -2.94090 -0.54368 165 167 168
0.96549 -2.95022 -0.53771 165 168 168
0.95259 -2.95953 -0.53175 165 171 170
0.93969 -2.96883 -0.52579 164 169 169
0.92682 -2.97812 -0.51985 167 172 170
0.91396 -2.98739 -0.51391 172 177 173
0.90111 -2.99665 -0.50797 172 174 172
0.88829 -3.00590 -0.50205 165 166 167
0.87547 -3.01515 -0.49613 156 153 160
0.86267 -3.02437 -0.49022 154 155 164
0.84989 -3.03359 -0.48431 164 171 176
1.46421 -2.57285 -0.78280 153 150 155
1.45072 -2.58259 -0.77655 153 147 154
1.43724 -2.59232 -0.77032 157 150 150
1.42378 -2.60204 -0.76409 150 154 154
1.41034 -2.61174 -0.75788 152 154 156
1.39692 -2.62144 -0.75167 157 154 149
1.38351 -2.63112 -0.74546 162 159 161
1.37012 -2.64079 -0.73927 167 171 167
1.35674 -2.65044 -0.73308 167 169 169
1.34338 -2.66009 -0.72690 169 167 171
1.33004 -2.66972 -0.72073 170 171 178
1.31672 -2.67934 -0.71456 166 164 162
1.30341 -2.68895 -0.70841 159 162 165
1.29012 -2.69855 -0.70226 166 170 164
1.27684 -2.70813 -0.69612 172 173 166
1.26358 -2.71771 -0.68998 164 172 172
1.25034 -2.72727 -0.68386 169 177 175
1.23711 -2.73682 -0.67774 174 173 172
1.22390 -2.74635 -0.67163 179 173 181
1.21071 -2.75588 -0.66552 170 173 178
1.19753 -2.76539 -0.65943 159 163 168
1.18437 -2.77489 -0.65334 177 180 172
1.17123 -2.78439 -0.64726 180 180 166
1.15810 -2.79386 -0.64119 176 180 169
1.14499 -2.80333 -0.63512 167 175 171
1.13189 -2.81279 -0.62906 168 177 165
1.11881 -2.82223 -0.62301 176 174 167
1.10575 -2.83166 -0.61697 172 171 173
1.09270 -2.84108 -0.61093 169 181 191
1.07967 -2.85049 -0.60490 180 188 188
1.06666 -2.85989 -0.59888 183 188 187
1.05366 -2.86927 -0.59287 181 186 180
1.04067 -2.87865 -0.58686 181 187 178
1.02771 -2.88801 -0.58086 177 182 183
1.01475 -2.89736 -0.57487 165 168 175
1.00182 -2.90670 -0.56889 164 169 172
0.98890 -2.91603 -0.56291 169 173 171
0.97599 -2.92535 -0.55694 168 172 171
0.96311 -2.93465 -0.55098 162 166 167
0.95023 -2.94395 -0.54502 163 166 168
0.93738 -2.95323 -0.53908 167 172 171
0.92454 -2.96250 -0.53313 169 171 171
0.91171 -2.97176 -0.52720 172 174 173
0.89890 -2.98101 -0.52128 175 180 175
0.88611 -2.99025 -0.51536 174 178 173
0.87333 -2.99947 -0.50945 166 166 165
0.86057 -3.00869 -0.50354 160 156 163
0.84782 -3.01789 -0.49764 162 162 168
0.83509 -3.02708 -0.49175 167 171 177
0.82237 -3.03627 -0.48587 165 168 179
0.80967 -3.04544 -0.48000 163 170 172
-0.42077 -3.93382 0.08923 122 124 111
-0.43201 -3.94194 0.09442 108 110 108
-0.44323 -3.95004 0.09962 110 118 121
1.43356 -2.57739 -0.78323 149 146 149
1.42013 -2.58709 -0.77701 151 149 148
1.40673 -2.59678 -0.77080 157 164 155
1.39334 -2.60646 -0.76460 156 159 158
1.37997 -2.61612 -0.75841 150 150 149
1.36662 -2.62578 -0.75222 160 160 161
1.35328 -2.63542 -0.74604 162 165 164
1.33996 -2.64504 -0.73987 165 167 164
1.32666 -2.65466 -0.73371 167 166 167
1.31337 -2.66427 -0.72755 172 175 182
1.30010 -2.67386 -0.72140 172 170 163
1.28684 -2.68344 -0.71526 161 170 162
1.27360 -2.69301 -0.70913 163 167 166
1.26038 -2.70257 -0.70300 185 179 169
1.24718 -2.71211 -0.69688 171 177 174
1.23399 -2.72164 -0.69077 169 171 176
1.22081 -2.73117 -0.68467 171 168 176
1.20766 -2.74068 -0.67858 176 175 178
1.19452 -2.75017 -0.67249 178 177 175
1.18139 -2.75966 -0.66641 171 171 162
1.16829 -2.76914 -0.66033 178 174 162
1.15519 -2.77860 -0.65427 178 180 165
1.14212 -2.78805 -0.64821 173 177 170
1.12906 -2.79749 -0.64216 167 174 176
1.11601 -2.80692 -0.63612 169 172 172
1.10299 -2.81634 -0.63008 175 169 170
1.08997 -2.82574 -0.62405 171 171 170
1.07698 -2.83514 -0.61803 168 174 183
1.06400 -2.84452 -0.61202 176 177 182
1.05104 -2.85389 -0.60601 178 184 187
1.03809 -2.86325 -0.60001 176 183 184
1.02516 -2.87259 -0.59402 178 183 176
1.01224 -2.88193 -0.58804 172 176 175
0.99934 -2.89126 -0.58206 164 167 173
0.98645 -2.90057 -0.57609 163 167 174
0.97358 -2.90987 -0.57013 172 173 175
0.96073 -2.91916 -0.56418 176 175 176
0.94789 -2.92844 -0.55823 165 169 168
0.93507 -2.93771 -0.55229 163 169 168
0.92227 -2.94697 -0.54635 168 172 172
0.90947 -2.95621 -0.54043 167 169 175
0.89670 -2.96545 -0.53451 166 169 174
0.88394 -2.97467 -0.52860 163 169 169
0.87120 -2.98388 -0.52269 163 169 171
0.85847 -2.99308 -0.51680 165 170 169
0.84575 -3.00227 -0.51091 163 162 166
0.83306 -3.01145 -0.50502 161 162 168
0.82037 -3.02062 -0.49915 164 164 173
0.80771 -3.02977 -0.49328 161 164 177
0.79506 -3.03892 -0.48742 160 168 175
0.78242 -3.04805 -0.48156 166 176 177
0.76980 -3.05717 -0.47572 163 165 174
-0.41963 -3.91693 0.07534 111 124 112
-0.43084 -3.92503 0.08053 112 119 115
-0.44204 -3.93312 0.08572 112 116 113
-0.45322 -3.94121 0.09090 109 114 121
1.41650 -2.57223 -0.78987 148 150 148
1.40314 -2.58190 -0.78366 152 152 152
1.38979 -2.59156 -0.77747 160 163 159
1.37646 -2.60121 -0.77128 161 162 164
1.36314 -2.61084 -0.76511 149 152 157
1.34984 -2.62047 -0.75893 157 157 161
1.33656 -2.63008 -0.75277 157 158 165
1.32329 -2.63968 -0.74662 163 168 172
1.31004 -2.64927 -0.74047 163 164 163
1.29680 -2.65885 -0.73433 169 172 177
1.28359 -2.66841 -0.72820 170 172 174
1.27038 -2.67796 -0.72207 158 164 157
1.25720 -2.68751 -0.71595 154 159 162
1.24403 -2.69704 -0.70984 176 169 169
1.23088 -2.70655 -0.70374 172 172 172
1.21774 -2.71606 -0.69765 172 171 173
1.20462 -2.72555 -0.69156 166 164 174
1.19152 -2.73504 -0.68548 169 172 169
1.17843 -2.74451 -0.67941 180 175 169
1.16536 -2.75397 -0.67334 180 174 162
1.15230 -2.76342 -0.66728 181 174 173
1.13926 -2.77285 -0.66123 177 175 176
1.12624 -2.78228 -0.65519 167 168 176
1.11323 -2.79169 -0.64915 166 166 175
1.10024 -2.80109 -0.64313 170 168 177
1.08726 -2.81048 -0.63711 166 166 174
1.07430 -2.81986 -0.63109 167 170 166
1.06136 -2.82923 -0.62509 171 169 175
1.04843 -2.83858 -0.61909 169 167 175
1.03552 -2.84793 -0.61310 170 176 182
1.02262 -2.85726 -0.60711 173 181 183
1.00974 -2.86658 -0.60114 173 178 177
0.99687 -2.87589 -0.59517 171 174 176
0.98402 -2.88519 -0.58921 165 172 175
0.97119 -2.89448 -0.58325 164 169 174
0.95837 -2.90375 -0.57730 164 164 176
0.94557 -2.91302 -0.57136 167 167 180
0.93278 -2.92227 -0.56543 166 171 171
0.92001 -2.93151 -0.55950 169 175 168
0.90725 -2.94074 -0.55359 170 179 175
0.89451 -2.94996 -0.54767 162 172 177
0.88178 -2.95917 -0.54177 159 164 170
0.86907 -2.96837 -0.53587 156 161 163
0.85638 -2.97756 -0.52998 157 167 168
0.84370 -2.98673 -0.52410 165 174 171
0.83104 -2.99590 -0.51823 163 165 168
0.81839 -3.00505 -0.51236 156 158 167
0.80575 -3.01419 -0.50649 156 160 167
0.79314 -3.02332 -0.50064 159 163 172
0.78053 -3.03244 -0.49479 163 171 178
0.76795 -3.04155 -0.48895 165 175 181
0.75537 -3.05065 -0.48312 160 164 174
-0.44085 -3.91628 0.07189 111 117 116
-0.45201 -3.92436 0.07707 114 117 112
-0.46315 -3.93242 0.08224 108 115 121
-0.47429 -3.94048 0.08741 114 118 116
-0.50761 -3.96459 0.10287 110 114 118
-0.51869 -3.97261 0.10801 115 117 118
1.39957 -2.56709 -0.79646 147 147 145
1.38625 -2.57674 -0.79027 152 154 159
1.37296 -2.58637 -0.78409 159 155 163
1.35968 -2.59599 -0.77792 166 168 166
1.34642 -2.60560 -0.77176 156 158 161
1.33317 -2.61520 -0.76561 158 159 163
1.31994 -2.62478 -0.75946 157 160 167
1.30673 -2.63435 -0.75332 162 165 177
1.29353 -2.64391 -0.74719 160 161 158
1.28035 -2.65346 -0.74106 165 170 168
1.26718 -2.66300 -0.73494 160 164 180
1.25403 -2.67253 -0.72884 155 160 155
1.24090 -2.68204 -0.72273 153 155 154
1.22778 -2.69154 -0.71664 159 158 163
1.21468 -2.70103 -0.71055 169 168 172
1.20160 -2.71051 -0.70447 172 175 172
1.18853 -2.71998 -0.69840 160 167 174
1.17548 -2.72943 -0.69234 162 165 167
1.16244 -2.73888 -0.68628 176 182 174
1.14942 -2.74831 -0.68023 175 175 175
1.13642 -2.75773 -0.67419 174 172 179
1.12343 -2.76714 -0.66815 174 175 179
1.11046 -2.77654 -0.66212 166 165 174
1.09750 -2.78592 -0.65610 164 164 175
1.08456 -2.79530 -0.65009 170 170 181
1.07164 -2.80466 -0.64409 168 170 180
1.05873 -2.81401 -0.63809 168 166 167
1.04583 -2.82336 -0.63210 171 170 176
1.03296 -2.83268 -0.62611 165 169 174
1.02009 -2.84200 -0.62014 169 172 175
1.00725 -2.85131 -0.61417 176 184 184
0.99442 -2.86060 -0.60821 174 179 181
0.98160 -2.86989 -0.60225 172 178 179
0.96880 -2.87916 -0.59630 167 174 179
0.95602 -2.88842 -0.59036 169 176 176
0.94325 -2.89767 -0.58443 162 167 175
0.93050 -2.90691 -0.57851 159 164 179
0.91776 -2.91614 -0.57259 163 170 174
0.90504 -2.92536 -0.56668 169 173 174
0.89233 -2.93456 -0.56077 172 180 182
0.87964 -2.94376 -0.55488 163 172 180
0.86696 -2.95294 -0.54899 159 165 169
0.85430 -2.96211 -0.54310 161 169 163
0.84166 -2.97127 -0.53723 162 172 169
0.82903 -2.98042 -0.53136 165 176 172
0.81641 -2.98956 -0.52550 164 167 170
0.80381 -2.99869 -0.51964 159 160 171
0.79123 -3.00780 -0.51380 156 163 168
0.77866 -3.01691 -0.50796 155 163 163
0.76610 -3.02601 -0.50212 158 167 165
0.75357 -3.03509 -0.49630 166 176 177
0.74104 -3.04416 -0.49048 162 167 170
-0.46192 -3.91565 0.06847 118 115 110
-0.47303 -3.92369 0.07363 116 124 135
-0.48412 -3.93173 0.07879 117 120 125
-0.49520 -3.93976 0.08394 134 135 132
-0.50627 -3.94778 0.08908 122 119 126
-0.51733 -3.95579 0.09422 120 119 119
-0.52837 -3.96379 0.09935 109 110 106
-0.53940 -3.97178 0.10447 115 114 113
-0.56143 -3.98774 0.11471 110 119 116
1.38274 -2.56200 -0.80300 147 146 148
1.36948 -2.57161 -0.79683 146 151 163
1.35624 -2.58122 -0.79067 155 151 158
1.34301 -2.59081 -0.78452 167 167 160
1.32980 -2.60039 -0.77837 163 161 166
1.31661 -2.60996 -0.77223 168 169 169
1.30343 -2.61951 -0.76610 166 166 166
1.29027 -2.62906 -0.75998 162 159 159
1.27712 -2.63859 -0.75386 160 160 151
1.26400 -2.64811 -0.74775 164 165 162
1.25088 -2.65762 -0.74165 164 165 179
1.23779 -2.66712 -0.73556 166 174 163
1.22471 -2.67661 -0.72947 165 161 158
1.21164 -2.68608 -0.72339 153 152 166
1.19859 -2.69555 -0.71732 160 161 165
1.18556 -2.70500 -0.71126 164 166 169
1.17255 -2.71444 -0.70520 161 175 176
1.15955 -2.72387 -0.69915 166 173 173
1.14656 -2.73328 -0.69311 178 183 175
1.13359 -2.74269 -0.68707 174 172 178
1.12064 -2.75208 -0.68105 167 166 171
1.10770 -2.76147 -0.67503 161 162 161
1.09478 -2.77084 -0.66901 167 160 159
1.08188 -2.78020 -0.66301 169 167 176
1.06899 -2.78955 -0.65701 172 174 178
1.05611 -2.79888 -0.65102 175 171 174
1.04325 -2.80821 -0.64504 172 166 166
1.03041 -2.81752 -0.63906 173 174 176
1.01758 -2.82683 -0.63309 171 180 176
1.00477 -2.83612 -0.62713 175 183 177
0.99198 -2.84540 -0.62118 179 187 189
0.97920 -2.85467 -0.61523 174 183 185
0.96643 -2.86392 -0.60929 173 179 179
0.95368 -2.87317 -0.60336 170 172 177
0.94095 -2.88241 -0.59743 177 179 176
0.92823 -2.89163 -0.59151 170 174 175
0.91552 -2.90084 -0.58560 165 171 176
0.90284 -2.91005 -0.57970 167 173 173
0.89016 -2.91924 -0.57380 166 173 176
0.87751 -2.92842 -0.56791 172 180 182
0.86486 -2.93759 -0.56203 173 179 181
0.85224 -2.94674 -0.55616 164 170 171
0.83962 -2.95589 -0.55029 158 164 162
0.82703 -2.96503 -0.54443 158 164 169
0.81445 -2.97415 -0.53857 162 171 179
0.80188 -2.98326 -0.53272 164 169 176
0.78933 -2.99237 -0.52688 166 168 173
0.77679 -3.00146 -0.52105 159 167 166
0.76427 -3.01054 -0.51522 150 162 155
0.75177 -3.01961 -0.50941 152 160 153
0.73928 -3.02867 -0.50359 160 166 174
0.72680 -3.03772 -0.49779 160 165 170
-0.48284 -3.91502 0.06507 116 115 126
-0.49390 -3.92303 0.07022 109 115 127
-0.50494 -3.93104 0.07536 120 127 134
-0.51597 -3.93904 0.08049 120 129 129
-0.52699 -3.94703 0.08562 126 129 127
-0.53800 -3.95502 0.09074 108 112 115
-0.54899 -3.96299 0.09585 113 117 119
-0.55997 -3.97095 0.10096 110 119 127
-0.57094 -3.97891 0.10607 116 125 122
1.36602 -2.55693 -0.80951 151 153 155
1.35281 -2.56652 -0.80336 144 152 161
1.33962 -2.57609 -0.79721 150 155 160
1.32645 -2.58566 -0.79107 158 162 161
1.31329 -2.59521 -0.78494 152 159 170
1.30015 -2.60475 -0.77882 165 165 172
1.28703 -2.61428 -0.77270 166 164 165
1.27392 -2.62380 -0.76659 163 166 153
1.26083 -2.63330 -0.76049 158 157 150
1.24775 -2.64280 -0.75440 162 164 166
1.23469 -2.65228 -0.74831 166 170 178
1.22164 -2.66175 -0.74223 168 172 172
1.20862 -2.67121 -0.73616 170 166 158
1.19560 -2.68066 -0.73010 165 159 167
1.18261 -2.69010 -0.72404 163 159 163
1.16963 -2.69952 -0.71800 161 163 165
1.15666 -2.70893 -0.71195 168 174 174
1.14371 -2.71833 -0.70592 171 170 175
1.13078 -2.72773 -0.69989 178 172 181
1.11786 -2.73710 -0.69387 172 174 176
1.10496 -2.74647 -0.68786 162 168 165
1.09207 -2.75583 -0.68186 149 152 157
1.07920 -2.76517 -0.67586 163 162 163
1.06635 -2.77451 -0.66987 174 176 180
1.05351 -2.78383 -0.66389 174 180 175
1.04069 -2.79314 -0.65791 172 172 168
1.02788 -2.80244 -0.65194 164 162 164
1.01509 -2.81173 -0.64598 169 175 175
1.00231 -2.82100 -0.64003 172 180 174
0.98955 -2.83027 -0.63408 173 179 177
0.97680 -2.83952 -0.62814 173 178 183
0.96407 -2.84877 -0.62221 168 177 181
0.95135 -2.85800 -0.61629 167 177 176
0.93865 -2.86722 -0.61037 166 170 168
0.92597 -2.87643 -0.60446 170 172 168
0.91330 -2.88563 -0.59855 167 167 172
0.90065 -2.89482 -0.59266 163 166 177
0.88801 -2.90399 -0.58677 167 172 177
0.87538 -2.91316 -0.58088 168 174 176
0.86277 -2.92231 -0.57501 172 177 179
0.85018 -2.93146 -0.56914 175 177 179
0.83760 -2.94059 -0.56328 170 174 176
0.82504 -2.94971 -0.55743 168 168 171
0.81249 -2.95882 -0.55158 166 167 173
0.79996 -2.96792 -0.54574 165 168 179
0.78744 -2.97701 -0.53990 166 169 183
0.77494 -2.98609 -0.53408 172 174 180
0.76245 -2.99515 -0.52826 165 170 166
0.74998 -3.00421 -0.52245 151 163 163
0.73752 -3.01326 -0.51664 153 162 158
0.72507 -3.02229 -0.51084 154 156 168
0.71265 -3.03131 -0.50505 158 162 168
-0.49260 -3.90639 0.05657 114 113 121
-0.50362 -3.91439 0.06170 106 110 126
-0.51462 -3.92238 0.06683 116 126 139
-0.52561 -3.93036 0.07195 111 128 127
-0.53660 -3.93833 0.07707 123 135 135
-0.54756 -3.94630 0.08218 123 129 125
-0.55852 -3.95425 0.08728 117 122 130
-0.56946 -3.96220 0.09238 122 132 135
-0.58039 -3.97013 0.09748 125 130 124
-0.59131 -3.97806 0.10256 119 124 125
1.34940 -2.55190 -0.81597 155 155 155
1.33625 -2.56146 -0.80983 152 155 157
1.32311 -2.57101 -0.80370 150 151 166
1.30999 -2.58054 -0.79758 149 153 159
1.29689 -2.59007 -0.79147 145 158 164
1.28380 -2.59958 -0.78536 157 160 167
1.27073 -2.60908 -0.77926 163 167 168
1.25767 -2.61857 -0.77317 166 172 166
1.24463 -2.62805 -0.76708 159 161 165
1.23161 -2.63752 -0.76100 162 170 172
1.21860 -2.64697 -0.75493 165 167 170
1.20561 -2.65642 -0.74887 164 170 169
1.19263 -2.66585 -0.74281 163 161 155
1.17967 -2.67527 -0.73677 174 176 165
1.16672 -2.68468 -0.73073 175 173 179
1.15379 -2.69408 -0.72469 171 171 169
1.14088 -2.70346 -0.71867 169 166 166
1.12798 -2.71284 -0.71265 170 164 176
1.11510 -2.72220 -0.70664 177 169 183
1.10223 -2.73155 -0.70063 172 172 170
1.08938 -2.74090 -0.69463 157 163 161
1.07655 -2.75023 -0.68865 155 156 161
1.06373 -2.75954 -0.68266 162 170 176
1.05092 -2.76885 -0.67669 173 181 185
1.03813 -2.77815 -0.67072 173 176 178
1.02536 -2.78743 -0.66476 169 174 168
1.01260 -2.79670 -0.65881 161 167 171
0.99986 -2.80597 -0.65286 167 173 173
0.98713 -2.81522 -0.64692 165 171 165
0.97442 -2.82446 -0.64099 165 167 171
0.96172 -2.83369 -0.63506 170 176 175
0.94904 -2.84290 -0.62915 176 179 175
0.93637 -2.85211 -0.62324 173 179 172
0.92372 -2.86130 -0.61733 166 168 165
0.91109 -2.87049 -0.61144 162 167 166
0.89847 -2.87966 -0.60555 164 169 167
0.88586 -2.88882 -0.59966 166 169 174
0.87327 -2.89798 -0.59379 168 167 177
0.86070 -2.90712 -0.58792 170 169 173
0.84814 -2.91625 -0.58206 172 173 175
0.83559 -2.92536 -0.57621 170 170 178
0.82306 -2.93447 -0.57036 168 167 178
0.81055 -2.94357 -0.56452 170 168 179
0.79805 -2.95265 -0.55869 170 172 179
0.78556 -2.96173 -0.55286 169 170 175
0.77309 -2.97079 -0.54704 168 166 179
0.76064 -2.97985 -0.54123 172 170 182
0.74819 -2.98889 -0.53542 170 168 171
