ply
format ascii 1.0
element face 0
property list uchar int vertex_indices
element vertex 1299
property float x
property float y
property float z
property uchar diffuse_red
property uchar diffuse_green
property uchar diffuse_blue
end_header
0.49617 -5.02058 1.50140 127 118 95
0.46566 -4.99229 1.50999 131 123 98
0.43564 -4.96445 1.51844 136 126 106
0.40610 -4.93707 1.52676 138 128 111
0.37704 -4.91013 1.53494 140 128 108
0.34845 -4.88361 1.54299 139 128 108
0.32031 -4.85752 1.55092 140 129 113
0.29260 -4.83183 1.55872 140 130 112
0.26533 -4.80654 1.56640 141 131 110
0.23848 -4.78165 1.57396 142 131 112
0.21204 -4.75713 1.58141 142 131 114
0.18601 -4.73299 1.58874 143 131 115
0.16037 -4.70922 1.59596 145 131 110
0.13511 -4.68580 1.60307 144 131 109
0.11022 -4.66272 1.61008 144 131 116
0.08571 -4.63999 1.61698 144 132 118
0.06155 -4.61759 1.62379 145 133 117
-0.03164 -4.53118 1.65003 145 134 116
-0.05411 -4.51035 1.65636 146 135 117
-0.07627 -4.48980 1.66260 148 135 117
-0.09812 -4.46954 1.66875 149 137 118
-0.11967 -4.44956 1.67482 151 139 122
-0.14092 -4.42986 1.68080 153 139 122
-0.16188 -4.41042 1.68670 152 138 124
-0.18256 -4.39125 1.69253 152 138 130
0.49209 -5.03227 1.48439 129 119 96
0.46156 -5.00383 1.49314 133 124 99
0.43152 -4.97586 1.50174 136 127 106
0.40198 -4.94834 1.51021 138 128 111
0.37290 -4.92126 1.51854 140 127 107
0.34429 -4.89461 1.52673 141 128 106
0.31614 -4.86839 1.53480 140 129 113
0.28843 -4.84258 1.54274 140 130 115
0.26114 -4.81717 1.55056 141 131 112
0.23429 -4.79215 1.55825 143 131 112
0.20784 -4.76752 1.56583 142 131 112
0.18179 -4.74326 1.57329 141 131 113
0.15614 -4.71937 1.58064 143 132 116
0.13088 -4.69584 1.58788 145 132 116
0.10599 -4.67265 1.59501 145 131 117
0.08147 -4.64982 1.60203 145 132 118
0.05731 -4.62731 1.60896 145 133 117
0.03350 -4.60513 1.61578 147 134 116
0.01003 -4.58328 1.62250 147 134 113
-0.01310 -4.56174 1.62913 145 134 116
-0.03590 -4.54050 1.63566 145 134 119
-0.05837 -4.51957 1.64210 147 134 119
-0.08053 -4.49893 1.64845 147 135 118
-0.10238 -4.47858 1.65471 148 136 119
-0.12393 -4.45851 1.66088 150 138 123
-0.14518 -4.43871 1.66697 151 139 122
-0.16614 -4.41919 1.67297 151 139 122
-0.18682 -4.39993 1.67890 151 138 129
0.48800 -5.04400 1.46733 130 121 98
0.45745 -5.01541 1.47623 134 124 101
0.42740 -4.98730 1.48499 137 126 107
0.39784 -4.95964 1.49360 138 127 112
0.36875 -4.93243 1.50208 138 128 107
0.34013 -4.90565 1.51042 141 128 106
0.31196 -4.87929 1.51863 141 128 112
0.28424 -4.85336 1.52671 140 129 117
0.25694 -4.82782 1.53466 142 131 117
0.23008 -4.80268 1.54249 143 131 114
0.20362 -4.77793 1.55020 141 132 111
0.17757 -4.75356 1.55780 141 132 110
0.15191 -4.72955 1.56527 143 131 117
0.12664 -4.70591 1.57264 144 131 119
0.10174 -4.68262 1.57989 146 131 117
0.07722 -4.65967 1.58704 146 132 117
0.05305 -4.63706 1.59408 144 133 116
0.02924 -4.61478 1.60102 146 134 120
0.00577 -4.59282 1.60786 147 134 120
-0.01736 -4.57118 1.61460 145 134 119
-0.04016 -4.54985 1.62125 147 134 119
-0.06264 -4.52882 1.62780 147 133 121
-0.08480 -4.50808 1.63426 146 133 121
-0.10666 -4.48764 1.64063 147 135 120
-0.12820 -4.46748 1.64691 149 136 123
-0.14946 -4.44760 1.65310 150 137 125
-0.17042 -4.42798 1.65921 151 139 125
0.48389 -5.05576 1.45021 131 122 99
0.45333 -5.02704 1.45927 136 126 101
0.42326 -4.99878 1.46818 138 126 105
0.39368 -4.97098 1.47694 139 126 107
0.36458 -4.94363 1.48557 139 128 103
0.33595 -4.91672 1.49406 141 129 101
0.30777 -4.89024 1.50241 143 129 104
0.28003 -4.86417 1.51063 141 130 110
0.25273 -4.83851 1.51872 142 132 114
0.22585 -4.81325 1.52669 144 132 116
0.19939 -4.78838 1.53453 142 132 116
0.17333 -4.76389 1.54225 141 132 115
0.14766 -4.73977 1.54986 143 132 115
0.12239 -4.71601 1.55735 144 131 112
0.09748 -4.69261 1.56473 144 132 112
0.07295 -4.66955 1.57200 144 134 113
0.04878 -4.64684 1.57917 143 134 111
0.02496 -4.62445 1.58623 146 134 115
0.00149 -4.60239 1.59318 148 134 120
-0.02164 -4.58065 1.60004 148 134 121
-0.04444 -4.55922 1.60680 149 134 119
-0.06692 -4.53809 1.61346 148 132 121
-0.08909 -4.51726 1.62003 147 133 122
-0.11094 -4.49673 1.62651 147 134 120
-0.13249 -4.47647 1.63289 148 135 123
-0.15374 -4.45650 1.63919 149 136 129
-0.17470 -4.43680 1.64540 150 137 129
0.44919 -5.03870 1.44225 136 126 103
0.41911 -5.01030 1.45131 139 126 104
0.38951 -4.98236 1.46023 141 126 104
0.36040 -4.95487 1.46900 141 128 101
0.33175 -4.92783 1.47764 141 129 98
0.30356 -4.90121 1.48613 142 130 97
0.27581 -4.87502 1.49449 141 130 103
0.24850 -4.84924 1.50273 142 131 112
0.22162 -4.82385 1.51083 143 132 117
0.19514 -4.79886 1.51881 143 132 117
0.16908 -4.77425 1.52666 142 132 117
0.14340 -4.75001 1.53440 143 132 114
0.11812 -4.72614 1.54202 143 131 107
0.09321 -4.70263 1.54953 143 131 109
0.06868 -4.67947 1.55692 145 132 116
0.04450 -4.65664 1.56421 145 133 114
0.02068 -4.63415 1.57138 144 133 114
-0.00280 -4.61199 1.57846 145 133 117
-0.02593 -4.59015 1.58543 148 135 120
-0.04874 -4.56862 1.59231 149 135 122
-0.07122 -4.54740 1.59908 149 134 124
-0.09338 -4.52647 1.60576 149 134 123
-0.11524 -4.50584 1.61235 149 134 120
-0.13679 -4.48550 1.61884 148 134 123
-0.15804 -4.46543 1.62524 149 136 126
-0.17900 -4.44565 1.63156 150 136 123
0.41494 -5.02185 1.43439 138 126 107
0.38533 -4.99377 1.44346 140 126 106
0.35620 -4.96615 1.45238 141 128 101
0.32754 -4.93897 1.46117 141 130 100
0.29934 -4.91222 1.46981 141 130 101
0.27158 -4.88590 1.47831 142 130 104
0.24426 -4.85999 1.48668 143 130 109
0.21737 -4.83448 1.49492 143 131 112
0.19088 -4.80937 1.50304 144 132 113
0.16481 -4.78464 1.51102 143 132 112
0.13913 -4.76029 1.51889 143 132 109
0.11384 -4.73631 1.52664 143 132 106
0.08893 -4.71268 1.53427 143 131 111
0.06439 -4.68941 1.54179 145 131 118
0.04021 -4.66648 1.54920 145 133 116
0.01638 -4.64388 1.55650 144 133 113
-0.00710 -4.62162 1.56369 145 133 112
-0.03024 -4.59967 1.57078 147 134 117
-0.05304 -4.57805 1.57777 149 135 122
-0.07553 -4.55672 1.58466 149 135 123
-0.09769 -4.53570 1.59145 148 134 120
-0.11955 -4.51498 1.59815 148 134 117
-0.14110 -4.49454 1.60475 148 134 123
-0.16235 -4.47439 1.61126 148 135 124
-0.18331 -4.45451 1.61768 150 136 117
0.41076 -5.03344 1.41741 137 126 110
0.38114 -5.00523 1.42664 137 128 110
0.35199 -4.97746 1.43571 139 128 107
0.32332 -4.95015 1.44464 140 129 108
0.29511 -4.92327 1.45343 140 131 108
0.26734 -4.89682 1.46207 140 131 105
0.24001 -4.87078 1.47059 142 131 105
0.21310 -4.84515 1.47897 142 131 108
0.18661 -4.81992 1.48721 142 132 111
0.16053 -4.79507 1.49534 144 132 111
0.13485 -4.77060 1.50334 144 132 106
0.10955 -4.74650 1.51121 144 132 105
0.08463 -4.72276 1.51897 143 132 111
0.06008 -4.69938 1.52662 143 132 113
0.03590 -4.67634 1.53415 144 133 113
0.01207 -4.65364 1.54157 144 134 114
-0.01141 -4.63127 1.54888 144 134 112
-0.03455 -4.60923 1.55609 146 135 115
-0.05736 -4.58750 1.56319 148 136 122
-0.07985 -4.56608 1.57020 149 137 125
-0.10201 -4.54496 1.57710 147 135 124
-0.12387 -4.52414 1.58390 146 134 120
-0.14542 -4.50361 1.59062 147 134 121
-0.16667 -4.48337 1.59723 147 134 119
-0.18763 -4.46340 1.60376 149 135 114
0.37693 -5.01672 1.40976 136 128 108
0.34777 -4.98882 1.41898 137 129 107
0.31909 -4.96137 1.42806 139 129 108
0.29086 -4.93436 1.43700 139 130 108
0.26308 -4.90777 1.44579 139 131 106
0.23574 -4.88161 1.45444 142 131 104
0.20883 -4.85585 1.46296 143 131 106
0.18233 -4.83050 1.47134 143 132 111
0.15624 -4.80553 1.47960 144 132 112
0.13055 -4.78094 1.48773 146 132 111
0.00775 -4.66343 1.52660 144 133 118
-0.01574 -4.64096 1.53403 144 135 122
-0.03888 -4.61881 1.54135 146 135 122
-0.06169 -4.59698 1.54857 147 135 123
-0.08418 -4.57546 1.55569 147 138 129
-0.10634 -4.55425 1.56271 148 137 130
-0.12820 -4.53333 1.56962 148 134 122
-0.14975 -4.51271 1.57644 148 134 122
-0.17100 -4.49238 1.58317 148 134 120
-0.19196 -4.47232 1.58980 149 134 114
-0.21263 -4.45254 1.59634 148 136 117
-0.25313 -4.41378 1.60916 149 136 122
0.37270 -5.02824 1.39282 137 125 109
0.34353 -5.00021 1.40220 138 126 105
0.31484 -4.97262 1.41143 139 126 106
0.28660 -4.94547 1.42051 140 128 108
0.25881 -4.91876 1.42945 140 130 109
0.23146 -4.89247 1.43824 140 131 111
0.20454 -4.86659 1.44690 141 132 111
0.17803 -4.84111 1.45542 142 132 110
0.15193 -4.81602 1.46382 144 133 111
0.00341 -4.67325 1.51158 143 133 120
-0.02007 -4.65067 1.51913 143 133 123
-0.04322 -4.62842 1.52658 144 134 122
-0.06603 -4.60649 1.53391 146 134 118
-0.08852 -4.58487 1.54114 147 134 121
-0.11069 -4.56356 1.54827 148 136 122
-0.13255 -4.54255 1.55530 149 136 118
-0.15410 -4.52184 1.56223 149 135 120
-0.17535 -4.50141 1.56907 149 134 120
-0.19630 -4.48126 1.57581 149 134 115
-0.21697 -4.46139 1.58245 149 134 118
-0.25747 -4.42246 1.59548 150 136 126
0.33928 -5.01163 1.38536 139 126 105
0.31057 -4.98391 1.39474 139 127 106
0.28233 -4.95663 1.40397 141 127 107
0.25453 -4.92978 1.41305 141 128 108
0.22716 -4.90336 1.42199 140 129 114
-0.00094 -4.68309 1.49652 143 132 118
-0.02443 -4.66041 1.50419 143 132 123
-0.04757 -4.63806 1.51175 144 133 122
-0.07039 -4.61602 1.51921 147 134 119
-0.09288 -4.59431 1.52656 147 133 120
-0.11505 -4.57290 1.53380 147 134 120
-0.13690 -4.55179 1.54094 149 135 121
-0.15845 -4.53098 1.54798 150 135 123
-0.17970 -4.51046 1.55492 149 135 119
-0.20066 -4.49023 1.56177 148 134 115
-0.22133 -4.47027 1.56852 149 133 118
-0.24171 -4.45058 1.57518 150 133 122
-0.26182 -4.43116 1.58175 151 135 125
0.33502 -5.02310 1.36847 137 126 105
0.30630 -4.99523 1.37800 137 127 104
-0.00530 -4.69297 1.48141 143 134 113
-0.02879 -4.67018 1.48921 145 133 117
-0.05194 -4.64772 1.49689 146 132 117
-0.07476 -4.62559 1.50446 147 132 120
-0.09725 -4.60377 1.51193 148 132 122
-0.11942 -4.58226 1.51928 147 132 120
-0.14127 -4.56106 1.52654 149 134 120
-0.16282 -4.54016 1.53369 151 136 126
-0.18407 -4.51955 1.54074 150 137 124
-0.20503 -4.49922 1.54769 148 136 117
-0.22569 -4.47917 1.55455 148 134 117
-0.24608 -4.45940 1.56132 148 134 120
-0.26619 -4.43989 1.56799 149 135 124
-0.00967 -4.70287 1.46626 142 134 115
-0.03317 -4.67998 1.47418 144 133 112
-0.05632 -4.65742 1.48198 145 132 111
-0.07914 -4.63518 1.48967 145 132 117
-0.10163 -4.61326 1.49725 146 133 119
-0.12380 -4.59166 1.50473 146 132 112
-0.14566 -4.57036 1.51209 147 132 111
-0.16721 -4.54936 1.51936 149 134 120
-0.18845 -4.52865 1.52652 149 137 121
-0.20941 -4.50823 1.53358 148 137 118
-0.23007 -4.48810 1.54055 149 135 118
-0.25046 -4.46823 1.54742 149 134 120
-0.27056 -4.44864 1.55419 148 134 119
-0.29040 -4.42931 1.56088 149 135 120
-0.01406 -4.71281 1.45106 145 133 115
-0.03756 -4.68981 1.45910 144 133 112
-0.06071 -4.66714 1.46703 146 132 111
-0.08353 -4.64480 1.47484 147 132 115
-0.10602 -4.62278 1.48254 145 133 118
-0.12820 -4.60108 1.49013 145 133 116
-0.15005 -4.57968 1.49761 147 134 112
-0.17160 -4.55859 1.50498 149 135 115
-0.19285 -4.53779 1.51225 149 137 117
-0.21380 -4.51728 1.51943 149 137 120
-0.23447 -4.49705 1.52650 149 135 122
-0.25485 -4.47710 1.53347 149 134 123
-0.27495 -4.45742 1.54036 148 134 121
-0.29478 -4.43800 1.54714 148 135 123
-0.01846 -4.72277 1.43582 147 132 115
-0.04196 -4.69966 1.44398 144 133 114
-0.06512 -4.67689 1.45203 146 133 114
-0.08794 -4.65445 1.45996 147 133 113
-0.11043 -4.63233 1.46778 145 133 112
-0.13260 -4.61052 1.47548 144 133 114
-0.15446 -4.58903 1.48308 145 134 115
-0.17601 -4.56784 1.49057 147 135 115
-0.19726 -4.54695 1.49795 148 136 118
-0.21821 -4.52634 1.50523 149 137 121
-0.23887 -4.50602 1.51241 150 137 124
-0.25925 -4.48598 1.51950 150 135 124
-0.27935 -4.46622 1.52648 149 134 121
-0.02287 -4.73277 1.42053 146 133 115
-0.04638 -4.70955 1.42882 146 133 117
-0.06954 -4.68667 1.43699 145 133 118
-0.11485 -4.64190 1.45298 145 134 116
-0.13702 -4.62000 1.46080 144 133 119
-0.15888 -4.59841 1.46851 145 134 118
-0.18043 -4.57712 1.47611 146 135 115
-0.20167 -4.55613 1.48361 146 135 117
-0.22262 -4.53544 1.49100 147 137 121
-0.24328 -4.51503 1.49829 150 137 128
-0.26366 -4.49490 1.50548 149 136 129
-0.28376 -4.47504 1.51257 149 134 122
-0.14146 -4.62950 1.44607 144 134 125
-0.16331 -4.60781 1.45390 145 132 123
-0.18486 -4.58643 1.46162 146 133 115
-0.20611 -4.56534 1.46922 146 134 115
-0.22705 -4.54455 1.47673 147 134 119
-0.24771 -4.52405 1.48412 147 135 124
-0.26809 -4.50383 1.49142 147 137 126
2.26835 -3.89446 0.46421 132 144 152
2.25480 -3.90712 0.47314 137 152 156
2.24125 -3.91977 0.48206 138 152 155
2.22770 -3.93243 0.49099 138 152 159
2.24284 -3.88235 0.45062 132 145 155
2.22934 -3.89496 0.45951 138 152 158
2.21585 -3.90756 0.46840 139 154 162
2.20236 -3.92016 0.47729 141 154 169
2.18887 -3.93276 0.48617 142 154 166
2.21754 -3.87035 0.43714 132 146 157
2.20410 -3.88290 0.44600 138 153 159
2.19067 -3.89545 0.45485 142 155 164
2.17724 -3.90800 0.46370 143 155 171
2.16381 -3.92054 0.47255 143 154 167
2.19245 -3.85844 0.42378 134 144 155
2.17907 -3.87094 0.43260 139 155 165
2.16570 -3.88344 0.44142 144 155 165
2.15233 -3.89594 0.45023 144 154 168
2.13896 -3.90843 0.45905 144 154 167
2.11223 -3.93341 0.47667 99 95 111
0.77555 -5.18262 1.35788 87 96 92
0.76244 -5.19487 1.36652 87 93 86
0.74934 -5.20711 1.37516 85 91 83
2.16757 -3.84663 0.41053 134 144 153
2.15425 -3.85908 0.41931 139 156 167
2.14094 -3.87153 0.42810 146 155 165
2.12762 -3.88398 0.43688 143 154 167
2.11431 -3.89642 0.44565 144 155 169
2.08770 -3.92130 0.46321 98 87 101
0.76984 -5.15325 1.33229 89 93 96
0.75679 -5.16545 1.34090 92 99 102
0.74373 -5.17765 1.34950 93 97 94
0.73069 -5.18985 1.35811 90 94 85
2.14290 -3.83493 0.39739 135 146 157
2.12964 -3.84733 0.40614 139 155 159
2.11638 -3.85972 0.41489 146 154 161
2.10313 -3.87212 0.42363 144 154 164
2.08987 -3.88451 0.43237 145 154 166
2.06337 -3.90929 0.44985 108 106 110
0.76418 -5.12412 1.30690 90 92 88
0.75118 -5.13627 1.31548 89 92 90
0.73818 -5.14842 1.32405 92 94 96
0.72518 -5.16057 1.33263 94 96 93
0.71219 -5.17272 1.34120 94 98 85
2.11843 -3.82332 0.38436 141 144 156
2.10523 -3.83566 0.39307 141 151 153
2.09203 -3.84801 0.40178 144 154 159
2.07883 -3.86036 0.41049 145 155 163
2.06564 -3.87270 0.41920 144 155 167
2.03925 -3.89738 0.43661 120 122 121
0.79741 -5.05887 1.25608 91 95 89
0.78446 -5.07099 1.26463 93 97 91
0.77151 -5.08310 1.27318 91 96 90
0.75856 -5.09522 1.28172 89 94 87
0.74561 -5.10733 1.29027 89 93 87
0.73267 -5.11943 1.29881 88 92 85
0.71973 -5.13154 1.30735 90 94 92
0.70679 -5.14364 1.31589 94 97 94
0.69385 -5.15574 1.32442 93 101 90
2.09417 -3.81180 0.37144 142 142 153
2.08102 -3.82410 0.38012 139 146 151
2.06788 -3.83640 0.38879 142 154 159
2.05474 -3.84869 0.39747 145 155 165
2.04160 -3.86098 0.40614 144 155 165
2.01533 -3.88556 0.42348 132 134 130
0.75299 -5.06655 1.25674 96 101 94
0.74009 -5.07861 1.26526 94 99 86
0.72720 -5.09067 1.27377 94 99 92
0.71431 -5.10273 1.28227 95 100 95
0.70142 -5.11479 1.29078 95 99 96
0.68854 -5.12684 1.29929 94 99 96
0.67565 -5.13890 1.30779 92 100 95
2.07010 -3.80038 0.35862 143 143 153
2.05701 -3.81263 0.36726 136 146 155
2.04393 -3.82488 0.37591 140 154 163
2.03084 -3.83712 0.38455 146 155 166
2.01776 -3.84937 0.39319 144 155 165
1.99160 -3.87384 0.41046 140 146 138
0.73462 -5.05013 1.24044 100 106 94
0.72178 -5.06214 1.24892 99 102 79
0.70894 -5.07416 1.25740 97 102 93
0.69610 -5.08617 1.26587 99 104 104
0.68327 -5.09818 1.27435 97 102 97
0.67044 -5.11018 1.28282 91 97 92
0.65761 -5.12219 1.29129 89 95 90
0.64478 -5.13419 1.29976 90 93 81
2.04624 -3.78905 0.34591 147 146 153
2.03320 -3.80125 0.35452 135 145 158
2.02017 -3.81345 0.36313 140 153 162
2.00714 -3.82565 0.37173 148 155 159
1.99411 -3.83784 0.38034 146 156 164
1.98109 -3.85003 0.38894 144 157 170
1.96807 -3.86222 0.39754 148 153 149
0.78036 -4.97396 1.18202 99 109 99
0.76756 -4.98594 1.19048 103 112 102
0.71639 -5.03384 1.22428 99 107 95
0.70361 -5.04581 1.23272 98 103 88
0.69082 -5.05777 1.24116 98 101 100
0.67804 -5.06974 1.24961 101 102 109
0.66526 -5.08170 1.25805 98 100 98
0.65248 -5.09366 1.26649 87 94 88
0.63971 -5.10562 1.27493 84 90 85
0.62694 -5.11757 1.28336 86 88 84
0.61417 -5.12952 1.29180 85 88 86
2.00958 -3.78997 0.34188 140 143 160
1.99661 -3.80212 0.35045 142 153 167
1.98363 -3.81427 0.35902 145 155 161
1.97066 -3.82641 0.36759 144 156 164
1.95769 -3.83856 0.37616 144 156 169
1.94473 -3.85070 0.38473 152 160 156
0.81303 -4.91028 1.13245 93 98 94
0.80027 -4.92222 1.14088 95 99 90
0.78752 -4.93416 1.14930 96 97 87
0.77477 -4.94610 1.15773 96 105 105
0.76202 -4.95804 1.16615 99 106 104
0.74928 -4.96997 1.17457 110 115 106
0.69832 -5.01768 1.20824 93 98 90
0.68559 -5.02960 1.21665 91 98 93
0.67286 -5.04152 1.22506 95 99 99
0.66013 -5.05344 1.23347 97 99 100
0.64740 -5.06535 1.24188 93 96 94
0.63468 -5.07727 1.25029 83 91 89
0.62196 -5.08918 1.25869 81 88 85
0.60924 -5.10109 1.26710 84 86 83
0.59652 -5.11299 1.27550 86 87 84
0.58380 -5.12490 1.28390 81 87 80
2.47897 -3.31726 0.00364 135 140 137
1.98616 -3.77878 0.32934 138 141 158
1.97324 -3.79088 0.33788 142 155 160
1.96032 -3.80298 0.34642 145 156 162
1.94740 -3.81508 0.35495 145 155 165
1.93449 -3.82717 0.36349 146 155 165
1.92157 -3.83926 0.37202 154 160 158
0.79462 -4.89468 1.11683 91 99 79
0.78192 -4.90657 1.12523 97 105 90
0.76922 -4.91846 1.13362 98 103 87
0.75652 -4.93035 1.14201 94 99 94
0.74383 -4.94224 1.15040 92 99 96
0.73114 -4.95413 1.15879 106 110 98
0.70576 -4.97790 1.17556 81 75 78
0.69307 -4.98977 1.18395 88 91 87
0.68039 -5.00165 1.19233 94 96 83
0.66771 -5.01353 1.20071 97 100 91
0.65503 -5.02540 1.20909 99 103 94
0.64236 -5.03727 1.21747 98 98 90
0.62968 -5.04914 1.22584 94 96 91
0.61701 -5.06101 1.23422 89 94 90
0.60434 -5.07287 1.24259 87 90 90
0.59168 -5.08473 1.25096 89 90 89
0.57901 -5.09659 1.25933 91 92 86
0.56635 -5.10845 1.26770 84 91 76
0.55369 -5.12031 1.27607 80 90 78
0.47778 -5.19140 1.32623 70 74 76
2.45365 -3.30799 -0.00752 142 142 137
1.96292 -3.76768 0.31690 137 143 155
1.95006 -3.77973 0.32541 143 156 156
1.93719 -3.79178 0.33391 147 156 163
1.92433 -3.80383 0.34241 147 155 171
1.91147 -3.81588 0.35092 147 156 166
1.89861 -3.82792 0.35942 154 162 160
0.77636 -4.87919 1.10134 98 102 88
0.76371 -4.89104 1.10971 102 105 97
0.75107 -4.90289 1.11807 101 111 99
0.73842 -4.91473 1.12643 97 106 91
0.72578 -4.92657 1.13478 88 97 90
0.71314 -4.93841 1.14314 94 96 98
0.68787 -4.96209 1.15985 80 83 79
0.67524 -4.97392 1.16820 90 98 94
0.66261 -4.98575 1.17655 97 98 93
0.64998 -4.99758 1.18490 100 103 93
0.63735 -5.00941 1.19324 98 103 95
0.62473 -5.02123 1.20159 96 99 96
0.61211 -5.03306 1.20993 94 99 94
0.59949 -5.04488 1.21828 86 94 92
0.58687 -5.05670 1.22662 88 95 93
0.57426 -5.06851 1.23496 94 98 94
0.56165 -5.08033 1.24329 97 99 95
0.54904 -5.09214 1.25163 93 96 85
0.53643 -5.10395 1.25996 87 92 81
0.52383 -5.11576 1.26830 85 90 81
0.51122 -5.12756 1.27663 87 89 80
0.49862 -5.13937 1.28496 85 85 78
0.48603 -5.15117 1.29329 84 86 77
0.47343 -5.16297 1.30161 82 87 80
0.46084 -5.17476 1.30994 78 81 82
2.48017 -3.25042 -0.05274 147 153 149
2.46726 -3.26252 -0.04420 137 142 130
2.45435 -3.27462 -0.03566 140 148 127
2.44144 -3.28671 -0.02713 138 142 143
2.42853 -3.29880 -0.01859 141 147 139
2.41563 -3.31089 -0.01006 142 145 136
1.92706 -3.76867 0.31303 144 153 157
1.91425 -3.78068 0.32151 145 155 160
1.90144 -3.79268 0.32998 146 155 166
1.88864 -3.80468 0.33845 147 155 167
1.87583 -3.81668 0.34691 152 159 165
0.75825 -4.86383 1.08598 99 104 95
0.74565 -4.87564 1.09431 98 104 95
0.73306 -4.88744 1.10264 94 103 94
0.72047 -4.89924 1.11096 92 100 89
0.70788 -4.91103 1.11929 84 91 87
0.69529 -4.92283 1.12761 93 99 103
0.68270 -4.93462 1.13593 107 114 101
0.67012 -4.94641 1.14426 83 80 73
0.65754 -4.95820 1.15258 85 87 89
0.64496 -4.96998 1.16089 95 98 99
0.63239 -4.98177 1.16921 100 102 96
0.61981 -4.99355 1.17753 99 101 100
0.60724 -5.00533 1.18584 98 101 98
0.59467 -5.01710 1.19415 96 100 95
0.58211 -5.02888 1.20246 83 88 92
0.56954 -5.04065 1.21077 86 95 93
0.55698 -5.05242 1.21908 96 100 92
0.54442 -5.06419 1.22738 97 96 90
0.53186 -5.07596 1.23569 90 92 84
0.51931 -5.08772 1.24399 88 91 84
0.50675 -5.09948 1.25229 88 90 85
0.49420 -5.11124 1.26059 91 90 85
0.48165 -5.12300 1.26889 89 87 84
0.46911 -5.13476 1.27719 86 85 81
0.45657 -5.14651 1.28548 83 83 79
0.44402 -5.15826 1.29378 78 81 74
0.43148 -5.17001 1.30207 78 82 78
2.44218 -3.25354 -0.05508 143 147 136
2.42933 -3.26559 -0.04658 147 150 139
2.41647 -3.27764 -0.03807 145 154 152
2.40362 -3.28969 -0.02957 145 154 143
2.39077 -3.30173 -0.02107 144 150 142
2.37793 -3.31377 -0.01257 147 147 148
2.36508 -3.32581 -0.00408 144 152 154
2.35224 -3.33784 0.00442 154 162 160
1.89149 -3.76966 0.30920 145 156 159
1.87874 -3.78162 0.31764 146 155 163
1.86599 -3.79357 0.32608 146 155 165
1.85324 -3.80552 0.33451 149 158 162
0.74028 -4.84860 1.07073 94 103 94
0.72774 -4.86035 1.07903 93 98 89
0.71519 -4.87211 1.08733 90 94 89
0.70265 -4.88386 1.09562 94 100 96
0.69012 -4.89561 1.10392 92 101 92
0.67758 -4.90736 1.11221 100 111 110
0.66505 -4.91911 1.12050 107 110 116
0.65252 -4.93085 1.12879 82 75 82
0.63999 -4.94260 1.13708 86 95 89
0.62746 -4.95434 1.14536 100 108 105
0.61494 -4.96607 1.15365 97 105 104
0.60241 -4.97781 1.16193 96 106 106
0.58989 -4.98954 1.17021 98 103 91
0.57738 -5.00128 1.17849 100 103 93
0.56486 -5.01300 1.18677 97 106 99
0.55235 -5.02473 1.19505 96 105 95
0.53984 -5.03646 1.20333 98 104 90
0.52733 -5.04818 1.21160 95 100 83
0.51482 -5.05990 1.21987 87 91 77
0.50232 -5.07162 1.22814 89 92 85
0.48982 -5.08334 1.23641 89 90 88
0.47732 -5.09505 1.24468 88 88 90
0.46482 -5.10676 1.25295 86 87 85
0.45233 -5.11847 1.26121 84 84 80
0.43983 -5.13018 1.26948 83 81 77
0.42734 -5.14189 1.27774 78 80 76
0.41486 -5.15359 1.28600 77 80 76
2.49417 -3.17259 -0.11673 157 160 137
2.48136 -3.18460 -0.10825 150 151 145
2.46854 -3.19661 -0.09977 153 155 155
2.45573 -3.20863 -0.09130 153 151 146
2.44292 -3.22063 -0.08282 155 155 144
2.41731 -3.24464 -0.06587 140 148 134
2.40451 -3.25664 -0.05740 140 136 139
2.39171 -3.26864 -0.04893 144 143 138
2.37891 -3.28064 -0.04046 146 147 140
2.36611 -3.29264 -0.03200 144 144 142
2.35332 -3.30463 -0.02353 150 147 145
2.34053 -3.31662 -0.01507 140 141 145
2.32774 -3.32861 -0.00661 151 150 141
2.31496 -3.34059 0.00185 155 157 150
2.30217 -3.35258 0.01031 157 155 160
2.28939 -3.36456 0.01877 164 168 162
2.27661 -3.37654 0.02723 151 154 157
2.26384 -3.38852 0.03568 149 151 154
2.25106 -3.40049 0.04413 144 154 153
2.19999 -3.44837 0.07793 156 163 148
2.18723 -3.46034 0.08637 157 161 144
1.86892 -3.75873 0.29700 145 154 161
1.85622 -3.77064 0.30540 145 154 164
1.84352 -3.78254 0.31380 145 155 164
1.83082 -3.79445 0.32221 144 158 163
0.82249 -4.73971 0.98942 106 115 115
0.73495 -4.82177 1.04734 96 102 94
0.72246 -4.83348 1.05561 88 96 81
0.70996 -4.84519 1.06387 94 102 90
0.69747 -4.85690 1.07214 97 99 102
0.68498 -4.86861 1.08040 99 104 106
0.67250 -4.88032 1.08867 93 100 82
0.66001 -4.89202 1.09693 100 110 104
0.64753 -4.90372 1.10519 99 109 108
0.63505 -4.91542 1.11344 91 80 78
0.62257 -4.92712 1.12170 95 101 88
0.61010 -4.93881 1.12996 108 110 99
0.59762 -4.95051 1.13821 106 103 97
0.58515 -4.96220 1.14646 101 103 101
0.57268 -4.97389 1.15471 100 106 95
0.56022 -4.98557 1.16296 105 105 94
0.54775 -4.99726 1.17121 103 105 96
0.53529 -5.00894 1.17945 97 103 93
0.52283 -5.02062 1.18770 95 100 90
0.51037 -5.03230 1.19594 92 97 84
0.49792 -5.04397 1.20418 90 95 80
0.48547 -5.05565 1.21242 92 94 84
0.47302 -5.06732 1.22066 89 91 84
0.46057 -5.07899 1.22890 88 91 86
0.44812 -5.09066 1.23713 89 91 83
0.43568 -5.10232 1.24537 87 88 78
0.42324 -5.11399 1.25360 86 85 78
0.41080 -5.12565 1.26183 84 83 80
0.39836 -5.13731 1.27006 82 84 82
2.49471 -3.14010 -0.14414 148 153 145
2.48194 -3.15207 -0.13569 149 147 145
2.46918 -3.16404 -0.12724 146 151 141
2.45641 -3.17601 -0.11879 146 144 149
2.44365 -3.18797 -0.11035 146 147 151
2.43090 -3.19994 -0.10190 149 151 147
2.41814 -3.21190 -0.09346 149 157 155
2.40539 -3.22386 -0.08502 145 151 146
2.39263 -3.23581 -0.07658 129 130 135
2.37989 -3.24777 -0.06814 134 136 142
2.36714 -3.25972 -0.05970 143 146 140
2.35439 -3.27167 -0.05127 142 141 143
2.34165 -3.28362 -0.04283 141 138 143
2.32891 -3.29556 -0.03440 144 147 144
2.31618 -3.30751 -0.02597 145 152 146
2.30344 -3.31945 -0.01754 146 151 148
2.29071 -3.33139 -0.00911 148 151 156
2.27798 -3.34332 -0.00069 154 162 157
2.26525 -3.35526 0.00774 155 165 153
2.25252 -3.36719 0.01616 147 155 152
2.23980 -3.37912 0.02458 147 155 150
2.22708 -3.39105 0.03300 148 155 148
2.21436 -3.40298 0.04142 147 151 147
2.20164 -3.41490 0.04984 145 147 144
2.18893 -3.42682 0.05825 150 159 146
2.17622 -3.43874 0.06667 148 154 143
2.16351 -3.45066 0.07508 147 151 146
1.84652 -3.74789 0.28489 143 151 165
1.80858 -3.78347 0.31000 145 153 163
0.89168 -4.64322 0.91689 105 110 106
0.87920 -4.65492 0.92515 104 113 113
0.86673 -4.66662 0.93340 106 111 102
0.85426 -4.67831 0.94166 106 109 97
0.84179 -4.69001 0.94991 105 110 98
0.82932 -4.70170 0.95816 110 111 107
0.81686 -4.71339 0.96641 111 116 109
0.72966 -4.79514 1.02413 91 89 82
0.71722 -4.80682 1.03237 96 96 93
0.70477 -4.81848 1.04060 101 104 90
0.69233 -4.83015 1.04884 102 109 98
0.67989 -4.84182 1.05707 108 110 108
0.66745 -4.85348 1.06531 104 111 106
0.65502 -4.86514 1.07354 102 106 95
0.64258 -4.87680 1.08177 110 117 100
0.63015 -4.88846 1.08999 100 107 96
0.61772 -4.90011 1.09822 93 95 90
0.60529 -4.91176 1.10645 94 98 97
0.59287 -4.92341 1.11467 101 100 102
0.58045 -4.93506 1.12289 102 107 97
0.56803 -4.94671 1.13111 101 103 97
0.55561 -4.95835 1.13933 96 99 94
0.54319 -4.96999 1.14755 104 103 91
0.53078 -4.98163 1.15577 103 99 88
0.51837 -4.99327 1.16398 96 95 85
0.50596 -5.00491 1.17219 94 96 87
0.49355 -5.01654 1.18041 96 97 87
0.48115 -5.02817 1.18862 97 98 85
0.46875 -5.03980 1.19683 98 96 84
0.45635 -5.05143 1.20503 95 93 85
0.44395 -5.06305 1.21324 93 92 85
0.43155 -5.07468 1.22144 91 89 83
0.41916 -5.08630 1.22965 86 85 79
0.40677 -5.09792 1.23785 83 84 76
0.39438 -5.10953 1.24605 81 84 78
0.38199 -5.12115 1.25425 82 86 81
2.49524 -3.10786 -0.17134 108 114 120
2.45709 -3.14364 -0.14608 144 147 145
2.44438 -3.15556 -0.13767 142 144 145
2.43167 -3.16748 -0.12925 145 147 148
2.41896 -3.17940 -0.12084 143 150 144
2.40626 -3.19132 -0.11243 145 146 132
2.39356 -3.20323 -0.10402 144 138 138
2.38085 -3.21514 -0.09561 140 136 132
2.36816 -3.22705 -0.08720 135 134 134
2.35546 -3.23896 -0.07879 140 142 142
2.34277 -3.25087 -0.07039 146 149 144
2.33008 -3.26277 -0.06199 144 144 146
2.31739 -3.27467 -0.05359 140 140 143
2.30470 -3.28657 -0.04519 137 139 127
2.29201 -3.29847 -0.03679 140 145 138
2.27933 -3.31036 -0.02839 143 148 149
2.26665 -3.32225 -0.02000 147 151 154
2.25398 -3.33414 -0.01160 150 159 155
2.24130 -3.34603 -0.00321 142 154 149
2.22863 -3.35792 0.00518 142 151 143
2.21596 -3.36980 0.01357 149 158 153
2.20329 -3.38168 0.02196 154 159 152
0.92310 -4.58238 0.86955 102 104 93
0.91067 -4.59404 0.87778 107 108 96
0.89823 -4.60570 0.88601 107 110 102
0.88580 -4.61736 0.89424 106 111 104
0.87338 -4.62902 0.90247 111 110 107
0.86095 -4.64067 0.91070 107 108 105
0.84853 -4.65232 0.91892 106 108 97
0.83611 -4.66397 0.92715 105 110 103
0.82369 -4.67562 0.93537 104 117 105
0.81127 -4.68727 0.94359 112 122 114
0.79886 -4.69891 0.95181 109 112 111
0.73682 -4.75709 0.99288 103 106 98
0.71202 -4.78035 1.00930 88 88 94
0.69962 -4.79198 1.01751 98 104 100
0.68723 -4.80361 1.02572 103 109 95
0.67483 -4.81523 1.03392 100 109 105
0.66244 -4.82685 1.04212 112 113 111
0.65006 -4.83847 1.05033 101 105 93
0.63767 -4.85008 1.05853 101 103 105
0.62529 -4.86170 1.06672 116 119 115
0.61291 -4.87331 1.07492 97 97 101
0.60053 -4.88492 1.08312 101 103 98
0.58815 -4.89653 1.09131 105 111 103
0.57578 -4.90813 1.09950 107 112 114
0.56341 -4.91974 1.10770 102 107 105
0.55104 -4.93134 1.11589 102 107 103
0.53867 -4.94294 1.12407 102 106 107
0.52630 -4.95454 1.13226 102 104 98
0.51394 -4.96613 1.14045 101 102 90
0.50158 -4.97773 1.14863 92 98 84
0.48922 -4.98932 1.15681 93 101 87
0.47686 -5.00091 1.16499 100 106 92
0.46451 -5.01249 1.17317 100 101 85
0.45216 -5.02408 1.18135 94 93 74
0.43981 -5.03566 1.18953 91 89 82
0.42746 -5.04724 1.19770 93 90 90
0.41511 -5.05882 1.20588 92 89 86
0.40277 -5.07040 1.21405 88 86 78
0.39043 -5.08197 1.22222 85 86 70
0.37809 -5.09355 1.23039 85 88 75
0.36575 -5.10512 1.23856 87 90 82
2.45777 -3.11152 -0.17317 104 124 141
2.41978 -3.14715 -0.14801 142 146 139
2.40712 -3.15902 -0.13963 145 147 138
2.39447 -3.17090 -0.13125 153 157 155
2.38182 -3.18277 -0.12287 153 154 142
2.36917 -3.19463 -0.11449 152 154 143
2.35652 -3.20650 -0.10611 148 153 132
2.34387 -3.21836 -0.09774 141 147 136
2.33123 -3.23022 -0.08936 146 153 140
2.31859 -3.24208 -0.08099 152 151 137
2.30595 -3.25394 -0.07262 147 142 131
2.29331 -3.26579 -0.06425 145 139 138
2.28068 -3.27765 -0.05588 136 136 136
2.26805 -3.28950 -0.04752 140 144 141
2.25542 -3.30135 -0.03915 149 152 148
2.24279 -3.31319 -0.03079 155 151 144
2.23016 -3.32504 -0.02243 147 142 137
2.21754 -3.33688 -0.01407 144 150 144
2.20492 -3.34872 -0.00571 147 151 141
2.19230 -3.36056 0.00264 152 151 147
0.92951 -4.54522 0.83896 95 100 91
0.91712 -4.55684 0.84716 91 99 94
0.90474 -4.56846 0.85537 96 102 90
0.89235 -4.58008 0.86357 100 104 96
0.87997 -4.59169 0.87177 107 110 110
0.86759 -4.60331 0.87997 107 112 111
0.85521 -4.61492 0.88816 109 113 113
0.84284 -4.62653 0.89636 107 110 102
0.83047 -4.63814 0.90455 108 112 98
0.81809 -4.64974 0.91275 104 108 98
0.80573 -4.66135 0.92094 97 98 93
0.79336 -4.67295 0.92913 99 94 87
0.78100 -4.68455 0.93732 106 107 105
0.76863 -4.69614 0.94550 119 131 126
0.75627 -4.70774 0.95369 112 113 95
0.74392 -4.71933 0.96187 100 105 94
0.73156 -4.73092 0.97006 102 96 95
0.71921 -4.74251 0.97824 103 107 100
0.70686 -4.75410 0.98642 115 113 96
0.69451 -4.76568 0.99459 107 106 97
0.68216 -4.77726 1.00277 106 112 98
0.66982 -4.78884 1.01095 107 111 97
0.65748 -4.80042 1.01912 107 111 102
0.64514 -4.81200 1.02729 111 109 105
0.63280 -4.82357 1.03546 101 106 95
0.62046 -4.83515 1.04363 101 105 102
0.60813 -4.84672 1.05180 111 111 107
0.59580 -4.85828 1.05997 93 96 100
0.58347 -4.86985 1.06813 99 101 96
0.57114 -4.88141 1.07630 104 105 100
0.55882 -4.89298 1.08446 107 110 107
0.54650 -4.90454 1.09262 106 110 105
0.53418 -4.91609 1.10078 104 108 104
0.52186 -4.92765 1.10893 102 108 106
0.50954 -4.93920 1.11709 101 107 104
0.49723 -4.95075 1.12525 104 107 101
0.48492 -4.96230 1.13340 91 89 86
0.47261 -4.97385 1.14155 91 96 91
0.46030 -4.98540 1.14970 102 113 104
0.44800 -4.99694 1.15785 104 108 96
0.43570 -5.00848 1.16600 99 97 85
0.42340 -5.02002 1.17414 94 92 82
0.41110 -5.03156 1.18229 88 90 86
0.39880 -5.04309 1.19043 88 91 84
0.38651 -5.05462 1.19857 89 92 82
0.37422 -5.06616 1.20671 88 90 81
0.36193 -5.07768 1.21485 88 88 83
2.42059 -3.11514 -0.17497 100 113 138
2.38277 -3.15063 -0.14992 141 142 138
2.37017 -3.16246 -0.14157 153 153 148
2.35757 -3.17428 -0.13322 149 159 152
2.34497 -3.18610 -0.12488 152 166 157
2.33237 -3.19792 -0.11653 148 153 137
2.31978 -3.20974 -0.10819 138 150 141
2.30719 -3.22156 -0.09985 142 149 143
2.29460 -3.23337 -0.09151 154 156 144
2.28201 -3.24518 -0.08317 151 148 146
2.26943 -3.25699 -0.07483 151 149 143
2.25685 -3.26880 -0.06650 146 150 141
2.24427 -3.28060 -0.05816 150 155 138
2.23169 -3.29240 -0.04983 154 154 145
2.21911 -3.30420 -0.04150 162 168 161
2.20654 -3.31600 -0.03317 148 156 148
2.19397 -3.32780 -0.02484 147 152 142
2.18140 -3.33959 -0.01652 150 153 137
2.16883 -3.35138 -0.00819 154 151 145
0.92353 -4.51992 0.81677 101 103 95
0.91119 -4.53150 0.82495 103 106 98
0.89885 -4.54307 0.83312 99 105 97
0.88652 -4.55465 0.84129 97 103 96
0.87418 -4.56622 0.84947 98 101 100
0.86185 -4.57780 0.85763 110 110 104
0.84952 -4.58937 0.86580 108 108 106
0.83719 -4.60093 0.87397 107 110 106
0.82487 -4.61250 0.88213 108 108 103
0.81255 -4.62406 0.89030 111 114 101
0.80022 -4.63562 0.89846 105 111 100
0.78791 -4.64718 0.90662 103 106 96
0.77559 -4.65874 0.91478 105 110 100
0.76328 -4.67029 0.92294 114 122 110
0.75096 -4.68185 0.93109 118 121 109
0.73865 -4.69340 0.93925 96 96 88
0.72635 -4.70495 0.94740 77 86 81
0.71404 -4.71649 0.95555 99 107 103
0.70174 -4.72804 0.96370 107 114 112
0.68944 -4.73958 0.97185 109 111 101
0.67714 -4.75112 0.98000 105 111 99
0.66484 -4.76266 0.98815 106 111 101
0.65255 -4.77420 0.99629 108 114 100
0.64025 -4.78573 1.00443 110 112 99
0.62796 -4.79726 1.01258 114 108 99
0.61568 -4.80879 1.02072 101 105 96
0.60339 -4.82032 1.02886 100 105 93
0.59111 -4.83185 1.03699 106 108 99
0.57883 -4.84337 1.04513 103 105 99
0.56655 -4.85490 1.05326 110 106 97
0.55427 -4.86642 1.06140 109 108 101
0.54199 -4.87793 1.06953 106 108 104
0.52972 -4.88945 1.07766 106 108 101
0.51745 -4.90096 1.08579 105 105 101
0.50518 -4.91248 1.09391 103 106 104
0.49292 -4.92399 1.10204 101 106 104
0.48065 -4.93549 1.11016 102 107 99
0.46839 -4.94700 1.11829 99 103 88
0.45613 -4.95850 1.12641 97 101 90
0.44387 -4.97001 1.13453 105 110 99
0.39487 -5.01599 1.16699 96 91 79
0.37038 -5.03897 1.18322 91 88 90
0.34589 -5.06195 1.19944 96 94 92
2.38372 -3.11874 -0.17677 104 117 126
2.33351 -3.16587 -0.14350 142 145 156
2.32096 -3.17764 -0.13518 152 156 152
2.30842 -3.18942 -0.12687 152 150 137
2.29588 -3.20119 -0.11856 145 147 135
2.28334 -3.21296 -0.11025 138 145 132
2.27080 -3.22472 -0.10194 150 156 138
2.25827 -3.23649 -0.09364 147 150 138
2.24573 -3.24825 -0.08533 138 137 126
2.23320 -3.26001 -0.07703 141 139 143
2.22067 -3.27177 -0.06873 149 148 150
2.20815 -3.28353 -0.06043 153 168 165
2.19562 -3.29528 -0.05213 155 163 149
2.18310 -3.30704 -0.04383 150 152 143
2.17058 -3.31879 -0.03553 150 147 136
2.15806 -3.33054 -0.02724 148 142 131
2.14555 -3.34228 -0.01895 150 150 143
2.13304 -3.35403 -0.01065 142 150 147
0.92989 -4.48327 0.78661 109 112 97
0.91760 -4.49481 0.79476 105 106 95
0.90531 -4.50635 0.80290 105 106 98
0.89301 -4.51788 0.81105 106 106 96
0.88073 -4.52942 0.81919 102 106 94
0.86844 -4.54095 0.82733 104 108 98
0.85615 -4.55248 0.83547 105 106 100
0.84387 -4.56401 0.84361 105 106 97
0.83159 -4.57553 0.85175 103 107 98
0.81931 -4.58705 0.85988 101 104 97
0.80704 -4.59858 0.86802 106 109 103
0.79477 -4.61010 0.87615 106 113 104
0.78249 -4.62161 0.88428 100 112 101
0.77022 -4.63313 0.89241 109 117 96
0.75796 -4.64464 0.90054 121 130 104
0.74569 -4.65615 0.90867 111 113 104
0.73343 -4.66766 0.91680 98 90 99
0.72117 -4.67917 0.92492 94 90 89
0.70891 -4.69068 0.93304 95 102 91
0.69666 -4.70218 0.94116 105 115 103
0.68440 -4.71368 0.94928 111 113 113
0.67215 -4.72518 0.95740 106 103 101
0.65990 -4.73668 0.96552 103 108 96
0.64765 -4.74817 0.97364 106 109 101
0.63541 -4.75967 0.98175 105 111 105
0.62317 -4.77116 0.98986 109 114 104
0.61092 -4.78264 0.99797 110 117 101
0.59869 -4.79413 1.00608 105 108 100
0.58645 -4.80562 1.01419 104 104 100
0.57421 -4.81710 1.02230 107 115 105
0.56198 -4.82858 1.03041 107 110 101
0.54975 -4.84006 1.03851 103 103 97
0.53752 -4.85154 1.04661 102 104 104
0.52530 -4.86301 1.05471 102 107 112
0.51308 -4.87448 1.06281 108 107 102
0.50085 -4.88595 1.07091 107 104 93
0.48864 -4.89742 1.07901 105 105 101
0.47642 -4.90889 1.08711 106 110 103
0.46420 -4.92035 1.09520 109 110 99
0.45199 -4.93182 1.10329 106 106 89
0.43978 -4.94328 1.11138 98 100 85
0.34218 -5.03489 1.17606 103 105 97
2.34714 -3.12231 -0.17855 100 100 104
2.32214 -3.14578 -0.16198 142 149 147
2.29715 -3.16925 -0.14541 148 146 146
2.28465 -3.18097 -0.13713 151 160 155
2.27216 -3.19270 -0.12885 147 148 139
2.25967 -3.20443 -0.12057 132 144 142
2.24719 -3.21615 -0.11230 144 147 139
2.23470 -3.22787 -0.10402 145 148 135
2.22222 -3.23958 -0.09575 140 136 131
2.20974 -3.25130 -0.08748 141 140 145
2.19726 -3.26301 -0.07921 145 149 150
2.18479 -3.27473 -0.07094 147 158 154
2.17232 -3.28643 -0.06267 146 150 147
2.15985 -3.29814 -0.05440 141 143 141
2.14738 -3.30985 -0.04614 138 138 140
2.13491 -3.32155 -0.03788 141 140 137
2.12245 -3.33325 -0.02962 145 148 145
2.10999 -3.34495 -0.02136 145 152 149
2.09753 -3.35665 -0.01310 143 147 148
0.92396 -4.45839 0.76479 104 110 103
0.91171 -4.46989 0.77291 106 110 104
0.89946 -4.48139 0.78102 103 107 100
0.88722 -4.49288 0.78914 103 106 99
0.87498 -4.50437 0.79725 103 105 96
0.86274 -4.51586 0.80537 100 106 95
0.85050 -4.52735 0.81348 104 109 102
0.83827 -4.53884 0.82159 111 113 109
0.82603 -4.55032 0.82970 104 107 101
0.81380 -4.56180 0.83780 107 109 101
0.80157 -4.57328 0.84591 106 107 102
0.78935 -4.58476 0.85401 111 110 105
0.77712 -4.59624 0.86212 105 109 104
0.76490 -4.60771 0.87022 107 113 116
0.75268 -4.61918 0.87832 108 126 113
0.74046 -4.63066 0.88642 108 112 91
0.72825 -4.64212 0.89451 103 92 105
0.71603 -4.65359 0.90261 104 106 104
0.70382 -4.66505 0.91070 117 117 110
0.69161 -4.67652 0.91880 114 116 102
0.67941 -4.68798 0.92689 110 118 110
0.66720 -4.69943 0.93498 116 120 121
0.65500 -4.71089 0.94307 111 111 111
0.64280 -4.72234 0.95115 109 116 111
0.63060 -4.73379 0.95924 111 114 106
0.61840 -4.74524 0.96732 105 110 108
0.60621 -4.75669 0.97540 105 109 105
0.59402 -4.76814 0.98349 106 114 103
0.58183 -4.77958 0.99157 108 111 105
0.56964 -4.79102 0.99964 110 114 106
0.55745 -4.80246 1.00772 108 117 111
0.54527 -4.81390 1.01580 111 120 113
0.53309 -4.82534 1.02387 99 99 100
0.52091 -4.83677 1.03194 100 104 100
0.33848 -5.00803 1.15286 100 101 80
2.32330 -3.11416 -0.18857 105 107 96
2.29840 -3.13754 -0.17206 129 143 141
2.28596 -3.14923 -0.16381 145 148 145
2.27351 -3.16092 -0.15556 149 138 142
2.26107 -3.17260 -0.14731 154 153 147
2.24863 -3.18428 -0.13906 150 148 141
2.23619 -3.19596 -0.13081 137 145 142
2.22376 -3.20764 -0.12257 137 137 139
2.21133 -3.21931 -0.11433 134 137 132
2.19889 -3.23098 -0.10608 134 132 128
2.18647 -3.24266 -0.09784 128 134 136
2.17404 -3.25432 -0.08960 132 139 136
2.16161 -3.26599 -0.08137 139 143 137
2.14919 -3.27766 -0.07313 132 137 136
2.13677 -3.28932 -0.06490 134 134 134
2.12436 -3.30098 -0.05666 136 138 141
2.11194 -3.31264 -0.04843 142 148 142
2.09953 -3.32429 -0.04020 148 147 145
2.08712 -3.33595 -0.03197 149 154 142
2.07471 -3.34760 -0.02374 140 146 140
0.93027 -4.42224 0.73504 102 108 101
0.91807 -4.43370 0.74313 101 107 103
0.90587 -4.44516 0.75122 103 109 106
0.89367 -4.45661 0.75931 105 109 106
0.88147 -4.46807 0.76740 106 109 104
0.86927 -4.47952 0.77548 107 108 95
0.85708 -4.49097 0.78357 103 104 85
0.84489 -4.50242 0.79165 95 98 83
0.83270 -4.51386 0.79973 93 96 91
0.82052 -4.52530 0.80781 108 112 110
0.80833 -4.53674 0.81589 110 112 105
0.79615 -4.54818 0.82397 114 114 107
0.78397 -4.55962 0.83204 113 113 111
0.77179 -4.57106 0.84012 114 118 110
0.75962 -4.58249 0.84819 107 110 107
0.74744 -4.59392 0.85626 106 116 110
0.73527 -4.60535 0.86433 93 105 107
0.72310 -4.61678 0.87240 91 89 93
0.71094 -4.62820 0.88047 105 103 99
0.69877 -4.63962 0.88853 110 114 103
0.68661 -4.65104 0.89660 115 120 112
0.67445 -4.66246 0.90466 109 112 104
0.66229 -4.67388 0.91272 109 115 101
0.65013 -4.68530 0.92078 111 113 114
0.63798 -4.69671 0.92884 110 113 110
0.62583 -4.70812 0.93690 113 118 109
0.61368 -4.71953 0.94495 116 115 103
0.60153 -4.73094 0.95301 105 108 101
0.58938 -4.74234 0.96106 102 108 97
0.57724 -4.75374 0.96911 102 109 101
0.56510 -4.76514 0.97716 108 114 103
0.55296 -4.77654 0.98521 111 114 100
0.54082 -4.78794 0.99326 102 108 101
0.52869 -4.79933 1.00130 114 126 114
0.33482 -4.98138 1.12984 109 107 96
2.29965 -3.10608 -0.19851 117 122 112
2.27485 -3.12937 -0.18207 142 149 129
2.26246 -3.14101 -0.17385 138 140 132
2.25006 -3.15265 -0.16563 146 145 139
2.23767 -3.16429 -0.15741 152 145 141
2.22528 -3.17593 -0.14919 144 146 142
2.21290 -3.18756 -0.14098 131 140 144
2.20051 -3.19919 -0.13276 146 144 140
2.18813 -3.21082 -0.12455 138 139 136
2.17575 -3.22245 -0.11634 139 141 140
2.16337 -3.23408 -0.10813 143 149 149
2.15099 -3.24570 -0.09992 140 145 134
2.13862 -3.25732 -0.09171 142 146 135
2.12625 -3.26894 -0.08351 134 142 136
2.11388 -3.28056 -0.07531 147 149 138
2.10151 -3.29218 -0.06710 144 146 141
2.08915 -3.30379 -0.05890 146 150 144
2.07678 -3.31540 -0.05070 151 152 144
2.06442 -3.32701 -0.04251 151 155 143
2.05206 -3.33862 -0.03431 148 157 147
2.03971 -3.35023 -0.02612 143 150 152
0.93654 -4.38636 0.70551 110 115 101
0.92438 -4.39778 0.71358 110 115 104
0.91222 -4.40920 0.72164 107 113 109
0.90007 -4.42061 0.72970 105 111 109
0.88791 -4.43203 0.73776 108 112 108
0.87576 -4.44344 0.74582 110 112 103
0.86361 -4.45485 0.75388 112 115 104
0.85147 -4.46626 0.76193 113 117 102
0.83932 -4.47767 0.76999 108 108 87
0.82718 -4.48907 0.77804 101 102 88
0.81504 -4.50047 0.78609 102 100 95
0.80290 -4.51187 0.79414 109 109 106
0.79077 -4.52327 0.80219 109 112 104
0.77863 -4.53467 0.81024 113 116 110
0.76650 -4.54606 0.81828 116 117 112
0.75437 -4.55745 0.82633 118 120 113
0.74224 -4.56884 0.83437 120 117 110
0.73012 -4.58023 0.84241 106 107 97
0.71800 -4.59162 0.85045 82 86 69
0.70588 -4.60300 0.85849 97 103 96
0.69376 -4.61439 0.86653 107 112 101
0.68164 -4.62577 0.87456 109 115 110
0.66953 -4.63714 0.88260 110 120 117
0.65741 -4.64852 0.89063 100 106 109
0.64530 -4.65989 0.89866 105 112 101
0.63320 -4.67127 0.90669 105 110 106
0.62109 -4.68264 0.91472 107 109 104
0.60899 -4.69401 0.92275 113 115 106
0.59688 -4.70537 0.93077 109 113 101
0.58478 -4.71674 0.93880 110 115 102
0.57269 -4.72810 0.94682 111 113 101
0.56059 -4.73946 0.95484 111 115 105
0.54850 -4.75082 0.96286 114 119 106
0.53641 -4.76217 0.97088 117 119 106
2.27619 -3.09805 -0.20838 126 127 121
2.25149 -3.12125 -0.19199 142 148 135
2.23914 -3.13285 -0.18380 141 145 148
2.22680 -3.14445 -0.17562 144 146 143
2.21446 -3.15604 -0.16743 156 157 150
2.20212 -3.16764 -0.15924 154 160 154
2.18978 -3.17923 -0.15106 146 149 140
2.17744 -3.19081 -0.14288 151 151 140
2.16511 -3.20240 -0.13469 146 144 144
2.15278 -3.21398 -0.12651 143 151 147
2.14045 -3.22557 -0.11834 143 145 146
2.12813 -3.23715 -0.11016 142 132 131
2.11580 -3.24872 -0.10198 148 148 153
2.10348 -3.26030 -0.09381 137 140 149
2.09116 -3.27187 -0.08564 150 154 141
2.07884 -3.28344 -0.07746 144 144 139
2.06653 -3.29501 -0.06929 145 154 150
2.05422 -3.30658 -0.06113 153 156 147
2.04190 -3.31815 -0.05296 152 151 145
2.02960 -3.32971 -0.04479 153 159 145
2.01729 -3.34127 -0.03663 144 145 146
2.00498 -3.35283 -0.02847 144 145 152
0.93064 -4.36212 0.68424 112 117 111
0.91853 -4.37350 0.69228 115 119 106
0.90642 -4.38488 0.70031 112 117 103
0.89431 -4.39625 0.70834 111 111 106
0.88220 -4.40763 0.71637 108 107 104
0.87010 -4.41900 0.72440 111 111 103
0.85799 -4.43037 0.73243 115 114 102
0.84589 -4.44174 0.74046 115 116 107
0.83380 -4.45310 0.74849 118 119 109
0.82170 -4.46447 0.75651 113 114 99
0.80961 -4.47583 0.76453 107 109 100
0.79751 -4.48719 0.77256 111 112 104
0.78542 -4.49855 0.78058 113 114 110
0.77334 -4.50990 0.78859 109 112 109
0.76125 -4.52126 0.79661 113 115 113
0.74917 -4.53261 0.80463 119 121 110
0.73709 -4.54396 0.81264 117 124 111
0.72501 -4.55530 0.82066 115 120 110
0.71293 -4.56665 0.82867 94 92 89
0.70085 -4.57799 0.83668 96 102 78
0.68878 -4.58934 0.84469 108 116 101
0.67671 -4.60068 0.85269 111 117 108
0.66464 -4.61201 0.86070 108 115 112
0.65257 -4.62335 0.86871 112 117 115
0.64051 -4.63468 0.87671 111 113 107
0.62845 -4.64602 0.88471 111 115 103
0.61639 -4.65735 0.89271 106 108 100
0.60433 -4.66867 0.90071 108 108 98
0.59227 -4.68000 0.90871 114 120 115
0.58022 -4.69132 0.91671 104 113 103
0.56817 -4.70265 0.92470 113 120 104
0.55612 -4.71397 0.93269 115 118 111
2.25290 -3.09009 -0.21817 124 121 119
2.22830 -3.11320 -0.20185 145 143 145
2.21600 -3.12476 -0.19369 142 153 146
2.20371 -3.13631 -0.18553 145 149 135
2.19142 -3.14786 -0.17737 157 160 148
2.17913 -3.15941 -0.16922 151 153 138
2.16684 -3.17095 -0.16106 148 145 136
2.15456 -3.18250 -0.15291 140 140 135
2.14227 -3.19404 -0.14476 139 142 147
2.12999 -3.20558 -0.13661 136 145 146
2.11771 -3.21712 -0.12846 140 148 142
2.10544 -3.22866 -0.12032 142 141 131
2.09316 -3.24019 -0.11217 142 142 146
2.08089 -3.25172 -0.10403 142 146 148
2.06862 -3.26325 -0.09589 155 157 143
2.05635 -3.27478 -0.08775 148 152 140
2.04409 -3.28630 -0.07961 141 148 150
2.03182 -3.29783 -0.07147 144 150 147
2.01956 -3.30935 -0.06333 143 150 145
2.00730 -3.32087 -0.05520 145 146 143
1.99504 -3.33239 -0.04706 146 144 143
1.98279 -3.34390 -0.03893 147 151 147
0.92479 -4.33806 0.66312 105 110 107
0.91272 -4.34940 0.67113 110 113 112
0.90066 -4.36074 0.67914 113 113 108
0.88859 -4.37208 0.68714 111 112 102
0.87653 -4.38341 0.69515 109 110 102
0.86447 -4.39474 0.70315 104 104 103
0.85242 -4.40607 0.71115 106 105 103
0.84036 -4.41740 0.71915 109 110 102
0.82831 -4.42872 0.72715 108 112 104
0.81626 -4.44005 0.73514 112 115 106
0.80421 -4.45137 0.74314 109 113 102
0.79216 -4.46269 0.75113 105 110 104
0.78012 -4.47400 0.75912 107 112 106
0.76808 -4.48532 0.76711 107 110 109
0.75604 -4.49663 0.77510 107 112 110
0.74400 -4.50795 0.78309 111 116 115
0.73196 -4.51925 0.79108 111 112 104
0.71993 -4.53056 0.79906 105 111 99
0.70790 -4.54187 0.80705 106 112 100
0.69587 -4.55317 0.81503 101 91 76
0.68384 -4.56447 0.82301 109 116 101
0.67182 -4.57577 0.83099 113 120 103
0.65979 -4.58707 0.83897 112 120 107
0.64777 -4.59837 0.84694 107 112 110
0.63575 -4.60966 0.85492 114 119 112
0.62374 -4.62095 0.86289 118 120 109
0.61172 -4.63224 0.87087 117 121 116
0.59971 -4.64353 0.87884 116 120 102
0.58770 -4.65482 0.88681 110 113 99
0.57569 -4.66610 0.89478 112 118 108
0.56368 -4.67738 0.90274 108 113 97
0.55168 -4.68866 0.91071 109 115 103
0.53968 -4.69994 0.91867 108 116 107
2.22979 -3.08219 -0.22788 130 128 121
2.21754 -3.09370 -0.21975 142 145 136
2.20529 -3.10522 -0.21162 158 155 145
2.19305 -3.11673 -0.20349 139 143 145
2.18080 -3.12823 -0.19537 135 131 122
2.16856 -3.13974 -0.18724 142 151 142
2.15632 -3.15125 -0.17911 131 134 136
2.14408 -3.16275 -0.17099 138 143 140
2.13184 -3.17425 -0.16287 139 141 135
2.11961 -3.18575 -0.15475 141 138 141
2.10738 -3.19724 -0.14663 133 136 139
2.09515 -3.20874 -0.13851 141 143 141
2.08292 -3.22023 -0.13040 147 145 138
2.07070 -3.23172 -0.12228 140 145 148
2.05847 -3.24321 -0.11417 142 149 147
2.04625 -3.25470 -0.10606 147 152 141
2.03403 -3.26618 -0.09795 146 151 146
2.02182 -3.27766 -0.08984 138 146 148
2.00960 -3.28914 -0.08173 138 147 144
1.99739 -3.30062 -0.07362 138 149 142
1.98518 -3.31210 -0.06552 145 148 136
1.97297 -3.32357 -0.05742 151 152 138
1.96076 -3.33504 -0.04931 147 149 145
0.94303 -4.29158 0.62620 109 112 104
0.93101 -4.30288 0.63418 107 108 104
0.91898 -4.31419 0.64217 104 110 107
0.90696 -4.32548 0.65014 106 112 104
0.89494 -4.33678 0.65812 107 110 100
0.88292 -4.34808 0.66610 112 111 105
0.87091 -4.35937 0.67408 113 111 106
0.85889 -4.37066 0.68205 110 112 104
0.84688 -4.38195 0.69002 108 112 105
0.83487 -4.39324 0.69799 110 112 106
0.82287 -4.40452 0.70596 108 107 104
0.81086 -4.41581 0.71393 105 106 104
0.79886 -4.42709 0.72190 111 113 107
0.78686 -4.43837 0.72986 111 114 106
0.77486 -4.44965 0.73783 108 113 106
0.76286 -4.46092 0.74579 105 112 108
0.75087 -4.47219 0.75375 101 109 108
0.73887 -4.48347 0.76171 107 116 109
0.72688 -4.49474 0.76967 113 116 111
0.71489 -4.50600 0.77763 109 109 100
0.70291 -4.51727 0.78559 106 105 100
0.69092 -4.52853 0.79354 107 110 108
0.67894 -4.53980 0.80149 112 112 99
0.66696 -4.55106 0.80945 118 128 118
0.65498 -4.56231 0.81740 114 121 105
0.64301 -4.57357 0.82535 114 120 108
0.63103 -4.58482 0.83329 119 120 112
0.61906 -4.59608 0.84124 115 115 102
0.60709 -4.60733 0.84918 114 110 97
0.59512 -4.61857 0.85713 112 118 112
0.58316 -4.62982 0.86507 107 114 101
0.57119 -4.64107 0.87301 107 106 101
0.55923 -4.65231 0.88095 108 108 98
0.54727 -4.66355 0.88889 109 106 90
0.53531 -4.67479 0.89683 98 102 98
2.20686 -3.07435 -0.23752 136 131 125
2.19466 -3.08582 -0.22942 144 147 135
2.18246 -3.09729 -0.22132 147 148 142
2.17026 -3.10876 -0.21322 139 143 146
2.15807 -3.12022 -0.20513 139 137 137
2.14587 -3.13168 -0.19703 149 154 155
2.13368 -3.14315 -0.18894 139 142 139
2.12149 -3.15460 -0.18084 135 138 117
2.10930 -3.16606 -0.17275 137 137 129
2.09712 -3.17752 -0.16466 145 143 144
2.08494 -3.18897 -0.15657 140 139 138
2.07276 -3.20042 -0.14849 143 139 142
2.06058 -3.21187 -0.14040 150 146 143
2.04840 -3.22332 -0.13232 145 146 149
2.03623 -3.23476 -0.12423 141 145 143
2.02405 -3.24621 -0.11615 129 140 131
