ply
format ascii 1.0
element face 0
property list uchar int vertex_indices
element vertex 1335
property float x
property float y
property float z
property uchar diffuse_red
property uchar diffuse_green
property uchar diffuse_blue
end_header
-1.06464 -0.01549 -1.16809 21 25 35
-1.05753 -0.01912 -1.15637 22 25 35
-1.05049 -0.02271 -1.14475 27 23 35
-1.04350 -0.02628 -1.13322 26 21 31
-1.03657 -0.02981 -1.12179 32 30 44
-1.02970 -0.03332 -1.11045 42 41 46
-1.02288 -0.03680 -1.09920 47 48 50
-1.01612 -0.04025 -1.08805 51 49 56
-1.00942 -0.04367 -1.07698 43 45 47
-1.00277 -0.04707 -1.06601 35 40 45
-0.99617 -0.05044 -1.05512 42 46 48
-0.98962 -0.05378 -1.04432 49 50 56
-0.98313 -0.05709 -1.03361 54 56 58
-0.97669 -0.06038 -1.02298 54 55 60
-0.97030 -0.06364 -1.01244 50 52 55
-0.96396 -0.06688 -1.00198 46 49 53
-0.95767 -0.07009 -0.99160 44 47 56
-0.95143 -0.07328 -0.98130 47 48 56
-0.94523 -0.07644 -0.97108 49 52 59
-0.93909 -0.07957 -0.96094 56 54 63
-0.92094 -0.08884 -0.93100 80 79 83
-0.91498 -0.09188 -0.92116 83 81 88
-0.90906 -0.09490 -0.91141 85 81 85
-0.90320 -0.09789 -0.90173 81 82 83
-0.89737 -0.10086 -0.89212 76 74 80
-0.89159 -0.10382 -0.88258 68 66 75
-0.88586 -0.10674 -0.87312 57 58 63
-0.88016 -0.10965 -0.86372 54 56 61
-0.87451 -0.11253 -0.85440 51 57 64
-0.86890 -0.11540 -0.84514 53 57 59
-0.86333 -0.11824 -0.83595 57 57 64
-0.85781 -0.12106 -0.82683 67 63 76
-1.47234 0.18138 -1.83023 56 59 79
-1.46148 0.17589 -1.81237 54 58 79
-1.45074 0.17047 -1.79470 55 58 79
-1.44010 0.16509 -1.77720 53 58 85
-1.42957 0.15978 -1.75988 53 58 82
-1.41915 0.15451 -1.74274 55 59 79
-1.40883 0.14930 -1.72577 59 59 78
-1.39862 0.14414 -1.70897 60 58 80
-1.38850 0.13903 -1.69233 56 58 81
-1.37849 0.13397 -1.67586 52 57 78
-1.36857 0.12897 -1.65955 46 54 71
-1.32987 0.10942 -1.59588 51 55 71
-1.32042 0.10465 -1.58034 54 54 72
-1.31107 0.09992 -1.56496 52 54 75
-1.30180 0.09524 -1.54971 51 53 77
-1.29263 0.09060 -1.53462 51 52 77
-1.28353 0.08601 -1.51966 51 51 77
-1.27453 0.08146 -1.50485 50 50 77
-1.26561 0.07696 -1.49017 48 47 76
-1.25677 0.07249 -1.47563 45 44 73
-1.24801 0.06807 -1.46122 43 42 70
-1.23933 0.06368 -1.44695 38 39 67
-1.23073 0.05934 -1.43281 35 39 64
-1.22221 0.05504 -1.41879 35 37 54
-1.21377 0.05077 -1.40490 29 28 41
-1.20540 0.04655 -1.39114 23 20 33
-1.19711 0.04236 -1.37750 20 20 34
-1.18890 0.03821 -1.36399 21 20 35
-1.18075 0.03410 -1.35059 20 18 32
-1.17268 0.03002 -1.33732 18 17 29
-1.16468 0.02598 -1.32416 16 17 30
-1.15675 0.02197 -1.31111 16 16 33
-1.14889 0.01800 -1.29818 19 14 30
-1.14110 0.01407 -1.28536 18 16 34
-1.13337 0.01017 -1.27266 20 18 40
-1.12572 0.00630 -1.26006 25 22 40
-1.11812 0.00246 -1.24757 28 26 36
-1.11060 -0.00134 -1.23519 27 26 34
-1.10313 -0.00511 -1.22292 25 26 34
-1.09574 -0.00885 -1.21075 23 24 34
-1.08840 -0.01255 -1.19868 22 23 36
-1.08112 -0.01623 -1.18671 24 23 37
-1.07391 -0.01987 -1.17484 23 21 37
-1.06676 -0.02348 -1.16308 22 22 37
-1.05966 -0.02707 -1.15141 21 22 33
-1.05263 -0.03062 -1.13983 25 22 31
-1.04565 -0.03414 -1.12836 27 22 30
-1.03873 -0.03764 -1.11697 34 31 45
-1.03186 -0.04111 -1.10568 41 42 49
-1.02506 -0.04454 -1.09448 46 47 54
-1.01830 -0.04796 -1.08338 48 48 57
-1.01161 -0.05134 -1.07236 40 43 46
-1.00496 -0.05469 -1.06143 38 40 46
-0.99837 -0.05802 -1.05059 44 46 52
-0.99183 -0.06133 -1.03983 52 53 58
-0.98535 -0.06460 -1.02916 55 58 59
-0.97891 -0.06785 -1.01858 53 56 56
-0.97253 -0.07108 -1.00808 47 50 53
-0.96619 -0.07428 -0.99766 46 46 50
-0.95991 -0.07745 -0.98732 45 47 54
-0.95368 -0.08060 -0.97707 48 49 55
-0.94749 -0.08372 -0.96689 52 53 57
-0.92921 -0.09296 -0.93683 75 78 77
-0.92321 -0.09599 -0.92696 80 81 81
-0.91726 -0.09899 -0.91717 82 81 82
-0.91135 -0.10198 -0.90745 83 79 85
-0.90549 -0.10494 -0.89780 79 78 81
-0.89967 -0.10788 -0.88823 73 72 77
-0.89390 -0.11079 -0.87873 67 63 74
-0.88816 -0.11369 -0.86930 58 57 62
-0.88247 -0.11656 -0.85994 54 54 56
-0.87683 -0.11942 -0.85065 51 55 59
-0.87122 -0.12225 -0.84143 53 57 56
-0.86566 -0.12506 -0.83228 56 58 56
-0.86013 -0.12785 -0.82320 64 63 70
-1.47367 0.17090 -1.82196 57 61 80
-1.46284 0.16548 -1.80420 57 59 80
-1.45212 0.16013 -1.78662 55 60 81
-1.44151 0.15482 -1.76922 54 60 83
-1.43101 0.14957 -1.75200 56 61 78
-1.42061 0.14438 -1.73494 56 60 76
-1.41032 0.13923 -1.71806 57 59 75
-1.40013 0.13414 -1.70135 56 57 78
-1.39003 0.12909 -1.68480 53 56 80
-1.38004 0.12410 -1.66842 52 57 82
-1.37015 0.11916 -1.65219 51 57 79
-1.36035 0.11426 -1.63612 48 55 75
-1.35065 0.10941 -1.62021 48 54 78
-1.34104 0.10461 -1.60446 51 54 78
-1.33153 0.09985 -1.58885 53 54 75
-1.32210 0.09514 -1.57339 53 55 75
-1.31277 0.09047 -1.55809 53 56 75
-1.30352 0.08585 -1.54292 53 55 74
-1.29436 0.08127 -1.52790 52 54 77
-1.28529 0.07674 -1.51302 52 53 80
-1.27630 0.07225 -1.49828 53 53 79
-1.26739 0.06780 -1.48367 52 51 79
-1.25857 0.06339 -1.46920 50 49 78
-1.24983 0.05902 -1.45487 49 47 75
-1.24117 0.05469 -1.44066 45 44 69
-1.23259 0.05040 -1.42659 38 41 63
-1.22408 0.04615 -1.41264 32 35 53
-1.21565 0.04193 -1.39882 26 26 38
-1.20730 0.03776 -1.38512 20 19 28
-1.19903 0.03362 -1.37155 18 21 32
-1.19082 0.02952 -1.35810 20 22 34
-1.18269 0.02546 -1.34476 20 21 29
-1.17463 0.02143 -1.33155 18 18 27
-1.16665 0.01744 -1.31845 17 17 30
-1.15873 0.01348 -1.30546 17 16 31
-1.15088 0.00956 -1.29259 19 13 30
-1.14310 0.00567 -1.27983 18 15 33
-1.13539 0.00182 -1.26719 20 18 40
-1.12774 -0.00201 -1.25465 24 21 40
-1.12016 -0.00579 -1.24221 25 23 38
-1.11265 -0.00955 -1.22989 25 24 32
-1.10519 -0.01328 -1.21767 24 25 37
-1.09781 -0.01697 -1.20555 22 24 36
-1.09048 -0.02063 -1.19353 21 24 39
-1.08321 -0.02426 -1.18162 24 23 38
-1.07601 -0.02786 -1.16981 23 20 35
-1.06887 -0.03143 -1.15809 20 20 33
-1.06178 -0.03498 -1.14647 19 20 33
-1.05475 -0.03849 -1.13495 21 21 36
-1.04778 -0.04197 -1.12352 25 23 36
-1.04087 -0.04542 -1.11218 35 33 46
-1.03402 -0.04885 -1.10094 42 43 53
-1.02722 -0.05225 -1.08979 45 47 55
-1.02047 -0.05562 -1.07873 43 46 48
-1.01378 -0.05896 -1.06776 35 39 39
-1.00715 -0.06228 -1.05687 39 41 49
-1.00056 -0.06557 -1.04608 47 47 54
-0.99403 -0.06884 -1.03537 55 57 58
-0.98755 -0.07208 -1.02474 56 59 62
-0.98113 -0.07529 -1.01420 52 53 59
-0.97475 -0.07848 -1.00374 46 47 54
-0.96842 -0.08164 -0.99336 46 46 50
-0.96214 -0.08478 -0.98307 46 49 53
-0.95591 -0.08789 -0.97285 50 51 54
-0.94973 -0.09098 -0.96271 56 55 57
-0.93147 -0.10010 -0.93277 78 79 81
-0.92548 -0.10310 -0.92294 79 80 80
-0.91953 -0.10607 -0.91319 82 79 78
-0.91363 -0.10902 -0.90351 79 77 84
-0.90777 -0.11195 -0.89390 75 72 79
-0.90196 -0.11486 -0.88436 70 68 75
-0.89619 -0.11774 -0.87490 64 61 73
-0.89046 -0.12061 -0.86551 57 56 62
-0.88477 -0.12345 -0.85618 54 54 57
-0.87913 -0.12627 -0.84693 52 56 57
-0.87353 -0.12907 -0.83774 54 57 55
-0.86797 -0.13185 -0.82862 56 57 54
-0.86245 -0.13460 -0.81957 63 61 65
-1.47499 0.16048 -1.81374 58 62 83
-1.46419 0.15514 -1.79608 60 60 81
-1.45350 0.14985 -1.77859 60 60 81
-1.44291 0.14462 -1.76129 58 60 83
-1.43243 0.13943 -1.74416 59 61 79
-1.42206 0.13430 -1.72720 55 59 76
-1.41179 0.12922 -1.71041 56 58 77
-1.40162 0.12420 -1.69378 56 57 78
-1.39156 0.11922 -1.67732 55 56 78
-1.38159 0.11429 -1.66102 55 58 82
-1.37172 0.10940 -1.64488 53 58 84
-1.36194 0.10457 -1.62890 50 54 83
-1.35226 0.09978 -1.61307 49 52 82
-1.34267 0.09504 -1.59739 51 52 78
-1.33318 0.09034 -1.58187 54 53 77
-1.32377 0.08569 -1.56649 53 57 78
-1.31446 0.08108 -1.55126 53 57 77
-1.30523 0.07652 -1.53617 55 56 75
-1.29609 0.07200 -1.52122 55 54 78
-1.28703 0.06752 -1.50641 54 53 79
-1.27806 0.06308 -1.49174 54 52 78
-1.26917 0.05869 -1.47721 53 51 80
-1.26037 0.05433 -1.46281 51 50 80
-1.25164 0.05002 -1.44855 49 49 76
-1.24300 0.04574 -1.43441 47 48 69
-1.23443 0.04150 -1.42040 42 44 61
-1.22594 0.03730 -1.40652 33 36 52
-1.21753 0.03314 -1.39277 24 24 41
-1.20919 0.02902 -1.37914 19 18 31
-1.20093 0.02493 -1.36563 17 19 31
-1.19274 0.02088 -1.35224 18 22 34
-1.18462 0.01687 -1.33897 19 22 32
-1.17658 0.01289 -1.32581 19 19 32
-1.16860 0.00895 -1.31277 18 16 31
-1.16070 0.00504 -1.29985 17 15 32
-1.15286 0.00116 -1.28704 16 15 34
-1.14509 -0.00268 -1.27433 16 17 36
-1.13739 -0.00649 -1.26174 20 20 39
-1.12976 -0.01027 -1.24926 22 22 37
-1.12219 -0.01401 -1.23688 24 22 35
-1.11468 -0.01772 -1.22461 24 20 32
-1.10724 -0.02140 -1.21245 24 21 39
-1.09986 -0.02505 -1.20038 22 22 33
-1.09255 -0.02867 -1.18842 23 22 37
-1.08529 -0.03226 -1.17656 26 22 38
-1.07810 -0.03582 -1.16479 22 22 32
-1.07096 -0.03934 -1.15313 18 21 29
-1.06389 -0.04284 -1.14156 19 21 33
-1.05687 -0.04632 -1.13008 21 20 34
-1.04991 -0.04976 -1.11870 27 25 34
-1.04301 -0.05317 -1.10742 38 37 45
-1.03616 -0.05656 -1.09622 44 45 53
-1.02937 -0.05992 -1.08512 45 48 53
-1.02263 -0.06325 -1.07410 42 47 42
-1.01595 -0.06655 -1.06318 34 38 36
-1.00932 -0.06983 -1.05234 40 42 51
-1.00275 -0.07308 -1.04159 51 48 59
-0.99622 -0.07631 -1.03092 58 59 64
-0.98975 -0.07951 -1.02034 55 58 68
-0.98333 -0.08269 -1.00984 51 50 61
-0.97696 -0.08584 -0.99942 47 46 56
-0.97064 -0.08896 -0.98909 47 47 53
-0.96437 -0.09207 -0.97883 47 52 57
-0.95814 -0.09514 -0.96866 53 54 58
-0.93976 -0.10424 -0.93860 77 78 80
-0.93373 -0.10722 -0.92873 81 79 84
-0.92774 -0.11018 -0.91894 79 78 80
-0.92180 -0.11312 -0.90923 80 78 79
-0.91590 -0.11604 -0.89958 77 76 79
-0.91004 -0.11893 -0.89001 73 71 74
-0.90424 -0.12181 -0.88051 67 67 71
-0.89847 -0.12466 -0.87109 61 60 68
-0.89275 -0.12749 -0.86173 56 57 60
-0.88707 -0.13030 -0.85244 54 56 62
-0.88143 -0.13309 -0.84322 51 57 61
-0.87583 -0.13586 -0.83407 53 55 58
-0.87027 -0.13860 -0.82498 55 56 56
-0.86476 -0.14133 -0.81597 62 58 60
-1.47630 0.15013 -1.80557 57 60 80
-1.46553 0.14486 -1.78800 57 59 79
-1.45486 0.13964 -1.77062 57 59 77
-1.44430 0.13447 -1.75340 58 59 80
-1.43385 0.12936 -1.73637 58 59 79
-1.42350 0.12429 -1.71950 53 58 77
-1.41326 0.11928 -1.70279 56 59 79
-1.40311 0.11431 -1.68626 57 59 81
-1.39307 0.10940 -1.66988 57 57 78
-1.38312 0.10453 -1.65367 55 57 76
-1.37327 0.09971 -1.63761 51 56 78
-1.36352 0.09494 -1.62171 48 54 81
-1.35386 0.09021 -1.60596 48 53 79
-1.34429 0.08553 -1.59037 50 53 77
-1.33482 0.08089 -1.57492 53 53 78
-1.32543 0.07630 -1.55962 52 55 79
-1.31614 0.07175 -1.54446 50 55 79
-1.30693 0.06724 -1.52945 51 53 78
-1.29780 0.06278 -1.51458 52 52 77
-1.28877 0.05835 -1.49985 52 50 75
-1.27981 0.05397 -1.48525 51 50 75
-1.27094 0.04963 -1.47079 49 49 77
-1.26215 0.04533 -1.45646 49 50 75
-1.25344 0.04107 -1.44226 47 51 73
-1.24481 0.03684 -1.42819 45 51 72
-1.23626 0.03266 -1.41425 42 45 63
-1.22779 0.02851 -1.40044 34 35 51
-1.21939 0.02440 -1.38675 25 23 41
-1.21107 0.02033 -1.37318 18 18 32
-1.20282 0.01629 -1.35974 15 17 30
-1.19464 0.01229 -1.34641 17 20 36
-1.18654 0.00832 -1.33320 21 22 41
-1.17851 0.00439 -1.32011 24 20 41
-1.17055 0.00050 -1.30713 21 16 34
-1.16265 -0.00336 -1.29426 17 15 34
-1.15483 -0.00719 -1.28151 14 16 35
-1.14708 -0.01099 -1.26886 16 18 39
-1.13939 -0.01475 -1.25633 19 22 41
-1.13176 -0.01848 -1.24390 23 24 38
-1.12420 -0.02218 -1.23158 26 23 38
-1.11671 -0.02585 -1.21936 25 20 38
-1.10928 -0.02949 -1.20725 24 20 39
-1.10191 -0.03309 -1.19524 22 20 31
-1.09461 -0.03667 -1.18333 23 21 34
-1.08736 -0.04021 -1.17152 25 22 35
-1.08018 -0.04373 -1.15981 21 22 32
-1.07305 -0.04722 -1.14819 18 22 28
-1.06598 -0.05067 -1.13667 19 21 32
-1.05898 -0.05410 -1.12525 22 21 32
-1.05203 -0.05751 -1.11391 31 28 36
-1.04513 -0.06088 -1.10267 40 41 49
-1.03829 -0.06423 -1.09153 47 46 55
-1.03151 -0.06755 -1.08047 48 47 50
-1.02478 -0.07084 -1.06950 41 46 41
-1.01811 -0.07410 -1.05862 34 40 36
-1.01148 -0.07735 -1.04783 42 45 49
-1.00492 -0.08056 -1.03712 57 53 58
-0.99840 -0.08375 -1.02649 59 59 68
-0.99193 -0.08691 -1.01595 52 55 72
-0.98552 -0.09005 -1.00550 47 47 61
-0.97916 -0.09317 -0.99512 46 45 55
-0.97284 -0.09626 -0.98483 49 47 56
-0.96658 -0.09932 -0.97462 50 53 61
-0.94807 -0.10838 -0.94445 73 73 78
-0.94200 -0.11135 -0.93454 79 78 82
-0.93597 -0.11430 -0.92472 80 79 82
-0.92998 -0.11723 -0.91496 79 78 78
-0.92405 -0.12014 -0.90528 79 77 78
-0.91815 -0.12302 -0.89568 74 74 76
-0.91231 -0.12588 -0.88614 70 71 72
-0.90650 -0.12872 -0.87668 65 66 68
-0.90074 -0.13154 -0.86729 58 59 62
-0.89502 -0.13434 -0.85797 56 57 57
-0.88935 -0.13712 -0.84871 54 54 61
-0.88371 -0.13988 -0.83953 51 54 62
-0.87812 -0.14261 -0.83041 50 53 58
-0.87257 -0.14533 -0.82136 54 53 58
-0.86705 -0.14803 -0.81238 61 56 62
-1.47761 0.13985 -1.79745 56 56 79
-1.46686 0.13464 -1.77998 55 56 78
-1.45622 0.12949 -1.76269 55 57 76
-1.44569 0.12439 -1.74557 57 57 79
-1.43526 0.11934 -1.72862 58 57 81
-1.42494 0.11434 -1.71184 56 58 80
-1.41472 0.10939 -1.69523 57 59 82
-1.40459 0.10449 -1.67878 56 59 82
-1.39457 0.09964 -1.66249 53 57 77
-1.38465 0.09483 -1.64636 49 53 67
-1.37482 0.09007 -1.63039 48 52 66
-1.36509 0.08536 -1.61457 47 52 71
-1.35545 0.08069 -1.59890 46 53 75
-1.34590 0.07607 -1.58339 49 53 77
-1.33645 0.07149 -1.56802 51 52 77
-1.32708 0.06696 -1.55279 50 53 80
-1.31780 0.06246 -1.53771 49 53 80
-1.30861 0.05801 -1.52278 49 51 79
-1.29951 0.05361 -1.50798 48 49 78
-1.29049 0.04924 -1.49332 50 49 77
-1.28155 0.04491 -1.47879 50 50 77
-1.27270 0.04062 -1.46440 48 50 76
-1.26393 0.03637 -1.45014 47 50 74
-1.25523 0.03217 -1.43601 48 50 74
-1.24662 0.02799 -1.42201 48 48 76
-1.23808 0.02386 -1.40814 42 42 68
-1.22962 0.01976 -1.39439 34 32 51
-1.22124 0.01571 -1.38076 27 22 42
-1.21293 0.01168 -1.36726 20 18 35
-1.20470 0.00770 -1.35388 17 18 33
-1.19654 0.00374 -1.34061 20 19 38
-1.18845 -0.00017 -1.32746 25 21 46
-1.18043 -0.00406 -1.31443 30 22 48
-1.17248 -0.00791 -1.30151 24 16 40
-1.16460 -0.01172 -1.28870 18 15 39
-1.15679 -0.01550 -1.27601 16 16 38
-1.14905 -0.01925 -1.26342 16 17 38
-1.14137 -0.02297 -1.25094 18 21 44
-1.13376 -0.02666 -1.23857 23 24 39
-1.12621 -0.03031 -1.22631 26 24 37
-1.11873 -0.03393 -1.21414 25 22 39
-1.11131 -0.03753 -1.20208 25 22 42
-1.10395 -0.04109 -1.19012 23 21 35
-1.09665 -0.04462 -1.17827 22 21 36
-1.08942 -0.04813 -1.16651 25 22 37
-1.08224 -0.05160 -1.15484 21 22 39
-1.07513 -0.05505 -1.14328 18 21 33
-1.06807 -0.05846 -1.13181 20 21 34
-1.06107 -0.06185 -1.12043 24 23 36
-1.05413 -0.06521 -1.10915 34 32 44
-1.04724 -0.06855 -1.09796 42 43 55
-1.04041 -0.07186 -1.08686 48 46 59
-1.03364 -0.07514 -1.07584 49 45 50
-1.02692 -0.07839 -1.06492 40 41 42
-1.02025 -0.08162 -1.05408 35 40 38
-1.01364 -0.08482 -1.04333 46 49 53
-1.00708 -0.08800 -1.03267 63 61 60
-1.00057 -0.09115 -1.02209 60 58 66
-0.99411 -0.09428 -1.01159 49 52 68
-0.98770 -0.09738 -1.00118 44 45 60
-0.98134 -0.10046 -0.99085 46 45 57
-0.97504 -0.10351 -0.98059 51 49 59
-0.96878 -0.10654 -0.97042 53 54 64
-0.95640 -0.11254 -0.95031 68 67 73
-0.95029 -0.11550 -0.94037 76 76 79
-0.94422 -0.11844 -0.93051 79 78 84
-0.93820 -0.12135 -0.92072 78 78 79
-0.93222 -0.12425 -0.91100 78 77 77
-0.92629 -0.12712 -0.90136 78 75 77
-0.92040 -0.12997 -0.89179 71 70 74
-0.91456 -0.13280 -0.88229 65 67 72
-0.90876 -0.13561 -0.87287 61 62 69
-0.90300 -0.13840 -0.86351 56 58 61
-0.89729 -0.14116 -0.85422 55 56 55
-0.89162 -0.14391 -0.84500 54 53 58
-0.88599 -0.14663 -0.83585 51 53 57
-0.88040 -0.14934 -0.82677 49 53 53
-0.87485 -0.15203 -0.81775 51 52 58
-0.86934 -0.15469 -0.80880 58 54 66
-1.47891 0.12962 -1.78939 55 55 77
-1.46818 0.12449 -1.77201 55 57 79
-1.45757 0.11940 -1.75481 56 59 78
-1.44706 0.11437 -1.73778 56 57 80
-1.43666 0.10938 -1.72092 55 56 82
-1.42636 0.10445 -1.70423 54 57 81
-1.41616 0.09956 -1.68771 54 58 81
-1.40607 0.09473 -1.67135 53 57 80
-1.39607 0.08994 -1.65514 52 56 80
-1.38617 0.08519 -1.63910 46 51 74
-1.37636 0.08049 -1.62321 46 50 69
-1.36665 0.07584 -1.60747 47 52 75
-1.35703 0.07123 -1.59188 47 54 79
-1.34750 0.06667 -1.57644 50 52 76
-1.33807 0.06215 -1.56115 50 52 76
-1.32872 0.05767 -1.54601 49 53 78
-1.31946 0.05323 -1.53100 50 53 79
-1.31029 0.04884 -1.51614 50 51 78
-1.30121 0.04449 -1.50141 49 48 79
-1.29220 0.04017 -1.48682 49 48 81
-1.28328 0.03590 -1.47237 49 49 79
-1.27445 0.03167 -1.45805 46 49 75
-1.26569 0.02747 -1.44386 45 48 70
-1.25701 0.02331 -1.42980 44 45 67
-1.24842 0.01920 -1.41586 43 40 68
-1.23990 0.01511 -1.40206 38 36 61
-1.23145 0.01107 -1.38837 31 29 49
-1.22308 0.00706 -1.37481 27 24 43
-1.21479 0.00309 -1.36137 24 22 39
-1.20657 -0.00085 -1.34805 23 22 37
-1.19842 -0.00476 -1.33485 23 23 40
-1.19035 -0.00863 -1.32176 26 22 45
-1.18234 -0.01246 -1.30879 31 24 47
-1.17441 -0.01626 -1.29593 25 21 45
-1.16654 -0.02003 -1.28318 17 15 41
-1.15874 -0.02377 -1.27054 16 14 38
-1.15101 -0.02747 -1.25801 16 15 34
-1.14334 -0.03115 -1.24559 18 20 42
-1.13574 -0.03479 -1.23327 22 24 41
-1.12821 -0.03840 -1.22106 25 25 36
-1.12073 -0.04198 -1.20895 26 23 36
-1.11332 -0.04553 -1.19694 25 22 42
-1.10598 -0.04905 -1.18504 23 21 36
-1.09869 -0.05254 -1.17323 23 21 35
-1.09147 -0.05600 -1.16152 25 21 39
-1.08430 -0.05943 -1.14991 22 20 43
-1.07719 -0.06284 -1.13839 21 18 38
-1.07015 -0.06621 -1.12697 23 19 36
-1.06316 -0.06956 -1.11564 29 24 37
-1.05622 -0.07289 -1.10441 38 37 44
-1.04935 -0.07618 -1.09326 45 45 56
-1.04252 -0.07945 -1.08221 49 45 61
-1.03576 -0.08269 -1.07124 45 44 51
-1.02905 -0.08591 -1.06036 36 38 46
-1.02239 -0.08910 -1.04957 38 39 45
-1.01578 -0.09226 -1.03887 49 49 58
-1.00923 -0.09540 -1.02825 63 60 68
-1.00272 -0.09852 -1.01771 57 55 62
-0.99627 -0.10161 -1.00725 48 49 61
-0.98987 -0.10467 -0.99688 43 46 55
-0.98352 -0.10772 -0.98659 47 47 57
-0.97722 -0.11074 -0.97638 53 52 60
-0.97097 -0.11373 -0.96625 56 55 66
-0.95861 -0.11965 -0.94621 70 71 77
-0.95250 -0.12258 -0.93631 76 77 80
-0.94643 -0.12549 -0.92649 78 76 85
-0.94042 -0.12837 -0.91674 77 76 81
-0.93445 -0.13123 -0.90706 78 76 82
-0.92852 -0.13407 -0.89745 74 73 76
-0.92264 -0.13689 -0.88792 68 68 72
-0.91680 -0.13969 -0.87846 62 65 68
-0.91100 -0.14246 -0.86907 57 59 66
-0.90525 -0.14522 -0.85975 54 55 60
-0.89954 -0.14795 -0.85050 53 53 56
-0.89388 -0.15067 -0.84131 54 51 56
-0.88825 -0.15336 -0.83220 51 53 55
-0.88266 -0.15604 -0.82315 50 52 52
-0.87712 -0.15869 -0.81416 51 51 60
-0.87162 -0.16133 -0.80524 56 56 65
-1.48019 0.11947 -1.78137 55 59 76
-1.46950 0.11440 -1.76409 55 60 78
-1.45891 0.10938 -1.74698 55 60 79
-1.44843 0.10441 -1.73004 54 57 79
-1.43805 0.09949 -1.71328 52 55 78
-1.42778 0.09462 -1.69667 52 56 82
-1.41760 0.08980 -1.68023 51 58 81
-1.40753 0.08502 -1.66396 52 58 78
-1.39755 0.08029 -1.64784 55 57 80
-1.38767 0.07561 -1.63187 48 53 76
-1.37789 0.07097 -1.61607 44 49 69
-1.36820 0.06638 -1.60041 47 51 78
-1.35860 0.06183 -1.58490 51 53 80
-1.34910 0.05732 -1.56954 53 53 74
-1.33968 0.05286 -1.55433 51 53 74
-1.33035 0.04844 -1.53926 52 54 77
-1.32111 0.04406 -1.52433 52 54 78
-1.31196 0.03972 -1.50954 53 53 80
-1.30289 0.03542 -1.49488 51 50 80
-1.29391 0.03116 -1.48037 48 48 81
-1.28501 0.02694 -1.46598 44 46 78
-1.27619 0.02276 -1.45173 42 44 68
-1.26745 0.01862 -1.43761 41 41 62
-1.25879 0.01451 -1.42362 42 38 59
-1.25020 0.01045 -1.40975 41 36 58
-1.24170 0.00641 -1.39601 34 34 54
-1.23327 0.00242 -1.38239 27 27 48
-1.22492 -0.00154 -1.36889 27 26 44
-1.21664 -0.00547 -1.35552 29 27 42
-1.20843 -0.00936 -1.34226 27 27 40
-1.20030 -0.01321 -1.32911 22 25 40
-1.19223 -0.01703 -1.31609 22 22 43
-1.18424 -0.02082 -1.30317 28 26 46
-1.17632 -0.02458 -1.29037 29 28 47
-1.16846 -0.02830 -1.27768 23 19 44
-1.16068 -0.03199 -1.26510 18 14 37
-1.15296 -0.03565 -1.25262 16 14 33
-1.14530 -0.03928 -1.24026 16 17 41
-1.13772 -0.04288 -1.22800 21 21 45
-1.13019 -0.04644 -1.21584 26 24 43
-1.12273 -0.04998 -1.20378 26 23 39
-1.11533 -0.05349 -1.19183 23 23 39
-1.10799 -0.05696 -1.17997 23 23 34
-1.10072 -0.06041 -1.16822 23 22 35
-1.09350 -0.06383 -1.15656 24 20 35
-1.08635 -0.06723 -1.14500 22 18 38
-1.07925 -0.07059 -1.13353 23 17 38
-1.07221 -0.07393 -1.12216 25 16 37
-1.06523 -0.07724 -1.11088 33 24 40
-1.05831 -0.08052 -1.09969 42 41 45
-1.05144 -0.08377 -1.08859 48 47 55
-1.04462 -0.08700 -1.07758 50 43 56
-1.03787 -0.09021 -1.06666 43 42 48
-1.03116 -0.09339 -1.05583 33 37 45
-1.02451 -0.09654 -1.04508 41 42 45
-1.01791 -0.09967 -1.03442 54 52 56
-1.01137 -0.10277 -1.02384 58 59 67
-1.00487 -0.10585 -1.01335 53 53 61
-0.99843 -0.10890 -1.00294 48 47 55
-0.99203 -0.11193 -0.99260 45 46 49
-0.98569 -0.11494 -0.98235 48 51 54
-0.97940 -0.11792 -0.97218 54 53 61
-0.97315 -0.12089 -0.96209 59 57 68
-0.96695 -0.12382 -0.95208 64 66 74
-0.96080 -0.12674 -0.94214 73 72 80
-0.95470 -0.12963 -0.93228 76 74 80
-0.94864 -0.13250 -0.92249 80 74 82
-0.94263 -0.13535 -0.91277 75 75 81
-0.93666 -0.13818 -0.90313 75 74 81
-0.93074 -0.14099 -0.89357 71 71 70
-0.92486 -0.14377 -0.88407 65 67 69
-0.91903 -0.14654 -0.87465 60 63 64
-0.91324 -0.14928 -0.86529 56 57 62
-0.90749 -0.15201 -0.85600 53 53 60
-0.90179 -0.15471 -0.84679 52 51 58
-0.89612 -0.15740 -0.83764 53 49 58
-0.89050 -0.16006 -0.82855 52 51 56
-0.88492 -0.16271 -0.81954 52 51 57
-0.87938 -0.16533 -0.81059 51 51 60
-0.87388 -0.16794 -0.80170 54 56 65
-1.48148 0.10937 -1.77340 55 61 74
-1.47081 0.10437 -1.75621 55 60 77
-1.46025 0.09942 -1.73920 52 58 80
-1.44979 0.09451 -1.72235 50 54 76
-1.43944 0.08966 -1.70567 51 52 69
-1.42918 0.08485 -1.68916 53 54 75
-1.41903 0.08009 -1.67281 52 57 80
-1.40898 0.07537 -1.65661 55 58 81
-1.39903 0.07071 -1.64058 59 58 84
-1.38917 0.06608 -1.62470 55 56 79
-1.37941 0.06151 -1.60897 48 50 74
-1.36974 0.05697 -1.59339 46 49 77
-1.36017 0.05248 -1.57796 52 53 79
-1.35068 0.04803 -1.56268 54 56 78
-1.34128 0.04362 -1.54754 53 57 77
-1.33198 0.03926 -1.53255 53 57 77
-1.32275 0.03494 -1.51769 53 57 78
-1.31362 0.03065 -1.50297 53 55 80
-1.30457 0.02641 -1.48839 50 50 78
-1.29560 0.02220 -1.47395 45 46 73
-1.28672 0.01803 -1.45963 40 41 68
-1.27791 0.01391 -1.44545 38 38 60
-1.26919 0.00981 -1.43140 39 37 56
-1.26055 0.00576 -1.41747 40 36 54
-1.25198 0.00174 -1.40367 37 36 51
-1.24349 -0.00224 -1.38999 27 31 45
-1.23508 -0.00618 -1.37644 19 23 40
-1.22674 -0.01009 -1.36300 23 24 39
-1.21847 -0.01397 -1.34969 29 29 45
-1.21028 -0.01781 -1.33649 28 29 43
-1.20216 -0.02162 -1.32341 23 24 37
-1.19411 -0.02540 -1.31044 18 21 36
-1.18613 -0.02914 -1.29759 24 26 41
-1.17822 -0.03285 -1.28484 32 32 49
-1.17038 -0.03652 -1.27221 33 27 51
-1.16261 -0.04017 -1.25969 24 21 44
-1.15490 -0.04379 -1.24727 17 17 30
-1.14726 -0.04737 -1.23496 16 17 34
-1.13968 -0.05092 -1.22275 20 20 43
-1.13217 -0.05445 -1.21064 24 24 43
-1.12472 -0.05794 -1.19864 26 23 36
-1.11733 -0.06141 -1.18674 25 24 37
-1.11000 -0.06484 -1.17494 23 23 34
-1.10274 -0.06825 -1.16323 23 22 35
-1.09553 -0.07163 -1.15162 22 20 35
-1.08838 -0.07498 -1.14011 23 19 37
-1.08130 -0.07830 -1.12869 20 19 32
-1.07427 -0.08160 -1.11737 23 18 31
-1.06730 -0.08487 -1.10613 33 28 41
-1.06038 -0.08811 -1.09499 46 44 45
-1.05352 -0.09133 -1.08394 48 47 51
-1.04672 -0.09452 -1.07298 48 43 50
-1.03996 -0.09769 -1.06210 40 40 43
-1.03327 -0.10083 -1.05131 33 37 38
-1.02662 -0.10394 -1.04061 45 46 46
-1.02003 -0.10703 -1.02999 62 57 57
-1.01350 -0.11010 -1.01946 59 60 70
-1.00701 -0.11314 -1.00901 48 49 63
-1.00057 -0.11616 -0.99864 47 45 55
-0.99418 -0.11916 -0.98835 46 47 51
-0.98785 -0.12213 -0.97814 50 52 58
-0.98156 -0.12508 -0.96801 56 54 63
-0.97532 -0.12800 -0.95795 62 61 71
-0.96913 -0.13091 -0.94798 68 67 77
-0.96298 -0.13379 -0.93808 75 72 82
-0.95688 -0.13665 -0.92826 74 72 78
-0.95083 -0.13949 -0.91851 77 72 78
-0.94483 -0.14230 -0.90883 73 73 79
-0.93887 -0.14510 -0.89923 70 71 77
-0.93295 -0.14787 -0.88970 67 68 67
-0.92708 -0.15063 -0.88024 63 66 68
-0.92125 -0.15336 -0.87085 60 63 61
-0.91546 -0.15608 -0.86153 57 57 59
-0.90972 -0.15877 -0.85228 52 53 59
-0.90402 -0.16144 -0.84309 50 51 59
-0.89836 -0.16410 -0.83398 51 50 58
-0.89275 -0.16673 -0.82493 51 49 52
-0.88717 -0.16934 -0.81594 52 50 57
-0.88164 -0.17194 -0.80703 50 51 57
-0.87614 -0.17452 -0.79817 52 54 63
-1.48275 0.09934 -1.76548 55 58 75
-1.47211 0.09440 -1.74839 53 56 75
-1.46157 0.08951 -1.73146 48 51 74
-1.45114 0.08467 -1.71471 48 49 73
-1.44081 0.07988 -1.69811 51 51 70
-1.43058 0.07514 -1.68169 52 52 74
-1.42046 0.07044 -1.66542 51 55 77
-1.41043 0.06579 -1.64931 52 58 78
-1.40050 0.06118 -1.63336 56 58 80
-1.39066 0.05661 -1.61756 55 56 78
-1.38092 0.05210 -1.60191 46 51 75
-1.37127 0.04762 -1.58642 43 48 75
-1.36172 0.04319 -1.57106 48 52 80
-1.35225 0.03879 -1.55586 51 57 83
-1.34288 0.03444 -1.54080 52 58 83
-1.33359 0.03013 -1.52588 53 57 80
-1.32439 0.02586 -1.51109 52 55 75
-1.31527 0.02163 -1.49645 48 52 72
-1.30624 0.01744 -1.48194 44 46 66
-1.29729 0.01329 -1.46756 39 41 59
-1.28842 0.00918 -1.45332 36 37 55
-1.27963 0.00510 -1.43921 35 36 54
-1.27093 0.00106 -1.42522 35 36 55
-1.26230 -0.00294 -1.41136 37 36 54
-1.25375 -0.00691 -1.39762 32 36 47
-1.24527 -0.01084 -1.38401 23 29 38
-1.23687 -0.01474 -1.37052 16 19 30
-1.22855 -0.01860 -1.35715 18 18 34
-1.22030 -0.02243 -1.34390 27 27 51
-1.21212 -0.02622 -1.33076 31 30 52
-1.20402 -0.02998 -1.31774 25 26 42
-1.19598 -0.03371 -1.30483 17 22 35
-1.18801 -0.03741 -1.29203 18 21 33
-1.18012 -0.04107 -1.27935 28 28 46
-1.17229 -0.04471 -1.26677 34 31 54
-1.16453 -0.04831 -1.25430 29 28 51
-1.15683 -0.05188 -1.24194 25 21 30
-1.14920 -0.05542 -1.22968 19 17 28
-1.14163 -0.05893 -1.21753 20 20 35
-1.13413 -0.06241 -1.20548 23 24 34
-1.12669 -0.06586 -1.19353 25 24 35
-1.11931 -0.06928 -1.18168 24 22 37
-1.11200 -0.07268 -1.16992 22 20 32
-1.10474 -0.07604 -1.15827 21 20 29
-1.09755 -0.07938 -1.14671 20 20 35
-1.09041 -0.08269 -1.13525 20 20 39
-1.08333 -0.08598 -1.12388 18 20 29
-1.07631 -0.08923 -1.11260 20 21 27
-1.06935 -0.09247 -1.10142 34 32 43
-1.06244 -0.09567 -1.09032 46 45 48
-1.05559 -0.09885 -1.07931 47 45 48
-1.04879 -0.10200 -1.06840 46 42 48
-1.04205 -0.10513 -1.05757 37 37 43
-1.03536 -0.10823 -1.04682 39 36 38
-1.02873 -0.11131 -1.03616 51 47 53
-1.02215 -0.11437 -1.02559 64 56 61
-1.01561 -0.11740 -1.01510 57 56 68
-1.00913 -0.12040 -1.00469 45 47 63
-1.00270 -0.12339 -0.99436 46 45 56
-0.99632 -0.12635 -0.98411 48 49 52
-0.98999 -0.12928 -0.97394 52 52 60
-0.98371 -0.13220 -0.96385 59 57 65
-0.97748 -0.13509 -0.95384 64 64 69
-0.97129 -0.13796 -0.94390 70 69 76
-0.96515 -0.14081 -0.93404 73 71 80
-0.95906 -0.14364 -0.92426 68 71 75
-0.95302 -0.14644 -0.91454 71 69 75
-0.94702 -0.14922 -0.90490 71 70 77
-0.94106 -0.15199 -0.89534 67 68 77
-0.93515 -0.15473 -0.88584 67 66 71
-0.92928 -0.15745 -0.87642 64 65 67
-0.92346 -0.16015 -0.86707 60 62 60
-0.91768 -0.16284 -0.85778 56 56 55
-0.91194 -0.16550 -0.84856 52 52 56
-0.90625 -0.16814 -0.83942 51 49 59
-0.90059 -0.17076 -0.83033 51 49 55
-0.89498 -0.17337 -0.82132 51 50 50
-0.88941 -0.17595 -0.81237 53 51 56
-0.88388 -0.17852 -0.80348 50 51 55
-0.87839 -0.18107 -0.79466 52 53 60
-1.48401 0.08937 -1.75761 51 56 77
-1.47340 0.08450 -1.74061 41 51 67
-1.46289 0.07967 -1.72377 41 47 64
-1.45248 0.07490 -1.70711 46 48 67
-1.44218 0.07017 -1.69060 49 52 69
-1.43197 0.06548 -1.67426 49 52 69
-1.42187 0.06085 -1.65808 47 53 69
-1.41187 0.05625 -1.64205 44 53 70
-1.40196 0.05171 -1.62618 45 53 73
-1.39214 0.04720 -1.61047 47 54 74
-1.38243 0.04274 -1.59490 40 49 70
-1.37280 0.03832 -1.57948 38 43 68
-1.36326 0.03394 -1.56421 48 49 73
-1.35382 0.02961 -1.54908 54 55 78
-1.34446 0.02531 -1.53409 54 56 79
-1.33519 0.02106 -1.51924 53 54 76
-1.32601 0.01684 -1.50453 50 51 70
-1.31691 0.01267 -1.48996 43 45 65
-1.30789 0.00853 -1.47552 37 38 60
-1.29896 0.00443 -1.46122 32 34 52
-1.29011 0.00037 -1.44704 30 33 46
-1.28134 -0.00366 -1.43299 28 32 47
-1.27265 -0.00765 -1.41908 30 32 54
-1.26404 -0.01160 -1.40528 34 33 54
-1.25550 -0.01552 -1.39161 32 33 48
-1.24705 -0.01940 -1.37806 27 31 42
-1.23866 -0.02325 -1.36463 24 25 36
-1.23035 -0.02706 -1.35133 20 21 37
-1.22212 -0.03084 -1.33813 22 24 45
-1.21395 -0.03459 -1.32506 29 29 51
-1.20586 -0.03830 -1.31209 26 29 49
-1.19784 -0.04199 -1.29925 18 23 38
-1.18988 -0.04564 -1.28651 14 17 26
-1.18200 -0.04926 -1.27388 22 23 39
-1.17418 -0.05284 -1.26136 28 27 49
-1.16643 -0.05640 -1.24895 26 27 48
-1.15875 -0.05993 -1.23664 29 24 39
-1.15113 -0.06342 -1.22444 23 19 36
-1.14358 -0.06689 -1.21233 21 20 35
-1.13608 -0.07033 -1.20034 23 24 34
-1.12866 -0.07374 -1.18844 23 24 39
-1.12129 -0.07712 -1.17664 21 22 39
-1.11398 -0.08047 -1.16494 21 20 33
-1.10674 -0.08380 -1.15333 19 19 30
-1.09955 -0.08710 -1.14182 19 20 33
-1.09243 -0.09037 -1.13041 21 20 34
-1.08536 -0.09361 -1.11909 18 20 32
-1.07835 -0.09683 -1.10786 22 23 34
-1.07139 -0.10002 -1.09672 36 35 45
-1.06450 -0.10319 -1.08567 42 46 52
-1.05765 -0.10633 -1.07471 45 45 52
-1.05086 -0.10945 -1.06384 45 42 52
-1.04413 -0.11254 -1.05305 36 36 46
-1.03745 -0.11560 -1.04235 43 38 47
-1.03082 -0.11865 -1.03174 58 48 59
-1.02425 -0.12166 -1.02121 59 53 67
-1.01772 -0.12466 -1.01076 53 50 65
-1.01125 -0.12763 -1.00039 45 46 56
-1.00483 -0.13058 -0.99010 48 47 55
-0.99845 -0.13350 -0.97989 51 51 54
-0.99213 -0.13641 -0.96977 55 55 60
-0.98586 -0.13929 -0.95971 62 61 68
-0.97963 -0.14214 -0.94974 67 68 71
-0.97345 -0.14498 -0.93984 71 71 75
-0.96732 -0.14780 -0.93002 70 72 79
-0.96123 -0.15059 -0.92027 67 71 72
-0.95519 -0.15336 -0.91060 71 68 70
-0.94920 -0.15611 -0.90100 71 69 72
-0.94325 -0.15884 -0.89147 68 65 72
-0.93734 -0.16155 -0.88201 66 65 68
-0.93148 -0.16424 -0.87262 63 61 66
-0.92566 -0.16692 -0.86330 60 58 61
-0.91989 -0.16957 -0.85405 55 54 53
-0.91415 -0.17220 -0.84487 52 50 55
-0.90846 -0.17481 -0.83575 53 47 59
-0.90281 -0.17740 -0.82671 52 47 56
-0.89720 -0.17998 -0.81772 50 51 55
-0.89164 -0.18253 -0.80881 52 52 58
-0.88611 -0.18507 -0.79995 51 51 57
-0.88062 -0.18759 -0.79116 53 54 60
-1.39362 0.03784 -1.60341 35 40 62
-1.38392 0.03344 -1.58793 34 41 60
-1.37431 0.02908 -1.57258 36 37 63
-1.36480 0.02476 -1.55739 48 45 69
-1.35537 0.02048 -1.54233 54 54 72
-1.34603 0.01624 -1.52742 51 53 73
-1.33678 0.01204 -1.51265 48 50 70
-1.32762 0.00788 -1.49801 43 46 62
-1.31854 0.00375 -1.48351 34 40 58
-1.30954 -0.00033 -1.46914 30 33 54
-1.30063 -0.00438 -1.45491 30 29 47
-1.29180 -0.00839 -1.44080 29 28 38
-1.28304 -0.01237 -1.42682 26 29 37
-1.27437 -0.01630 -1.41297 26 28 42
-1.26577 -0.02021 -1.39924 31 29 45
-1.25725 -0.02408 -1.38563 30 32 47
-1.24881 -0.02791 -1.37215 30 35 44
-1.24044 -0.03171 -1.35878 32 34 42
-1.23215 -0.03548 -1.34553 28 29 39
-1.22392 -0.03921 -1.33240 23 26 38
-1.21577 -0.04291 -1.31939 26 29 47
-1.20769 -0.04658 -1.30648 26 31 43
-1.19969 -0.05022 -1.29369 18 22 30
-1.19175 -0.05382 -1.28101 11 12 22
-1.18387 -0.05739 -1.26844 19 20 36
-1.17607 -0.06094 -1.25598 27 28 44
-1.16833 -0.06445 -1.24362 23 29 46
-1.16066 -0.06794 -1.23137 24 24 41
-1.15305 -0.07139 -1.21922 22 22 40
-1.14551 -0.07481 -1.20717 20 22 37
-1.13803 -0.07821 -1.19522 21 24 37
-1.13061 -0.08158 -1.18338 21 25 38
-1.12326 -0.08492 -1.17163 22 24 36
-1.11596 -0.08823 -1.15998 21 22 32
-1.10873 -0.09152 -1.14842 18 21 29
-1.10155 -0.09478 -1.13696 18 22 32
-1.09443 -0.09801 -1.12560 19 21 29
-1.08737 -0.10121 -1.11432 17 20 31
-1.08037 -0.10439 -1.10314 24 25 36
-1.07343 -0.10754 -1.09205 36 38 43
-1.06654 -0.11067 -1.08105 38 46 50
-1.05970 -0.11378 -1.07013 42 45 55
-1.05292 -0.11685 -1.05930 41 43 54
-1.04620 -0.11991 -1.04856 39 37 41
-1.03953 -0.12294 -1.03791 46 42 50
-1.03291 -0.12594 -1.02733 61 52 60
-1.02634 -0.12893 -1.01684 58 54 68
-1.01982 -0.13189 -1.00644 52 48 58
-1.01336 -0.13482 -0.99611 45 47 49
-1.00694 -0.13773 -0.98586 49 49 54
-1.00057 -0.14062 -0.97570 53 52 56
-0.99426 -0.14349 -0.96561 59 58 63
-0.98799 -0.14634 -0.95560 65 66 72
-0.98177 -0.14916 -0.94566 71 69 76
-0.97559 -0.15197 -0.93580 72 72 76
-0.96947 -0.15475 -0.92602 70 72 77
-0.96339 -0.15751 -0.91631 68 70 69
-0.95735 -0.16025 -0.90667 73 68 67
-0.95136 -0.16297 -0.89711 71 69 66
-0.94542 -0.16567 -0.88761 71 67 66
-0.93952 -0.16835 -0.87819 66 64 59
-0.93366 -0.17101 -0.86884 60 59 64
-0.92785 -0.17365 -0.85955 56 56 62
-0.92208 -0.17627 -0.85034 52 53 53
-0.91635 -0.17887 -0.84119 51 49 52
-0.91067 -0.18145 -0.83211 51 46 51
-0.90502 -0.18401 -0.82310 49 46 54
-0.89942 -0.18656 -0.81415 47 49 56
-0.89386 -0.18908 -0.80526 49 53 56
-0.88833 -0.19159 -0.79644 49 53 59
-0.88285 -0.19408 -0.78768 53 57 61
-1.38540 0.02419 -1.58099 26 30 46
-1.37582 0.01989 -1.56573 33 34 57
-1.36632 0.01562 -1.55061 48 43 70
-1.35692 0.01140 -1.53563 51 49 71
-1.34760 0.00721 -1.52079 46 49 67
-1.33837 0.00307 -1.50609 42 45 60
-1.32922 -0.00104 -1.49153 38 41 51
-1.32016 -0.00511 -1.47709 30 36 50
-1.31118 -0.00915 -1.46280 29 34 53
-1.30229 -0.01314 -1.44863 37 33 49
-1.29347 -0.01710 -1.43459 40 32 43
-1.28473 -0.02103 -1.42068 35 32 43
-1.27608 -0.02492 -1.40689 32 32 45
-1.26749 -0.02877 -1.39322 34 32 47
-1.25899 -0.03259 -1.37968 31 33 47
-1.25056 -0.03637 -1.36626 30 35 45
-1.24221 -0.04013 -1.35296 37 38 48
-1.23393 -0.04385 -1.33977 39 38 50
-1.22572 -0.04753 -1.32670 35 32 47
-1.21758 -0.05119 -1.31374 31 33 48
-1.20952 -0.05481 -1.30090 29 35 42
-1.20152 -0.05840 -1.28817 21 25 31
-1.19360 -0.06196 -1.27554 10 10 25
-1.18574 -0.06549 -1.26303 16 15 31
-1.17795 -0.06899 -1.25062 29 29 42
-1.17022 -0.07246 -1.23832 32 33 47
-1.16256 -0.07590 -1.22612 27 26 37
-1.15496 -0.07931 -1.21402 23 20 34
-1.14743 -0.08270 -1.20203 17 20 36
-1.13996 -0.08605 -1.19013 19 22 34
-1.13256 -0.08938 -1.17834 21 23 39
-1.12521 -0.09268 -1.16664 22 23 42
-1.11793 -0.09595 -1.15504 21 22 37
-1.11070 -0.09920 -1.14354 19 20 34
-1.10354 -0.10241 -1.13213 19 21 33
-1.09643 -0.10561 -1.12081 17 22 27
-1.08938 -0.10877 -1.10958 17 22 31
-1.08239 -0.11191 -1.09845 27 26 37
-1.07545 -0.11503 -1.08740 38 40 42
-1.06857 -0.11812 -1.07644 38 45 49
-1.06174 -0.12119 -1.06557 41 42 49
-1.05497 -0.12423 -1.05479 39 40 43
-1.04826 -0.12724 -1.04409 40 35 36
-1.04159 -0.13024 -1.03348 48 44 56
-1.03498 -0.13321 -1.02295 60 53 62
-1.02842 -0.13615 -1.01250 56 50 61
-1.02191 -0.13908 -1.00214 51 48 54
-1.01545 -0.14198 -0.99185 50 48 49
-1.00904 -0.14486 -0.98165 53 50 55
-1.00268 -0.14771 -0.97152 58 53 58
-0.99637 -0.15055 -0.96147 67 61 68
-0.99011 -0.15336 -0.95150 71 71 77
-0.98390 -0.15615 -0.94160 76 72 82
-0.97773 -0.15892 -0.93178 73 73 77
-0.97161 -0.16167 -0.92204 69 71 76
-0.96554 -0.16440 -0.91236 67 69 67
-0.95951 -0.16711 -0.90276 72 67 67
-0.95352 -0.16979 -0.89324 71 67 62
-0.94759 -0.17246 -0.88378 71 66 63
-0.94169 -0.17511 -0.87439 67 64 57
-0.93584 -0.17774 -0.86507 61 59 63
-0.93003 -0.18035 -0.85582 54 55 60
-0.92427 -0.18294 -0.84664 48 52 49
-0.91854 -0.18551 -0.83753 49 50 51
-0.91286 -0.18806 -0.82848 48 46 48
-0.90722 -0.19059 -0.81950 48 47 54
-0.90162 -0.19311 -0.81058 47 49 55
-0.89606 -0.19560 -0.80173 50 54 56
-0.89055 -0.19808 -0.79294 51 56 61
-0.88507 -0.20054 -0.78422 54 59 61
-1.38688 0.01500 -1.57410 33 33 50
-1.37732 0.01075 -1.55891 37 38 58
-1.36784 0.00654 -1.54387 44 44 65
-1.35846 0.00237 -1.52896 45 45 67
-1.34916 -0.00176 -1.51420 40 42 63
-1.33995 -0.00586 -1.49957 38 39 58
-1.33082 -0.00991 -1.48508 37 37 53
-1.32177 -0.01393 -1.47072 36 37 52
-1.31281 -0.01791 -1.45649 35 37 57
-1.30393 -0.02186 -1.44239 37 37 57
-1.29513 -0.02576 -1.42841 38 38 54
-1.28641 -0.02964 -1.41457 38 38 53
-1.27777 -0.03348 -1.40085 38 39 54
-1.26921 -0.03728 -1.38725 37 38 55
-1.26072 -0.04105 -1.37377 32 36 53
-1.25231 -0.04479 -1.36041 28 35 51
-1.24397 -0.04850 -1.34717 36 38 53
-1.23570 -0.05217 -1.33404 44 43 56
-1.22751 -0.05581 -1.32103 42 42 55
-1.21939 -0.05942 -1.30813 38 40 51
-1.21133 -0.06300 -1.29535 33 38 47
-1.20335 -0.06654 -1.28267 22 26 35
-1.19544 -0.07006 -1.27011 13 10 24
-1.18759 -0.07355 -1.25765 15 13 24
-1.17981 -0.07700 -1.24529 26 26 37
-1.17210 -0.08043 -1.23305 34 32 46
-1.16445 -0.08383 -1.22090 32 29 46
-1.15687 -0.08720 -1.20886 27 25 44
-1.14935 -0.09054 -1.19692 18 20 34
-1.14189 -0.09385 -1.18507 19 20 28
-1.13449 -0.09714 -1.17333 20 21 35
-1.12716 -0.10040 -1.16168 22 20 41
-1.11988 -0.10363 -1.15013 22 19 38
-1.11267 -0.10683 -1.13867 20 18 34
-1.10551 -0.11001 -1.12731 17 19 31
-1.09842 -0.11317 -1.11604 17 20 26
-1.09137 -0.11630 -1.10486 21 21 33
-1.08439 -0.11940 -1.09377 30 28 39
-1.07746 -0.12248 -1.08277 41 41 41
-1.07059 -0.12553 -1.07186 43 45 50
-1.06378 -0.12856 -1.06104 46 43 49
-1.05701 -0.13156 -1.05030 37 40 42
-1.05030 -0.13454 -1.03964 39 37 44
-1.04365 -0.13750 -1.02907 50 44 63
-1.03704 -0.14044 -1.01859 61 51 68
-1.03049 -0.14335 -1.00818 52 46 56
-1.02399 -0.14624 -0.99786 50 46 50
-1.01754 -0.14910 -0.98762 51 48 51
-1.01114 -0.15195 -0.97745 56 50 56
-1.00478 -0.15477 -0.96736 64 57 65
-0.99848 -0.15757 -0.95735 75 67 77
-0.99222 -0.16035 -0.94742 74 73 81
-0.98602 -0.16311 -0.93756 77 73 86
-0.97986 -0.16584 -0.92778 74 71 75
-0.97374 -0.16856 -0.91807 72 70 77
-0.96767 -0.17126 -0.90844 72 70 76
-0.93801 -0.18444 -0.86133 68 64 64
-0.93220 -0.18702 -0.85211 58 59 59
-0.92644 -0.18958 -0.84297 51 57 45
-0.92072 -0.19212 -0.83388 52 51 54
-0.91505 -0.19464 -0.82487 51 48 53
-0.90941 -0.19714 -0.81592 55 51 57
-0.90382 -0.19963 -0.80704 53 53 56
-0.89826 -0.20210 -0.79822 55 58 60
-0.89275 -0.20455 -0.78946 57 60 64
-0.88727 -0.20698 -0.78077 59 59 58
-1.39798 0.01009 -1.58250 33 34 50
-1.38835 0.00586 -1.56725 34 37 54
-1.37881 0.00166 -1.55214 35 40 57
-1.36935 -0.00249 -1.53717 38 43 61
-1.35998 -0.00661 -1.52234 40 43 65
-1.35071 -0.01068 -1.50764 36 41 63
-1.34151 -0.01472 -1.49309 35 40 60
-1.33240 -0.01873 -1.47866 39 40 58
-1.32338 -0.02269 -1.46437 40 40 55
-1.31443 -0.02662 -1.45021 38 38 53
-1.30557 -0.03052 -1.43618 38 37 56
-1.29679 -0.03438 -1.42227 41 39 60
-1.28809 -0.03820 -1.40849 42 41 59
-1.27946 -0.04199 -1.39484 44 43 60
-1.27091 -0.04575 -1.38130 44 44 60
-1.26244 -0.04948 -1.36788 40 43 58
-1.25404 -0.05317 -1.35459 34 39 57
-1.24572 -0.05682 -1.34141 37 39 58
-1.23747 -0.06045 -1.32834 46 43 63
-1.22929 -0.06404 -1.31539 44 43 64
-1.22118 -0.06761 -1.30255 39 40 55
-1.21314 -0.07114 -1.28982 32 36 47
-1.20517 -0.07464 -1.27721 21 24 33
-1.19727 -0.07812 -1.26470 12 10 18
-1.18944 -0.08156 -1.25229 12 11 16
-1.18167 -0.08497 -1.23999 20 21 34
-1.17397 -0.08836 -1.22780 26 29 44
-1.16633 -0.09171 -1.21571 28 30 46
-1.15876 -0.09504 -1.20372 29 29 47
-1.15125 -0.09834 -1.19183 26 26 40
-1.14380 -0.10161 -1.18004 25 22 32
-1.13642 -0.10486 -1.16834 21 21 34
-1.12909 -0.10808 -1.15675 22 19 34
-1.12183 -0.11127 -1.14524 20 18 31
-1.11463 -0.11444 -1.13384 19 17 32
-1.10748 -0.11758 -1.12252 15 19 31
-1.10039 -0.12069 -1.11130 15 19 32
-1.09336 -0.12378 -1.10017 22 21 39
-1.08639 -0.12685 -1.08912 30 32 44
-1.07947 -0.12989 -1.07817 39 43 45
-1.07261 -0.13290 -1.06730 45 46 53
-1.06580 -0.13589 -1.05652 47 46 54
-1.05904 -0.13886 -1.04583 36 40 44
-1.05234 -0.14181 -1.03522 41 40 46
-1.04569 -0.14473 -1.02469 52 47 64
-1.03910 -0.14763 -1.01425 56 54 69
-1.03255 -0.15051 -1.00388 47 47 56
-1.02606 -0.15336 -0.99360 49 47 50
-1.01961 -0.15619 -0.98340 49 49 54
-1.01322 -0.15900 -0.97327 57 52 59
-1.00687 -0.16179 -0.96323 65 63 67
-1.00058 -0.16456 -0.95326 69 67 79
-0.99433 -0.16730 -0.94336 66 67 73
-0.98813 -0.17003 -0.93354 70 69 78
-0.98197 -0.17273 -0.92380 72 71 73
-0.93436 -0.19366 -0.84842 64 72 69
-0.91722 -0.20119 -0.82128 78 69 68
-0.91159 -0.20366 -0.81236 89 87 85
-0.90600 -0.20612 -0.80351 56 55 50
-0.90045 -0.20856 -0.79472 53 58 58
-0.89494 -0.21098 -0.78600 58 60 62
-0.88947 -0.21339 -0.77733 55 51 55
-1.40913 0.00517 -1.59094 30 30 47
-1.39942 0.00095 -1.57561 34 32 56
-1.38981 -0.00323 -1.56043 33 35 62
-1.38029 -0.00737 -1.54540 30 35 58
-1.37085 -0.01147 -1.53050 31 37 57
-1.36151 -0.01553 -1.51575 38 42 66
-1.35224 -0.01956 -1.50113 38 46 67
-1.34307 -0.02354 -1.48664 39 46 64
-1.33398 -0.02750 -1.47229 43 45 66
-1.32497 -0.03141 -1.45806 44 45 66
-1.31605 -0.03529 -1.44397 43 43 64
-1.30720 -0.03914 -1.43001 43 42 65
-1.29844 -0.04295 -1.41617 45 44 66
-1.28975 -0.04672 -1.40245 45 47 63
-1.28114 -0.05046 -1.38886 46 49 64
-1.27261 -0.05417 -1.37539 48 50 68
-1.26415 -0.05785 -1.36203 46 50 66
-1.25577 -0.06149 -1.34880 37 45 61
-1.24746 -0.06511 -1.33568 32 38 59
-1.23922 -0.06869 -1.32267 39 41 62
-1.23106 -0.07224 -1.30978 41 40 63
-1.22296 -0.07575 -1.29700 38 38 54
-1.21494 -0.07924 -1.28433 33 34 43
-1.20698 -0.08270 -1.27177 20 22 30
-1.19909 -0.08613 -1.25931 10 10 17
-1.19127 -0.08953 -1.24697 9 10 15
-1.18352 -0.09290 -1.23472 15 18 31
-1.17583 -0.09624 -1.22258 20 23 41
-1.16820 -0.09956 -1.21054 22 26 42
-1.16064 -0.10284 -1.19861 24 28 45
-1.15314 -0.10610 -1.18677 26 29 44
-1.14571 -0.10933 -1.17503 28 27 35
-1.13833 -0.11254 -1.16338 23 22 33
-1.13102 -0.11572 -1.15184 22 18 29
-1.12377 -0.11887 -1.14038 19 18 23
-1.11657 -0.12200 -1.12902 18 17 26
-1.10944 -0.12510 -1.11776 17 19 26
-1.10236 -0.12818 -1.10658 16 19 30
-1.09534 -0.13123 -1.09550 22 22 39
-1.08837 -0.13426 -1.08450 31 33 46
-1.08146 -0.13726 -1.07359 40 43 48
-1.07461 -0.14024 -1.06277 45 47 51
-1.06781 -0.14320 -1.05203 42 47 51
-1.06106 -0.14613 -1.04138 32 41 48
-1.05437 -0.14904 -1.03081 41 43 50
-1.04773 -0.15192 -1.02033 55 50 64
-1.04114 -0.15479 -1.00993 55 55 70
-1.03460 -0.15763 -0.99960 49 49 56
-1.02812 -0.16045 -0.98936 48 49 48
-1.02168 -0.16325 -0.97920 48 48 52
-1.01529 -0.16602 -0.96911 58 54 62
-1.00895 -0.16878 -0.95911 63 63 65
-1.00266 -0.17151 -0.94918 63 62 70
-0.99642 -0.17423 -0.93932 59 63 64
-0.99023 -0.17692 -0.92954 68 69 73
-0.92506 -0.20525 -0.82664 107 102 67
-0.91939 -0.20771 -0.81770 111 99 99
-0.91376 -0.21016 -0.80881 129 165 159
-0.90818 -0.21258 -0.79999 54 56 46
-0.90263 -0.21499 -0.79124 46 55 56
-0.89713 -0.21739 -0.78254 56 60 63
-0.89166 -0.21976 -0.77391 49 51 60
-1.41054 -0.00398 -1.58401 29 31 57
-1.40085 -0.00814 -1.56876 31 32 60
-1.39126 -0.01226 -1.55366 32 29 59
-1.38176 -0.01635 -1.53870 30 27 51
-1.37234 -0.02040 -1.52388 29 27 45
-1.35378 -0.02838 -1.49464 40 41 58
-1.34462 -0.03231 -1.48023 44 45 62
-1.33555 -0.03622 -1.46595 48 47 69
-1.32656 -0.04008 -1.45179 47 48 73
-1.31765 -0.04391 -1.43777 45 47 74
-1.30882 -0.04771 -1.42387 45 46 72
-1.30007 -0.05147 -1.41009 47 47 71
-1.29140 -0.05519 -1.39644 47 49 67
-1.28281 -0.05889 -1.38291 45 49 67
-1.27429 -0.06255 -1.36950 49 51 73
-1.26585 -0.06618 -1.35621 49 52 70
-1.25748 -0.06978 -1.34304 40 42 61
-1.24919 -0.07334 -1.32998 31 32 55
-1.24097 -0.07688 -1.31703 34 34 55
-1.23281 -0.08038 -1.30420 36 34 55
-1.22473 -0.08386 -1.29148 35 34 50
-1.21672 -0.08730 -1.27886 33 30 43
-1.20878 -0.09072 -1.26636 19 19 34
-1.20090 -0.09410 -1.25396 9 10 22
-1.19310 -0.09746 -1.24167 8 10 15
-1.18535 -0.10079 -1.22948 12 14 27
-1.17768 -0.10409 -1.21739 15 17 33
-1.17006 -0.10736 -1.20540 19 20 34
-1.16251 -0.11061 -1.19352 21 22 39
-1.15503 -0.11382 -1.18173 22 23 39
-1.14760 -0.11702 -1.17004 21 23 34
-1.14024 -0.12018 -1.15845 20 21 31
-1.13294 -0.12332 -1.14695 22 17 28
-1.12569 -0.12644 -1.13555 20 17 23
-1.11851 -0.12952 -1.12424 18 17 21
-1.11138 -0.13259 -1.11302 17 19 23
-1.10431 -0.13563 -1.10189 17 17 30
-1.09730 -0.13864 -1.09085 22 22 41
-1.09035 -0.14163 -1.07990 34 35 48
-1.08345 -0.14460 -1.06903 42 44 54
-1.07660 -0.14754 -1.05825 47 48 56
-1.06981 -0.15046 -1.04756 41 46 49
-1.06307 -0.15336 -1.03695 33 40 46
-1.05639 -0.15623 -1.02643 42 45 52
-1.04975 -0.15908 -1.01599 50 49 61
-1.04317 -0.16191 -1.00563 52 50 62
-1.03664 -0.16472 -0.99535 48 47 53
-1.03017 -0.16751 -0.98514 48 48 45
-1.02374 -0.17027 -0.97502 54 49 48
-1.01736 -0.17301 -0.96498 62 59 65
-1.01102 -0.17573 -0.95501 62 59 66
-1.00474 -0.17844 -0.94512 61 60 69
-0.99851 -0.18112 -0.93530 61 64 69
-0.99232 -0.18378 -0.92556 72 71 75
-0.92721 -0.21177 -0.82305 147 138 74
-0.92155 -0.21420 -0.81413 108 80 79
-0.91592 -0.21662 -0.80528 103 145 151
-0.91034 -0.21902 -0.79649 50 61 52
-0.90480 -0.22140 -0.78777 45 55 55
-0.89930 -0.22377 -0.77911 52 58 63
-0.89384 -0.22612 -0.77051 52 55 70
-1.43154 -0.00473 -1.60790 24 25 37
-1.42169 -0.00892 -1.59244 31 30 47
-1.41194 -0.01307 -1.57712 31 32 55
-1.40227 -0.01718 -1.56195 29 30 55
-1.39270 -0.02125 -1.54693 31 26 51
-1.38322 -0.02528 -1.53204 31 25 47
-1.37383 -0.02927 -1.51729 27 24 43
-1.36452 -0.03323 -1.50268 28 26 45
-1.33711 -0.04489 -1.45964 48 45 63
-1.32813 -0.04870 -1.44555 48 52 74
-1.31924 -0.05248 -1.43160 46 52 76
-1.31043 -0.05623 -1.41776 45 51 75
-1.30170 -0.05994 -1.40405 49 49 75
-1.29305 -0.06362 -1.39047 51 47 72
-1.28447 -0.06727 -1.37700 48 46 69
-1.27597 -0.07088 -1.36365 48 46 70
-1.26754 -0.07446 -1.35042 50 47 66
-1.25919 -0.07802 -1.33731 44 43 58
-1.25091 -0.08154 -1.32431 33 33 52
-1.24270 -0.08503 -1.31142 26 25 51
-1.23456 -0.08849 -1.29865 25 23 48
-1.22650 -0.09192 -1.28598 27 26 45
-1.21850 -0.09532 -1.27343 27 27 40
-1.21057 -0.09869 -1.26098 18 17 31
-1.20271 -0.10203 -1.24863 11 10 22
-1.19491 -0.10535 -1.23640 9 10 18
-1.18718 -0.10863 -1.22426 11 11 25
-1.17952 -0.11189 -1.21223 15 14 28
-1.17192 -0.11512 -1.20029 20 17 30
-1.16438 -0.11833 -1.18846 21 19 34
-1.15690 -0.12151 -1.17672 21 19 34
-1.14949 -0.12466 -1.16508 19 19 33
-1.14214 -0.12779 -1.15354 19 17 32
-1.13484 -0.13089 -1.14209 22 16 30
-1.12761 -0.13396 -1.13073 20 17 24
-1.12044 -0.13701 -1.11947 19 18 21
-1.11332 -0.14004 -1.10830 17 19 22
-1.10626 -0.14304 -1.09721 17 18 26
-1.09926 -0.14602 -1.08622 23 25 37
-1.09231 -0.14897 -1.07531 34 35 47
-1.08542 -0.15190 -1.06450 44 45 56
-1.07858 -0.15481 -1.05376 49 49 60
-1.07180 -0.15769 -1.04311 41 44 45
-1.06507 -0.16055 -1.03255 32 42 39
-1.05840 -0.16339 -1.02207 41 47 52
-1.05177 -0.16621 -1.01167 50 49 59
-1.04520 -0.16900 -1.00135 50 49 55
-1.03868 -0.17178 -0.99111 48 48 52
-1.03220 -0.17453 -0.98095 49 47 52
-1.01941 -0.17997 -0.96086 66 67 70
-1.01309 -0.18266 -0.95093 62 58 68
-1.00681 -0.18533 -0.94108 62 62 71
-1.00058 -0.18798 -0.93130 63 68 72
-0.99440 -0.19060 -0.92159 74 73 75
-0.91808 -0.22306 -0.80176 61 50 54
-0.89601 -0.23244 -0.76712 54 56 70
-1.44281 -0.00971 -1.61642 22 21 34
-1.43289 -0.01388 -1.60089 29 31 40
-1.42306 -0.01801 -1.58551 30 34 46
-1.41333 -0.02211 -1.57028 27 31 50
-1.40369 -0.02616 -1.55518 24 27 48
-1.39414 -0.03018 -1.54023 29 26 43
-1.38468 -0.03416 -1.52542 30 26 42
-1.37530 -0.03810 -1.51074 24 24 41
-1.36601 -0.04200 -1.49620 22 23 38
-1.35681 -0.04587 -1.48179 22 22 38
-1.32970 -0.05727 -1.43935 40 45 62
-1.32083 -0.06100 -1.42546 48 51 71
-1.31204 -0.06470 -1.41169 51 52 73
-1.30332 -0.06837 -1.39805 51 50 74
-1.29468 -0.07200 -1.38452 51 49 73
-1.28612 -0.07560 -1.37112 48 47 71
-1.27764 -0.07917 -1.35784 45 43 68
-1.26923 -0.08270 -1.34467 47 43 63
-1.26089 -0.08621 -1.33161 44 42 58
-1.23631 -0.09655 -1.29313 19 16 38
-1.22825 -0.09993 -1.28052 24 20 39
-1.22027 -0.10329 -1.26802 27 22 35
-1.21235 -0.10662 -1.25563 18 14 27
-1.20450 -0.10992 -1.24334 11 9 18
-1.19672 -0.11319 -1.23115 8 9 16
-1.18900 -0.11644 -1.21907 10 10 21
-1.18135 -0.11966 -1.20709 15 13 25
-1.17376 -0.12285 -1.19521 19 17 29
-1.16623 -0.12601 -1.18342 21 19 32
-1.15877 -0.12915 -1.17174 22 19 35
-1.15137 -0.13226 -1.16015 18 18 35
-1.14402 -0.13535 -1.14865 17 17 34
-1.13674 -0.13841 -1.13725 19 16 33
-1.12952 -0.14145 -1.12594 19 16 23
-1.12235 -0.14446 -1.11473 17 16 19
-1.11525 -0.14745 -1.10360 16 18 20
-1.10820 -0.15042 -1.09257 17 20 21
-1.10121 -0.15336 -1.08162 24 28 32
-1.09427 -0.15627 -1.07076 34 38 47
-1.08739 -0.15917 -1.05998 44 44 53
-1.08056 -0.16204 -1.04929 45 46 53
-1.07378 -0.16489 -1.03869 39 41 44
-1.06706 -0.16771 -1.02816 38 41 43
-1.06040 -0.17052 -1.01772 43 45 56
-1.05378 -0.17330 -1.00737 52 51 61
-1.04721 -0.17606 -0.99709 49 51 54
-1.04070 -0.17880 -0.98689 47 50 53
-1.03423 -0.18152 -0.97677 49 47 54
-1.02145 -0.18689 -0.95676 63 71 76
-1.01514 -0.18955 -0.94687 60 62 67
-1.00887 -0.19219 -0.93705 62 66 68
-1.00264 -0.19480 -0.92731 66 69 69
-0.99647 -0.19740 -0.91764 73 71 75
-1.45412 -0.01471 -1.62498 24 21 39
-1.44412 -0.01886 -1.60938 31 32 44
-1.43423 -0.02298 -1.59393 31 34 44
-1.42442 -0.02706 -1.57863 28 32 45
-1.41471 -0.03109 -1.56347 25 28 45
-1.40509 -0.03510 -1.54845 22 22 42
-1.39556 -0.03906 -1.53357 21 22 42
-1.38612 -0.04298 -1.51883 22 24 45
-1.37677 -0.04687 -1.50423 22 22 41
-1.36750 -0.05073 -1.48976 20 18 33
-1.35832 -0.05455 -1.47542 18 16 28
-1.34922 -0.05833 -1.46121 18 16 28
-1.32241 -0.06948 -1.41936 41 42 63
-1.31363 -0.07313 -1.40565 50 47 70
-1.30493 -0.07675 -1.39207 52 49 73
