ply
format ascii 1.0
element face 0
property list uchar int vertex_indices
element vertex 1290
property float x
property float y
property float z
property uchar diffuse_red
property uchar diffuse_green
property uchar diffuse_blue
end_header
3.17758 -1.37462 0.91026 227 230 234
3.17490 -1.38291 0.91483 228 231 233
3.17221 -1.39123 0.91940 228 229 234
3.16952 -1.39957 0.92399 225 228 232
3.16682 -1.40794 0.92860 226 229 233
3.16411 -1.41633 0.93322 224 228 231
3.16139 -1.42474 0.93785 225 227 232
3.15866 -1.43318 0.94249 224 227 232
3.15593 -1.44165 0.94715 224 228 232
3.15319 -1.45014 0.95182 224 227 232
3.15044 -1.45866 0.95651 223 226 230
3.14768 -1.46720 0.96121 223 224 229
3.14491 -1.47577 0.96593 222 224 231
3.14214 -1.48436 0.97066 222 225 229
3.13935 -1.49298 0.97540 222 223 228
3.13656 -1.50162 0.98016 221 223 227
3.13376 -1.51029 0.98493 221 224 226
3.13095 -1.51899 0.98972 220 222 227
3.12814 -1.52772 0.99452 220 222 227
3.12531 -1.53647 0.99933 221 221 227
3.12248 -1.54524 1.00416 220 221 227
3.11964 -1.55404 1.00901 220 223 228
3.11678 -1.56287 1.01387 220 222 226
3.11392 -1.57173 1.01874 219 220 225
3.11106 -1.58062 1.02363 217 220 225
3.10818 -1.58953 1.02854 219 220 225
3.10529 -1.59846 1.03345 219 220 225
3.10240 -1.60743 1.03839 219 220 223
3.09949 -1.61642 1.04334 217 220 222
3.09658 -1.62544 1.04830 217 219 223
3.09366 -1.63449 1.05328 217 219 224
3.09073 -1.64357 1.05828 217 219 223
3.08779 -1.65267 1.06329 217 219 225
3.08484 -1.66180 1.06831 217 219 225
3.08188 -1.67097 1.07336 216 219 225
3.07891 -1.68015 1.07841 216 220 226
3.07593 -1.68937 1.08349 217 220 227
3.07295 -1.69862 1.08857 217 220 225
3.06995 -1.70789 1.09368 217 220 224
3.06695 -1.71720 1.09880 217 220 226
3.06394 -1.72653 1.10394 218 220 225
3.06091 -1.73589 1.10909 218 220 224
3.05788 -1.74528 1.11426 217 220 224
3.05484 -1.75471 1.11944 217 220 224
3.05178 -1.76416 1.12464 217 220 224
3.04872 -1.77364 1.12986 217 219 226
3.04565 -1.78315 1.13509 216 219 225
3.04257 -1.79269 1.14035 216 218 222
3.03948 -1.80226 1.14561 215 218 222
3.03638 -1.81186 1.15090 214 217 222
3.03327 -1.82149 1.15620 214 218 222
3.03015 -1.83116 1.16152 215 218 220
3.02702 -1.84085 1.16685 215 217 219
3.02388 -1.85057 1.17220 214 218 220
3.02073 -1.86033 1.17757 214 217 217
3.01757 -1.87011 1.18296 214 217 217
3.01440 -1.87993 1.18836 213 217 217
3.01122 -1.88978 1.19378 212 217 220
3.00803 -1.89966 1.19922 213 217 220
3.00483 -1.90957 1.20467 214 217 218
3.00161 -1.91952 1.21015 214 217 217
2.99839 -1.92950 1.21564 213 216 217
2.99516 -1.93950 1.22114 213 217 218
2.99192 -1.94955 1.22667 212 217 221
2.98866 -1.95962 1.23222 211 216 220
2.98540 -1.96973 1.23778 212 215 218
2.98213 -1.97987 1.24336 212 215 216
2.97884 -1.99004 1.24896 211 214 217
2.97554 -2.00025 1.25457 211 214 216
2.97224 -2.01049 1.26021 210 213 215
2.96892 -2.02076 1.26586 210 214 217
2.96559 -2.03107 1.27154 210 214 216
2.96225 -2.04141 1.27723 212 214 215
2.95890 -2.05178 1.28294 210 213 215
2.95554 -2.06219 1.28867 209 211 215
2.95217 -2.07264 1.29441 208 213 217
2.94879 -2.08311 1.30018 210 212 215
2.94539 -2.09363 1.30597 207 212 215
2.94198 -2.10417 1.31177 206 211 217
2.93857 -2.11476 1.31759 206 211 215
2.93514 -2.12538 1.32344 206 211 213
2.93170 -2.13603 1.32930 205 210 213
2.92825 -2.14672 1.33518 204 210 211
2.92478 -2.15744 1.34109 206 210 210
2.92131 -2.16821 1.34701 205 210 210
2.91782 -2.17900 1.35295 206 209 210
2.91432 -2.18984 1.35891 208 209 214
2.91081 -2.20071 1.36490 204 208 211
2.90729 -2.21162 1.37090 204 208 210
2.90375 -2.22256 1.37692 204 207 210
2.90021 -2.23354 1.38297 203 207 207
2.89665 -2.24456 1.38903 203 208 212
2.89308 -2.25561 1.39511 203 206 210
2.88950 -2.26671 1.40122 202 207 211
2.88590 -2.27784 1.40735 201 206 210
2.88230 -2.28901 1.41349 201 205 210
2.87868 -2.30022 1.41966 201 205 209
2.87505 -2.31146 1.42585 201 206 207
2.87140 -2.32275 1.43206 201 206 206
2.86774 -2.33407 1.43829 200 204 203
2.86408 -2.34543 1.44455 199 205 205
2.86039 -2.35684 1.45082 200 205 205
2.85670 -2.36828 1.45712 199 204 204
2.85299 -2.37976 1.46344 199 204 206
2.84927 -2.39128 1.46978 199 203 204
2.84554 -2.40284 1.47614 197 202 200
2.84179 -2.41444 1.48253 195 201 202
2.83803 -2.42609 1.48893 196 200 203
2.83047 -2.44949 1.50181 202 207 214
3.22235 -1.24074 0.82476 231 234 236
3.21980 -1.24865 0.82909 231 234 235
3.21724 -1.25658 0.83344 232 234 234
3.21467 -1.26454 0.83780 231 233 235
3.21210 -1.27252 0.84218 231 232 235
3.20952 -1.28052 0.84656 230 232 235
3.20693 -1.28854 0.85096 230 232 234
3.20433 -1.29659 0.85537 230 233 234
3.20173 -1.30466 0.85980 229 232 235
3.19912 -1.31276 0.86424 228 232 236
3.19650 -1.32088 0.86869 229 233 237
3.19387 -1.32902 0.87315 229 232 235
3.19123 -1.33718 0.87763 228 231 234
3.18859 -1.34537 0.88212 228 231 235
3.18594 -1.35359 0.88662 228 232 233
3.18328 -1.36183 0.89113 227 230 232
3.18062 -1.37009 0.89566 227 228 233
3.17794 -1.37837 0.90021 227 229 233
3.17526 -1.38669 0.90476 227 230 235
3.17257 -1.39502 0.90933 226 229 234
3.16988 -1.40338 0.91392 225 228 232
3.16717 -1.41177 0.91851 225 228 232
3.16446 -1.42018 0.92312 224 227 231
3.16174 -1.42861 0.92775 225 227 232
3.15901 -1.43707 0.93238 224 227 232
3.15627 -1.44556 0.93704 224 228 231
3.15352 -1.45407 0.94170 225 227 229
3.15077 -1.46261 0.94638 223 225 228
3.14801 -1.47117 0.95108 223 224 229
3.14523 -1.47975 0.95578 223 225 232
3.14246 -1.48837 0.96050 223 224 229
3.13967 -1.49701 0.96524 222 224 229
3.13687 -1.50567 0.96999 221 224 228
3.13407 -1.51436 0.97476 221 224 229
3.13126 -1.52308 0.97953 220 222 227
3.12843 -1.53182 0.98433 219 222 226
3.12560 -1.54060 0.98914 220 222 225
3.12277 -1.54939 0.99396 221 221 225
3.11992 -1.55822 0.99880 221 222 225
3.11706 -1.56707 1.00365 219 222 226
3.11420 -1.57594 1.00851 218 220 228
3.11133 -1.58485 1.01340 218 219 226
3.10844 -1.59378 1.01829 219 220 225
3.10555 -1.60274 1.02320 218 220 225
3.10265 -1.61173 1.02813 218 220 224
3.09975 -1.62074 1.03307 218 220 223
3.09683 -1.62979 1.03803 217 220 223
3.09390 -1.63886 1.04300 216 220 224
3.09097 -1.64795 1.04799 216 218 223
3.08802 -1.65708 1.05299 217 218 224
3.08507 -1.66623 1.05801 217 218 223
3.08210 -1.67542 1.06304 217 219 223
3.07913 -1.68463 1.06809 216 219 225
3.07615 -1.69387 1.07316 216 219 227
3.07316 -1.70314 1.07824 217 219 224
3.07016 -1.71244 1.08334 218 220 223
3.06715 -1.72176 1.08845 217 220 225
3.06413 -1.73112 1.09358 217 220 224
3.06110 -1.74051 1.09873 217 221 223
3.05807 -1.74992 1.10389 217 220 223
3.05502 -1.75937 1.10906 217 220 223
3.05196 -1.76884 1.11426 217 220 223
3.04890 -1.77834 1.11947 217 218 225
3.04582 -1.78788 1.12469 216 219 225
3.04273 -1.79744 1.12994 216 219 224
3.03964 -1.80704 1.13520 215 219 224
3.03653 -1.81666 1.14047 215 218 222
3.03342 -1.82632 1.14577 215 218 221
3.03029 -1.83601 1.15108 215 218 221
3.02716 -1.84572 1.15640 215 219 221
3.02401 -1.85547 1.16175 215 219 220
3.02086 -1.86525 1.16711 214 218 219
3.01769 -1.87506 1.17249 214 217 219
3.01451 -1.88491 1.17788 213 217 219
3.01133 -1.89478 1.18330 213 217 222
3.00813 -1.90469 1.18873 213 217 220
3.00493 -1.91462 1.19418 213 216 218
3.00171 -1.92460 1.19964 214 217 217
2.99848 -1.93460 1.20513 213 216 218
2.99524 -1.94463 1.21063 213 217 219
2.99200 -1.95470 1.21615 213 217 220
2.98874 -1.96480 1.22168 212 217 219
2.98547 -1.97493 1.22724 212 215 220
2.98219 -1.98510 1.23281 211 216 221
2.97890 -1.99530 1.23840 211 215 218
2.97559 -2.00553 1.24401 210 214 215
2.97228 -2.01580 1.24964 211 214 214
2.96896 -2.02610 1.25529 211 215 217
2.96562 -2.03643 1.26095 210 213 216
2.96228 -2.04680 1.26664 211 214 214
2.95892 -2.05721 1.27234 210 214 215
2.95556 -2.06764 1.27806 209 212 215
2.95218 -2.07811 1.28380 208 212 215
2.94879 -2.08862 1.28956 208 212 215
2.94539 -2.09916 1.29534 207 213 216
2.94197 -2.10974 1.30114 206 210 217
2.93855 -2.12035 1.30695 206 209 215
2.93512 -2.13100 1.31279 205 210 213
2.93167 -2.14168 1.31865 205 211 214
2.92821 -2.15240 1.32452 205 211 212
2.92474 -2.16315 1.33042 207 212 210
2.92126 -2.17394 1.33633 206 210 209
2.91777 -2.18477 1.34227 205 210 212
2.91426 -2.19563 1.34822 205 208 215
2.91074 -2.20653 1.35420 204 209 211
2.90721 -2.21747 1.36019 205 208 209
2.90367 -2.22844 1.36621 205 209 209
2.90012 -2.23945 1.37225 203 208 207
2.89656 -2.25050 1.37830 202 208 210
2.89298 -2.26159 1.38438 203 208 207
2.88939 -2.27271 1.39048 201 206 207
2.88579 -2.28388 1.39660 200 207 207
2.88217 -2.29508 1.40274 201 206 208
2.87855 -2.30632 1.40890 200 205 209
2.87491 -2.31759 1.41508 201 205 209
2.87126 -2.32891 1.42129 200 205 209
2.86759 -2.34027 1.42751 199 204 207
2.86392 -2.35166 1.43376 200 205 207
2.86023 -2.36310 1.44003 201 204 207
2.85653 -2.37457 1.44632 200 204 206
2.85281 -2.38608 1.45263 199 204 207
2.84908 -2.39764 1.45896 198 203 206
2.84534 -2.40923 1.46532 197 202 205
2.84159 -2.42087 1.47170 196 200 204
2.83782 -2.43254 1.47810 196 200 204
2.83025 -2.45602 1.49096 204 208 212
3.22278 -1.24420 0.81480 232 234 236
3.22023 -1.25213 0.81913 232 234 235
3.21766 -1.26008 0.82347 231 233 233
3.21509 -1.26805 0.82782 231 233 234
3.21251 -1.27605 0.83219 230 233 234
3.20993 -1.28407 0.83657 230 232 235
3.20734 -1.29211 0.84096 230 232 236
3.20474 -1.30017 0.84536 230 232 236
3.20213 -1.30826 0.84978 230 231 235
3.19951 -1.31638 0.85421 229 232 235
3.19689 -1.32451 0.85865 230 231 235
3.19426 -1.33267 0.86311 229 231 233
3.19162 -1.34086 0.86758 227 230 231
3.18898 -1.34907 0.87206 228 231 233
3.18632 -1.35730 0.87655 228 231 232
3.18366 -1.36556 0.88106 226 227 233
3.18099 -1.37384 0.88558 226 228 234
3.17831 -1.38214 0.89012 225 230 234
3.17563 -1.39047 0.89467 225 229 234
3.17294 -1.39883 0.89923 226 228 234
3.17023 -1.40721 0.90381 225 228 233
3.16752 -1.41561 0.90839 224 227 233
3.16481 -1.42404 0.91300 223 227 232
3.16208 -1.43249 0.91761 223 226 233
3.15935 -1.44097 0.92224 224 227 232
3.15661 -1.44948 0.92689 224 227 230
3.15386 -1.45801 0.93155 224 226 228
3.15110 -1.46657 0.93622 223 225 228
3.14833 -1.47515 0.94090 222 225 228
3.14556 -1.48376 0.94560 223 226 230
3.14277 -1.49239 0.95032 223 224 229
3.13998 -1.50105 0.95505 222 225 228
3.13718 -1.50973 0.95979 221 225 229
3.13437 -1.51845 0.96455 221 225 231
3.13156 -1.52718 0.96932 220 223 228
3.12873 -1.53595 0.97410 219 222 226
3.12590 -1.54474 0.97890 219 222 225
3.12306 -1.55356 0.98372 221 222 225
3.12020 -1.56240 0.98855 220 222 224
3.11734 -1.57127 0.99339 219 222 226
3.11448 -1.58017 0.99825 219 221 230
3.11160 -1.58910 1.00313 218 220 227
3.10871 -1.59805 1.00801 218 220 223
3.10582 -1.60703 1.01292 217 220 224
3.10291 -1.61604 1.01784 217 220 223
3.10000 -1.62508 1.02277 218 220 224
3.09708 -1.63414 1.02772 217 220 224
3.09415 -1.64323 1.03269 215 220 224
3.09121 -1.65235 1.03767 216 218 224
3.08826 -1.66150 1.04266 217 219 224
3.08530 -1.67068 1.04767 217 218 222
3.08233 -1.67989 1.05270 216 218 222
3.07935 -1.68912 1.05774 215 218 224
3.07637 -1.69838 1.06280 216 218 225
3.07337 -1.70767 1.06787 217 219 223
3.07037 -1.71700 1.07296 217 219 222
3.06735 -1.72635 1.07807 217 219 222
3.06433 -1.73572 1.08319 217 220 222
3.06130 -1.74513 1.08833 217 220 222
3.05826 -1.75457 1.09348 217 220 222
3.05520 -1.76404 1.09865 217 220 222
3.05214 -1.77354 1.10384 218 220 222
3.04907 -1.78307 1.10904 218 219 223
3.04599 -1.79262 1.11426 217 220 223
3.04290 -1.80221 1.11949 217 220 224
3.03980 -1.81183 1.12475 217 220 224
3.03669 -1.82148 1.13002 216 219 222
3.03357 -1.83116 1.13530 216 219 221
3.03044 -1.84087 1.14060 216 219 221
3.02729 -1.85062 1.14592 216 219 222
3.02414 -1.86039 1.15126 216 218 219
3.02098 -1.87019 1.15661 215 218 219
3.01781 -1.88003 1.16199 214 218 220
3.01463 -1.88990 1.16737 214 218 222
3.01144 -1.89980 1.17278 214 218 224
3.00824 -1.90973 1.17820 214 218 221
3.00503 -1.91969 1.18364 213 217 221
3.00180 -1.92969 1.18910 213 217 220
2.99857 -1.93972 1.19458 213 217 219
2.99533 -1.94978 1.20007 213 217 220
2.99207 -1.95987 1.20558 213 217 220
2.98881 -1.97000 1.21111 213 218 219
2.98553 -1.98016 1.21666 213 216 219
2.98225 -1.99035 1.22223 212 216 220
2.97895 -2.00058 1.22781 211 215 218
2.97564 -2.01084 1.23341 211 215 216
2.97233 -2.02113 1.23903 212 215 216
2.96900 -2.03146 1.24467 211 214 217
2.96566 -2.04182 1.25033 211 214 217
2.96231 -2.05222 1.25601 211 215 216
2.95894 -2.06265 1.26170 209 215 219
2.95557 -2.07311 1.26742 209 214 216
2.95219 -2.08361 1.27315 210 213 214
2.94879 -2.09415 1.27890 209 212 215
2.94538 -2.10471 1.28467 209 213 215
2.94196 -2.11532 1.29046 208 212 213
2.93853 -2.12596 1.29627 207 211 213
2.93509 -2.13664 1.30210 205 211 211
2.93164 -2.14735 1.30795 206 212 215
2.92817 -2.15809 1.31382 205 211 217
2.92470 -2.16888 1.31971 205 210 212
2.92121 -2.17970 1.32562 205 209 211
2.91771 -2.19055 1.33154 203 209 212
2.91420 -2.20145 1.33749 205 210 209
2.91068 -2.21238 1.34346 204 209 209
2.90714 -2.22334 1.34945 205 208 207
2.90359 -2.23435 1.35546 204 208 210
2.90003 -2.24539 1.36149 203 207 209
2.89646 -2.25647 1.36754 204 208 208
2.89288 -2.26759 1.37361 202 207 208
2.88928 -2.27874 1.37970 201 207 208
2.88567 -2.28994 1.38581 201 206 208
2.88205 -2.30117 1.39194 202 205 210
2.87842 -2.31244 1.39810 201 206 207
2.87477 -2.32375 1.40427 200 204 206
2.87112 -2.33510 1.41047 200 204 205
2.86744 -2.34648 1.41669 200 204 207
2.86376 -2.35791 1.42293 200 204 210
2.86006 -2.36938 1.42919 200 205 211
2.85635 -2.38088 1.43547 200 204 209
2.85263 -2.39243 1.44178 199 203 206
2.84890 -2.40402 1.44810 198 202 206
2.84515 -2.41565 1.45445 197 202 206
2.84139 -2.42731 1.46082 197 201 205
2.83761 -2.43902 1.46722 196 201 206
2.83002 -2.46256 1.48007 203 207 212
3.22321 -1.24767 0.80481 230 234 236
3.22065 -1.25562 0.80913 231 235 237
3.21809 -1.26358 0.81346 230 232 234
3.21551 -1.27157 0.81781 230 232 234
3.21293 -1.27959 0.82217 230 232 232
3.21034 -1.28762 0.82654 229 232 233
3.20775 -1.29568 0.83092 230 233 235
3.20514 -1.30377 0.83532 230 233 234
3.20253 -1.31188 0.83973 229 231 232
3.19991 -1.32001 0.84415 228 230 231
3.19729 -1.32816 0.84859 228 230 232
3.19465 -1.33634 0.85303 228 230 233
3.19201 -1.34454 0.85750 227 230 233
3.18936 -1.35277 0.86197 229 231 234
3.18670 -1.36102 0.86646 228 229 230
3.18404 -1.36930 0.87096 226 228 232
3.18136 -1.37760 0.87547 227 229 235
3.17868 -1.38592 0.88000 227 230 233
3.17599 -1.39427 0.88454 226 228 232
3.17330 -1.40264 0.88910 226 229 235
3.17059 -1.41104 0.89366 225 228 233
3.16788 -1.41947 0.89824 224 227 233
3.16516 -1.42792 0.90284 223 227 231
3.16243 -1.43639 0.90745 223 227 233
3.15969 -1.44489 0.91207 224 226 232
3.15695 -1.45341 0.91671 224 227 231
3.15419 -1.46196 0.92136 224 226 229
3.15143 -1.47054 0.92602 223 225 230
3.14866 -1.47914 0.93070 222 226 230
3.14588 -1.48777 0.93539 223 226 230
3.14309 -1.49642 0.94010 223 226 228
3.14030 -1.50510 0.94482 221 225 227
3.13749 -1.51381 0.94955 221 225 228
3.13468 -1.52254 0.95430 221 225 231
3.13186 -1.53130 0.95907 220 223 227
3.12903 -1.54008 0.96385 219 222 226
3.12619 -1.54890 0.96864 218 222 227
3.12335 -1.55774 0.97345 220 223 225
3.12049 -1.56660 0.97827 219 221 225
3.11763 -1.57549 0.98310 219 222 226
3.11475 -1.58441 0.98796 219 221 227
3.11187 -1.59336 0.99282 218 220 226
3.10898 -1.60234 0.99770 217 219 222
3.10608 -1.61134 1.00260 217 219 222
3.10317 -1.62037 1.00751 217 219 222
3.10025 -1.62943 1.01244 216 219 224
3.09733 -1.63851 1.01738 216 220 223
3.09439 -1.64763 1.02234 216 220 222
3.09145 -1.65677 1.02731 217 219 223
3.08849 -1.66594 1.03230 218 219 223
3.08553 -1.67514 1.03730 215 218 223
3.08256 -1.68437 1.04232 214 218 224
3.07958 -1.69363 1.04735 215 218 223
3.07659 -1.70291 1.05240 215 218 223
3.07359 -1.71223 1.05747 216 219 222
3.07058 -1.72157 1.06255 216 219 221
3.06756 -1.73094 1.06765 217 218 221
3.06453 -1.74035 1.07276 217 219 221
3.06149 -1.74978 1.07789 217 219 222
3.05844 -1.75924 1.08304 217 219 223
3.05539 -1.76873 1.08820 218 220 224
3.05232 -1.77825 1.09338 218 220 222
3.04924 -1.78780 1.09858 218 220 221
3.04616 -1.79739 1.10379 218 221 222
3.04306 -1.80700 1.10901 218 220 223
3.03996 -1.81664 1.11426 218 220 224
3.03684 -1.82632 1.11952 218 221 223
3.03371 -1.83602 1.12480 217 221 222
3.03058 -1.84576 1.13009 217 220 222
3.02743 -1.85552 1.13541 218 220 222
3.02428 -1.86532 1.14074 218 219 219
3.02111 -1.87515 1.14608 217 219 219
3.01794 -1.88501 1.15145 216 220 221
3.01475 -1.89491 1.15683 215 219 223
3.01155 -1.90483 1.16222 216 219 223
3.00834 -1.91479 1.16764 215 219 222
3.00513 -1.92478 1.17307 213 217 222
3.00190 -1.93480 1.17852 214 217 221
2.99866 -1.94486 1.18399 214 217 219
2.99541 -1.95494 1.18948 213 217 219
2.99215 -1.96506 1.19498 214 217 220
2.98888 -1.97522 1.20050 212 217 218
2.98560 -1.98540 1.20604 212 216 217
2.98231 -1.99562 1.21160 211 216 217
2.97901 -2.00588 1.21718 212 215 218
2.97569 -2.01616 1.22277 212 216 216
2.97237 -2.02648 1.22839 211 215 215
2.96904 -2.03684 1.23402 210 215 217
2.96569 -2.04723 1.23967 211 214 217
2.96233 -2.05765 1.24534 210 212 218
2.95896 -2.06811 1.25103 210 213 219
2.95558 -2.07860 1.25673 209 213 215
2.95219 -2.08913 1.26246 209 213 215
2.94879 -2.09969 1.26820 209 213 216
2.94538 -2.11029 1.27397 211 212 214
2.94195 -2.12092 1.27975 210 213 214
2.93852 -2.13159 1.28555 208 213 213
2.93507 -2.14230 1.29138 206 210 213
2.93161 -2.15304 1.29722 206 210 215
2.92814 -2.16381 1.30308 207 210 216
2.92466 -2.17463 1.30896 206 210 212
2.92116 -2.18548 1.31486 205 209 211
2.91766 -2.19636 1.32078 205 209 214
2.91414 -2.20728 1.32672 204 209 211
2.91061 -2.21824 1.33268 203 209 211
2.90707 -2.22924 1.33866 205 209 211
2.90351 -2.24028 1.34466 204 208 212
2.89995 -2.25135 1.35069 203 207 211
2.89637 -2.26246 1.35673 204 207 211
2.89278 -2.27361 1.36279 201 206 211
2.88917 -2.28479 1.36888 202 207 212
2.88556 -2.29602 1.37498 202 206 210
2.88193 -2.30728 1.38111 201 205 208
2.87829 -2.31858 1.38725 201 206 207
2.87464 -2.32993 1.39342 202 206 207
2.87097 -2.34131 1.39961 201 205 206
2.86729 -2.35273 1.40582 199 205 207
2.86360 -2.36418 1.41206 199 206 209
2.85990 -2.37568 1.41831 200 205 211
2.85618 -2.38722 1.42459 200 204 207
2.85245 -2.39880 1.43088 198 202 206
2.84871 -2.41042 1.43720 197 202 207
2.84495 -2.42208 1.44355 197 204 208
2.84119 -2.43378 1.44991 198 203 205
2.83740 -2.44553 1.45630 197 200 205
2.82980 -2.46914 1.46914 204 208 212
3.22364 -1.25115 0.79479 230 234 236
3.22108 -1.25912 0.79910 232 235 236
3.21851 -1.26710 0.80343 232 233 234
3.21594 -1.27511 0.80776 231 232 234
3.21335 -1.28314 0.81212 230 232 234
3.21076 -1.29119 0.81648 228 230 234
3.20816 -1.29927 0.82085 227 230 235
3.20555 -1.30737 0.82524 228 231 236
3.20294 -1.31550 0.82965 227 230 234
3.20031 -1.32365 0.83406 227 230 232
3.19768 -1.33182 0.83849 228 231 234
3.19505 -1.34002 0.84293 229 231 237
3.19240 -1.34824 0.84738 227 230 236
3.18975 -1.35649 0.85185 228 230 234
3.18709 -1.36476 0.85633 228 229 232
3.18442 -1.37305 0.86082 226 229 233
3.18174 -1.38137 0.86533 226 230 235
3.17906 -1.38971 0.86985 226 228 232
3.17636 -1.39808 0.87438 225 228 230
3.17366 -1.40647 0.87893 225 228 233
3.17095 -1.41489 0.88349 225 228 232
3.16824 -1.42334 0.88806 225 228 231
3.16551 -1.43180 0.89265 223 227 230
3.16278 -1.44030 0.89725 224 228 233
3.16004 -1.44882 0.90186 224 226 231
3.15729 -1.45736 0.90649 223 226 230
3.15453 -1.46593 0.91114 223 226 229
3.15176 -1.47453 0.91579 223 226 229
3.14899 -1.48315 0.92046 222 225 230
3.14621 -1.49180 0.92515 222 225 230
3.14341 -1.50047 0.92985 223 225 229
3.14061 -1.50917 0.93456 222 224 228
3.13781 -1.51790 0.93929 220 224 230
3.13499 -1.52665 0.94403 220 224 229
3.13216 -1.53543 0.94878 220 223 227
3.12933 -1.54423 0.95355 219 222 226
3.12649 -1.55307 0.95834 218 222 229
3.12364 -1.56193 0.96314 219 221 226
3.12078 -1.57081 0.96795 218 220 226
3.11791 -1.57973 0.97278 218 221 225
3.11503 -1.58867 0.97763 219 221 226
3.11214 -1.59764 0.98248 217 220 226
3.10925 -1.60664 0.98736 217 219 223
3.10635 -1.61566 0.99225 218 219 222
3.10343 -1.62471 0.99715 218 218 222
3.10051 -1.63379 1.00207 216 219 224
3.09758 -1.64290 1.00700 217 219 223
3.09464 -1.65204 1.01195 218 218 222
3.09169 -1.66120 1.01692 217 218 223
3.08873 -1.67039 1.02190 217 218 222
3.08576 -1.67962 1.02689 216 218 223
3.08279 -1.68887 1.03190 215 218 224
3.07980 -1.69815 1.03693 215 217 222
3.07681 -1.70745 1.04197 216 219 223
3.07380 -1.71679 1.04703 216 220 222
3.07079 -1.72616 1.05210 215 219 221
3.06776 -1.73556 1.05720 215 218 223
3.06473 -1.74498 1.06230 216 219 222
3.06169 -1.75444 1.06742 215 218 221
3.05863 -1.76392 1.07256 216 219 222
3.05557 -1.77344 1.07772 218 221 224
3.05250 -1.78298 1.08289 218 221 223
3.04942 -1.79256 1.08807 218 221 221
3.04633 -1.80217 1.09328 218 222 223
3.04323 -1.81180 1.09850 219 221 224
3.04012 -1.82147 1.10374 220 221 225
3.03700 -1.83117 1.10899 220 222 224
3.03386 -1.84090 1.11426 219 222 223
3.03072 -1.85066 1.11955 217 221 222
3.02757 -1.86045 1.12485 218 221 221
3.02441 -1.87027 1.13017 218 220 222
3.02124 -1.88013 1.13551 217 219 221
3.01806 -1.89002 1.14087 217 220 222
3.01487 -1.89993 1.14624 216 219 223
3.01166 -1.90989 1.15163 217 220 224
3.00845 -1.91987 1.15704 216 219 221
3.00523 -1.92988 1.16247 214 217 220
3.00200 -1.93993 1.16791 214 218 220
2.99875 -1.95001 1.17337 213 217 219
2.99550 -1.96013 1.17885 213 217 219
2.99223 -1.97027 1.18434 214 217 220
2.98896 -1.98045 1.18986 211 217 218
2.98567 -1.99066 1.19539 212 217 217
2.98237 -2.00091 1.20094 212 216 217
2.97906 -2.01119 1.20651 213 215 218
2.97574 -2.02151 1.21210 212 214 217
2.97241 -2.03185 1.21770 211 214 216
2.96907 -2.04224 1.22333 210 214 218
2.96572 -2.05265 1.22897 211 214 218
2.96236 -2.06310 1.23463 210 213 217
2.95898 -2.07359 1.24031 211 213 217
2.95560 -2.08411 1.24601 210 213 216
2.95220 -2.09467 1.25173 209 214 214
2.94879 -2.10526 1.25747 209 213 216
2.94537 -2.11588 1.26322 209 213 216
2.94194 -2.12655 1.26900 208 213 214
2.93850 -2.13724 1.27479 206 212 215
2.93505 -2.14798 1.28061 205 209 214
2.93158 -2.15875 1.28644 205 208 216
2.92810 -2.16955 1.29230 208 211 217
2.92461 -2.18039 1.29817 207 211 213
2.92111 -2.19127 1.30406 206 210 212
2.91760 -2.20219 1.30998 206 210 212
2.91408 -2.21314 1.31591 205 209 213
2.91054 -2.22413 1.32186 205 209 215
2.90699 -2.23516 1.32784 203 209 212
2.90343 -2.24623 1.33383 204 209 210
2.89986 -2.25733 1.33985 203 208 214
2.89627 -2.26847 1.34588 203 207 212
2.89267 -2.27965 1.35194 202 207 211
2.88906 -2.29087 1.35802 203 207 211
2.88544 -2.30212 1.36411 202 207 209
2.88181 -2.31342 1.37023 200 205 207
2.87816 -2.32475 1.37637 199 205 206
2.87450 -2.33613 1.38253 201 206 207
2.87083 -2.34754 1.38871 201 206 207
2.86714 -2.35899 1.39492 201 206 207
2.86344 -2.37048 1.40114 201 205 207
2.85973 -2.38201 1.40739 199 204 206
2.85601 -2.39359 1.41366 199 203 201
2.85227 -2.40520 1.41995 200 202 201
2.84852 -2.41685 1.42626 199 201 204
2.84476 -2.42855 1.43260 198 201 206
2.84098 -2.44028 1.43895 196 200 205
2.83719 -2.45206 1.44533 197 200 203
2.83339 -2.46388 1.45174 198 200 204
2.82957 -2.47573 1.45816 204 206 210
3.22408 -1.25465 0.78473 232 235 237
3.22151 -1.26263 0.78904 231 236 239
3.21894 -1.27063 0.79336 231 235 236
3.21636 -1.27865 0.79769 231 233 237
3.21377 -1.28670 0.80203 230 232 236
3.21118 -1.29478 0.80639 229 232 234
3.20857 -1.30287 0.81076 228 232 233
3.20596 -1.31099 0.81514 228 232 234
3.20334 -1.31914 0.81953 227 231 234
3.20072 -1.32730 0.82394 226 231 234
3.19808 -1.33550 0.82836 228 230 233
3.19544 -1.34371 0.83279 228 230 235
3.19279 -1.35195 0.83724 227 230 236
3.19014 -1.36022 0.84169 226 229 235
3.18747 -1.36850 0.84617 228 229 233
3.18480 -1.37682 0.85065 225 229 234
3.18212 -1.38516 0.85515 224 228 233
3.17943 -1.39352 0.85966 225 228 230
3.17673 -1.40190 0.86419 224 227 229
3.17403 -1.41032 0.86873 224 227 234
3.17131 -1.41875 0.87328 225 229 231
3.16859 -1.42722 0.87784 224 227 229
3.16586 -1.43570 0.88242 224 228 229
3.16313 -1.44422 0.88702 225 226 233
3.16038 -1.45276 0.89162 224 226 230
3.15763 -1.46132 0.89625 223 226 229
3.15487 -1.46991 0.90088 223 226 230
3.15210 -1.47853 0.90553 222 225 228
3.14932 -1.48717 0.91019 221 224 228
3.14653 -1.49584 0.91487 222 224 228
3.14374 -1.50453 0.91956 222 224 228
3.14093 -1.51325 0.92426 222 223 229
3.13812 -1.52200 0.92898 220 223 231
3.13530 -1.53077 0.93372 221 222 229
3.13247 -1.53957 0.93847 220 221 227
3.12963 -1.54840 0.94323 219 221 226
3.12678 -1.55725 0.94801 219 221 228
3.12393 -1.56613 0.95280 218 221 227
3.12106 -1.57504 0.95760 218 220 226
3.11819 -1.58398 0.96242 218 221 225
3.11531 -1.59294 0.96726 218 221 225
3.11242 -1.60193 0.97211 218 220 227
3.10952 -1.61095 0.97698 218 220 225
3.10661 -1.62000 0.98186 218 219 222
3.10369 -1.62907 0.98675 218 220 222
3.10077 -1.63817 0.99166 217 220 225
3.09783 -1.64730 0.99659 217 218 224
3.09489 -1.65646 1.00153 217 217 222
3.09193 -1.66565 1.00649 216 217 225
3.08897 -1.67486 1.01146 217 218 223
3.08600 -1.68411 1.01645 217 218 222
3.08302 -1.69338 1.02145 217 218 222
3.08003 -1.70268 1.02647 216 218 222
3.07703 -1.71201 1.03151 216 219 222
3.07402 -1.72137 1.03656 216 219 221
3.07100 -1.73076 1.04162 215 218 221
3.06797 -1.74018 1.04671 215 218 224
3.06493 -1.74963 1.05180 215 218 223
3.06188 -1.75911 1.05692 214 218 222
3.05883 -1.76862 1.06205 215 219 222
3.05576 -1.77816 1.06720 218 221 224
3.05268 -1.78773 1.07236 219 221 224
3.04960 -1.79733 1.07754 219 221 224
3.04650 -1.80696 1.08273 219 222 226
3.04339 -1.81662 1.08795 221 222 227
3.04028 -1.82631 1.09318 222 223 228
3.03715 -1.83604 1.09842 222 224 227
3.03401 -1.84579 1.10369 221 224 225
3.03087 -1.85558 1.10897 220 223 223
3.02771 -1.86539 1.11426 220 222 222
3.02455 -1.87524 1.11958 219 221 223
3.02137 -1.88512 1.12491 217 220 223
3.01818 -1.89503 1.13025 218 220 223
3.01498 -1.90498 1.13562 216 219 223
3.01178 -1.91496 1.14100 216 219 224
3.00856 -1.92496 1.14640 216 219 221
3.00533 -1.93501 1.15182 214 218 220
3.00209 -1.94508 1.15726 213 218 220
2.99884 -1.95519 1.16271 212 217 220
2.99558 -1.96533 1.16818 213 217 220
2.99231 -1.97550 1.17367 214 217 220
2.98903 -1.98571 1.17918 213 217 219
2.98574 -1.99595 1.18470 213 218 219
2.98243 -2.00622 1.19024 213 217 220
2.97912 -2.01653 1.19580 213 215 220
2.97580 -2.02687 1.20138 213 214 217
2.97246 -2.03724 1.20698 211 214 216
2.96911 -2.04765 1.21260 210 214 219
2.96575 -2.05810 1.21823 211 215 220
2.96238 -2.06858 1.22389 211 214 217
2.95900 -2.07909 1.22956 211 213 217
2.95561 -2.08964 1.23525 210 213 215
2.95221 -2.10022 1.24096 209 213 212
2.94880 -2.11084 1.24669 209 212 218
2.94537 -2.12150 1.25244 208 212 218
2.94193 -2.13219 1.25821 208 213 211
2.93848 -2.14292 1.26400 207 211 214
2.93502 -2.15368 1.26980 206 209 212
2.93155 -2.16448 1.27563 206 208 213
2.92807 -2.17531 1.28148 206 211 212
2.92457 -2.18618 1.28734 207 210 212
2.92106 -2.19709 1.29323 206 210 211
2.91755 -2.20804 1.29913 205 209 210
2.91401 -2.21902 1.30506 205 208 211
2.91047 -2.23004 1.31101 206 208 213
2.90691 -2.24110 1.31697 205 209 210
2.90335 -2.25220 1.32296 204 209 209
2.89977 -2.26333 1.32897 204 210 213
2.89618 -2.27450 1.33500 203 208 211
2.89257 -2.28571 1.34104 201 206 210
2.88895 -2.29696 1.34711 202 207 208
2.88533 -2.30825 1.35320 201 204 206
2.88168 -2.31958 1.35931 202 205 205
2.87803 -2.33094 1.36545 200 207 203
2.87436 -2.34235 1.37160 199 206 207
2.87068 -2.35379 1.37778 200 204 209
2.86699 -2.36528 1.38397 201 206 208
2.86328 -2.37680 1.39019 201 206 208
2.85957 -2.38837 1.39643 200 203 208
2.85584 -2.39997 1.40269 200 202 204
2.85209 -2.41162 1.40898 201 202 203
2.84833 -2.42331 1.41528 200 202 204
2.84456 -2.43503 1.42161 198 202 205
2.84078 -2.44680 1.42796 196 200 203
2.83698 -2.45861 1.43433 196 200 201
2.83317 -2.47046 1.44073 198 200 203
2.82935 -2.48236 1.44714 202 207 209
3.22451 -1.25815 0.77465 231 234 236
3.22194 -1.26615 0.77895 230 235 238
3.21937 -1.27417 0.78326 231 235 237
3.21678 -1.28221 0.78758 230 233 238
3.21419 -1.29028 0.79192 229 232 236
3.21159 -1.29837 0.79626 229 231 233
3.20899 -1.30648 0.80062 227 232 233
3.20637 -1.31462 0.80500 227 232 233
3.20375 -1.32278 0.80938 229 230 234
3.20112 -1.33097 0.81378 228 230 237
3.19848 -1.33918 0.81819 229 231 233
3.19584 -1.34741 0.82262 228 229 232
3.19318 -1.35567 0.82706 227 230 232
3.19052 -1.36396 0.83151 226 230 231
3.18786 -1.37226 0.83597 227 229 233
3.18518 -1.38060 0.84045 227 228 232
3.18249 -1.38895 0.84494 225 227 231
3.17980 -1.39733 0.84944 224 226 232
3.17710 -1.40574 0.85396 224 227 230
3.17439 -1.41417 0.85849 224 226 231
3.17168 -1.42263 0.86304 226 227 228
3.16895 -1.43111 0.86760 224 225 230
3.16622 -1.43962 0.87217 223 227 231
3.16348 -1.44815 0.87675 224 225 232
3.16073 -1.45671 0.88135 223 224 229
3.15797 -1.46529 0.88596 222 226 227
3.15520 -1.47390 0.89059 222 225 228
3.15243 -1.48254 0.89523 221 223 228
3.14965 -1.49120 0.89989 221 224 229
3.14686 -1.49989 0.90456 223 223 227
3.14406 -1.50860 0.90924 222 223 226
3.14125 -1.51735 0.91394 222 223 227
3.13843 -1.52611 0.91865 221 222 229
3.13561 -1.53491 0.92337 220 222 227
3.13278 -1.54373 0.92811 221 221 226
3.12993 -1.55258 0.93287 219 220 224
3.12708 -1.56145 0.93764 219 221 227
3.12422 -1.57035 0.94242 219 221 227
3.12135 -1.57928 0.94722 219 222 228
3.11848 -1.58824 0.95203 219 221 225
3.11559 -1.59722 0.95686 218 221 224
3.11270 -1.60624 0.96170 217 220 228
3.10979 -1.61528 0.96656 218 220 226
3.10688 -1.62434 0.97143 219 220 225
3.10396 -1.63344 0.97632 219 221 225
3.10103 -1.64256 0.98123 217 220 226
3.09809 -1.65172 0.98614 215 219 225
3.09514 -1.66090 0.99108 216 218 223
3.09218 -1.67011 0.99603 217 218 226
3.08921 -1.67935 1.00099 218 219 224
3.08623 -1.68861 1.00597 218 219 221
3.08325 -1.69791 1.01097 218 218 221
3.08025 -1.70723 1.01598 217 218 222
3.07725 -1.71659 1.02100 217 219 223
3.07423 -1.72597 1.02605 217 219 220
3.07121 -1.73539 1.03110 216 219 221
3.06817 -1.74483 1.03618 215 218 223
3.06513 -1.75430 1.04127 215 218 223
3.06208 -1.76380 1.04638 214 218 223
3.05902 -1.77334 1.05150 215 219 223
3.05594 -1.78290 1.05664 218 221 223
3.05286 -1.79249 1.06179 219 222 224
3.04977 -1.80212 1.06697 220 223 225
3.04667 -1.81177 1.07215 221 223 227
3.04356 -1.82146 1.07736 222 224 227
3.02468 -1.88023 1.10894 221 223 225
3.02150 -1.89013 1.11426 219 221 223
3.01831 -1.90007 1.11960 219 221 223
3.01510 -1.91004 1.12496 218 220 223
3.01189 -1.92004 1.13034 217 220 223
3.00867 -1.93008 1.13573 216 219 221
3.00543 -1.94015 1.14114 215 219 220
3.00219 -1.95025 1.14657 213 217 219
2.99893 -1.96038 1.15201 213 216 220
2.99567 -1.97055 1.15747 213 217 221
2.99239 -1.98075 1.16295 214 217 222
2.98910 -1.99098 1.16845 213 216 221
2.98581 -2.00125 1.17397 211 216 222
2.98250 -2.01155 1.17951 212 216 221
2.97918 -2.02188 1.18506 213 215 221
2.97585 -2.03225 1.19063 214 215 218
2.97250 -2.04265 1.19622 212 215 217
2.96915 -2.05309 1.20183 209 215 218
2.96579 -2.06356 1.20746 210 214 219
2.96241 -2.07407 1.21310 210 213 217
2.95902 -2.08461 1.21877 211 213 218
2.95563 -2.09519 1.22445 211 214 218
2.95222 -2.10580 1.23016 209 214 217
2.94880 -2.11645 1.23588 211 213 216
2.94537 -2.12713 1.24162 210 213 215
2.94192 -2.13785 1.24738 210 214 212
2.93847 -2.14861 1.25316 208 212 218
2.93500 -2.15940 1.25896 206 210 213
2.93152 -2.17023 1.26478 206 210 214
2.92803 -2.18109 1.27062 205 211 210
2.92453 -2.19200 1.27648 207 210 212
2.92102 -2.20294 1.28235 206 209 214
2.91749 -2.21391 1.28825 205 208 215
2.91395 -2.22492 1.29417 206 208 211
2.91040 -2.23598 1.30011 207 209 210
2.90684 -2.24706 1.30607 206 209 214
2.90327 -2.25819 1.31205 204 209 211
2.89968 -2.26936 1.31805 205 210 211
2.89608 -2.28056 1.32407 205 208 212
2.89247 -2.29180 1.33011 205 206 210
2.88884 -2.30308 1.33617 203 205 206
2.88521 -2.31440 1.34225 202 206 205
2.88156 -2.32576 1.34836 203 207 206
2.87790 -2.33716 1.35448 202 207 208
2.87422 -2.34860 1.36063 200 208 209
2.87054 -2.36007 1.36680 201 206 210
2.86684 -2.37159 1.37298 201 206 212
2.86313 -2.38315 1.37920 200 205 210
2.85940 -2.39475 1.38543 200 204 209
2.85566 -2.40638 1.39168 199 205 206
2.85191 -2.41806 1.39796 200 204 206
2.84814 -2.42978 1.40426 199 202 207
2.84437 -2.44154 1.41058 199 201 206
2.84057 -2.45335 1.41692 198 202 203
2.83677 -2.46519 1.42328 198 201 199
2.83295 -2.47708 1.42967 198 200 202
2.82912 -2.48901 1.43608 202 207 211
3.22495 -1.26166 0.76453 231 232 236
3.22238 -1.26968 0.76882 230 232 237
3.21980 -1.27772 0.77313 229 232 236
3.21721 -1.28578 0.77744 230 231 236
3.21461 -1.29386 0.78177 229 231 234
3.21201 -1.30197 0.78611 228 230 231
3.20940 -1.31011 0.79046 228 231 235
3.20678 -1.31826 0.79483 228 231 235
3.20416 -1.32644 0.79920 230 230 234
3.20152 -1.33465 0.80360 228 229 236
3.19888 -1.34288 0.80800 227 229 234
3.19624 -1.35113 0.81242 227 228 233
3.19358 -1.35941 0.81685 227 228 232
3.19091 -1.36771 0.82129 226 230 231
3.18824 -1.37603 0.82575 226 230 232
3.18556 -1.38439 0.83021 227 228 232
3.18287 -1.39276 0.83470 225 228 232
3.18018 -1.40116 0.83919 224 227 233
3.17747 -1.40959 0.84370 225 227 231
3.17476 -1.41804 0.84823 223 226 229
3.17204 -1.42652 0.85276 224 226 227
3.16931 -1.43502 0.85731 224 226 231
3.16657 -1.44354 0.86188 223 226 232
3.16383 -1.45210 0.86645 222 225 231
3.16108 -1.46068 0.87104 221 224 230
3.15831 -1.46928 0.87565 221 225 228
3.15555 -1.47791 0.88027 221 224 227
3.15277 -1.48657 0.88490 222 223 228
3.14998 -1.49525 0.88955 222 224 230
3.14719 -1.50396 0.89421 223 223 228
3.14438 -1.51269 0.89888 222 222 225
3.14157 -1.52145 0.90357 220 223 227
3.13875 -1.53024 0.90828 221 222 227
3.13592 -1.53906 0.91299 220 222 227
3.13308 -1.54790 0.91773 219 221 227
3.13024 -1.55677 0.92247 221 221 226
3.12738 -1.56566 0.92724 220 222 227
3.12452 -1.57459 0.93201 220 221 227
3.12164 -1.58354 0.93680 221 222 229
3.11876 -1.59252 0.94161 220 222 227
3.11587 -1.60152 0.94643 218 221 225
3.11297 -1.61056 0.95126 217 220 226
3.11006 -1.61962 0.95611 218 220 225
3.10715 -1.62871 0.96098 220 220 226
3.10422 -1.63783 0.96586 218 220 225
3.10128 -1.64697 0.97075 217 220 226
3.09834 -1.65615 0.97566 216 219 226
3.09539 -1.66535 0.98059 216 219 225
3.09242 -1.67458 0.98553 217 219 227
3.08945 -1.68384 0.99048 218 219 224
3.08647 -1.69313 0.99546 218 219 221
3.08348 -1.70245 1.00044 217 219 222
3.08048 -1.71180 1.00545 216 219 223
3.07747 -1.72118 1.01047 217 219 222
3.07445 -1.73059 1.01550 217 220 221
3.07142 -1.74002 1.02055 216 219 221
3.06838 -1.74949 1.02562 215 219 223
3.06533 -1.75899 1.03070 215 218 223
3.06228 -1.76851 1.03580 216 218 223
3.05921 -1.77807 1.04091 217 219 223
3.05613 -1.78766 1.04604 217 221 223
3.05304 -1.79727 1.05119 219 222 222
3.04995 -1.80692 1.05636 221 223 224
3.04684 -1.81660 1.06154 222 224 227
3.02163 -1.89516 1.10358 221 223 225
3.01843 -1.90513 1.10891 221 221 225
3.01522 -1.91512 1.11426 220 221 226
3.01200 -1.92515 1.11963 219 221 226
3.00877 -1.93521 1.12502 216 220 223
3.00553 -1.94530 1.13042 215 219 222
3.00228 -1.95543 1.13584 214 217 219
2.99902 -1.96559 1.14127 213 216 218
2.99575 -1.97578 1.14673 213 216 218
2.99247 -1.98601 1.15220 214 216 221
2.98918 -1.99627 1.15769 213 215 221
2.98587 -2.00656 1.16320 212 216 222
2.98256 -2.01689 1.16873 212 216 222
2.97923 -2.02725 1.17428 211 215 221
2.97590 -2.03765 1.17984 212 215 217
2.97255 -2.04808 1.18542 212 215 216
2.96919 -2.05855 1.19102 212 215 217
2.96582 -2.06905 1.19664 211 214 216
2.96244 -2.07958 1.20228 211 212 216
2.95905 -2.09015 1.20794 212 213 215
2.95564 -2.10076 1.21362 212 214 216
2.95223 -2.11140 1.21931 211 214 214
2.94880 -2.12208 1.22503 212 214 214
2.94536 -2.13279 1.23076 210 213 211
2.94191 -2.14354 1.23651 209 212 212
2.93845 -2.15432 1.24228 208 211 214
2.93498 -2.16514 1.24807 205 211 216
2.93149 -2.17600 1.25389 206 212 218
2.92800 -2.18690 1.25972 207 211 212
2.92449 -2.19783 1.26557 207 210 210
2.92097 -2.20880 1.27144 206 210 214
2.91743 -2.21980 1.27733 207 208 214
2.91389 -2.23085 1.28324 206 208 210
2.91033 -2.24193 1.28917 205 209 210
2.90676 -2.25305 1.29512 204 209 214
2.90318 -2.26421 1.30109 203 209 214
2.89959 -2.27540 1.30709 204 208 214
2.89598 -2.28664 1.31310 204 208 213
2.89237 -2.29791 1.31913 204 207 210
2.88873 -2.30922 1.32519 203 206 205
2.88509 -2.32057 1.33126 203 207 206
2.88144 -2.33197 1.33736 202 207 206
2.87777 -2.34340 1.34347 200 206 209
2.87409 -2.35487 1.34961 200 206 209
2.87039 -2.36638 1.35577 202 205 209
2.86668 -2.37793 1.36196 201 205 209
2.86296 -2.38952 1.36816 201 204 207
2.85923 -2.40115 1.37438 202 205 207
2.85549 -2.41282 1.38063 200 204 206
2.85173 -2.42453 1.38690 198 203 205
2.84795 -2.43629 1.39319 197 202 205
2.84417 -2.44808 1.39950 198 200 205
2.84037 -2.45992 1.40584 198 201 204
2.83656 -2.47180 1.41220 197 202 203
2.83273 -2.48372 1.41858 198 201 204
2.82889 -2.49568 1.42498 202 207 212
3.22539 -1.26519 0.75439 231 232 236
3.22281 -1.27322 0.75867 230 231 236
3.22023 -1.28128 0.76296 230 231 236
3.21764 -1.28936 0.76727 231 231 233
3.21504 -1.29746 0.77159 230 231 233
3.21243 -1.30559 0.77592 227 231 233
3.20982 -1.31374 0.78026 227 230 234
3.20720 -1.32192 0.78462 228 230 234
3.20457 -1.33011 0.78899 228 229 233
3.20193 -1.33834 0.79338 226 228 234
3.19929 -1.34658 0.79777 227 229 233
3.19663 -1.35486 0.80218 226 229 234
3.19397 -1.36315 0.80660 226 228 232
3.19131 -1.37147 0.81104 226 228 232
3.18863 -1.37982 0.81549 227 229 233
3.18595 -1.38819 0.81995 226 226 232
3.18325 -1.39658 0.82442 225 226 231
3.18055 -1.40500 0.82891 224 227 230
3.17785 -1.41345 0.83341 226 228 231
3.17513 -1.42192 0.83793 224 228 231
3.17240 -1.43042 0.84245 223 226 230
3.16967 -1.43894 0.84700 223 227 232
3.16693 -1.44748 0.85155 223 227 231
3.16418 -1.45606 0.85612 223 226 231
3.16143 -1.46465 0.86070 223 225 232
3.15866 -1.47328 0.86530 221 225 230
3.15589 -1.48193 0.86991 221 223 229
3.15310 -1.49061 0.87454 223 224 228
3.15031 -1.49931 0.87918 223 225 229
3.14751 -1.50804 0.88383 222 224 228
3.14471 -1.51679 0.88850 222 221 225
3.14189 -1.52558 0.89318 220 222 227
3.13907 -1.53438 0.89787 222 222 228
3.13623 -1.54322 0.90258 221 222 228
3.13339 -1.55208 0.90731 219 222 229
3.13054 -1.56097 0.91204 221 222 227
3.12768 -1.56989 0.91680 221 223 226
3.12481 -1.57884 0.92157 220 222 225
3.12193 -1.58781 0.92635 220 221 227
3.11905 -1.59681 0.93115 219 221 227
3.11615 -1.60584 0.93596 218 219 225
3.11325 -1.61489 0.94078 218 219 225
3.11034 -1.62398 0.94563 218 219 224
3.10741 -1.63309 0.95048 220 219 224
3.10448 -1.64223 0.95535 218 219 224
3.10154 -1.65140 0.96024 217 219 225
3.09859 -1.66059 0.96514 217 219 225
3.09564 -1.66982 0.97006 216 220 225
3.09267 -1.67907 0.97499 217 220 226
3.08969 -1.68836 0.97994 218 220 225
3.08670 -1.69767 0.98491 217 220 224
3.08371 -1.70701 0.98989 216 220 223
3.08070 -1.71638 0.99488 216 219 224
3.07769 -1.72578 0.99989 216 219 223
3.07467 -1.73522 1.00492 217 219 221
3.07163 -1.74468 1.00996 217 218 221
3.06859 -1.75417 1.01502 216 218 223
3.06554 -1.76369 1.02009 216 219 223
3.06247 -1.77324 1.02518 217 219 224
3.05940 -1.78282 1.03029 217 220 224
3.05632 -1.79243 1.03541 217 221 224
3.05323 -1.80207 1.04055 219 222 224
3.05013 -1.81174 1.04571 222 223 226
3.01855 -1.91020 1.09819 221 222 226
3.01534 -1.92022 1.10353 219 221 227
3.01212 -1.93027 1.10889 218 220 226
3.00888 -1.94036 1.11426 216 220 223
3.00564 -1.95048 1.11966 214 219 222
3.00238 -1.96063 1.12507 213 218 220
2.99911 -1.97082 1.13050 212 217 219
2.99584 -1.98104 1.13595 212 216 219
2.99255 -1.99129 1.14141 212 215 220
2.98925 -2.00158 1.14690 211 214 220
2.98594 -2.01190 1.15240 211 214 220
2.98262 -2.02226 1.15792 213 215 220
2.97929 -2.03265 1.16345 212 214 219
2.97595 -2.04307 1.16901 212 215 216
2.97259 -2.05353 1.17459 212 215 217
2.96923 -2.06402 1.18018 213 216 216
2.96585 -2.07455 1.18579 212 214 216
2.96247 -2.08511 1.19142 211 213 217
2.95907 -2.09571 1.19707 212 213 215
2.95566 -2.10635 1.20274 211 214 216
2.95223 -2.11702 1.20843 209 213 216
2.94880 -2.12772 1.21413 210 213 214
2.94536 -2.13847 1.21986 209 213 212
2.94190 -2.14924 1.22560 209 212 213
2.93843 -2.16006 1.23137 207 211 214
2.93495 -2.17091 1.23715 206 211 216
2.93146 -2.18180 1.24295 206 211 215
2.92796 -2.19272 1.24878 210 212 212
2.92444 -2.20368 1.25462 208 211 212
2.92092 -2.21468 1.26048 206 210 213
2.91738 -2.22572 1.26637 207 209 213
2.91383 -2.23679 1.27227 206 209 213
2.91026 -2.24791 1.27819 203 209 210
2.90669 -2.25906 1.28413 205 209 211
2.90310 -2.27025 1.29010 205 208 212
2.89950 -2.28147 1.29608 204 206 213
2.89589 -2.29274 1.30209 203 206 214
2.89226 -2.30404 1.30811 203 207 211
2.88862 -2.31539 1.31416 203 206 207
2.88497 -2.32677 1.32023 204 206 208
2.88131 -2.33819 1.32632 203 207 209
2.87763 -2.34966 1.33243 202 206 212
2.87395 -2.36116 1.33856 202 205 209
2.87025 -2.37270 1.34471 202 205 207
2.86653 -2.38429 1.35088 201 204 205
2.86280 -2.39591 1.35708 201 204 204
2.85906 -2.40757 1.36330 200 203 209
2.85531 -2.41928 1.36954 199 203 208
2.85154 -2.43103 1.37580 198 201 206
2.84776 -2.44281 1.38208 199 201 206
2.84397 -2.45464 1.38839 198 201 206
2.84016 -2.46652 1.39471 197 201 206
2.83634 -2.47843 1.40106 198 202 205
2.83251 -2.49038 1.40744 198 202 206
2.82866 -2.50238 1.41383 202 207 210
3.22583 -1.26873 0.74421 230 232 235
3.22325 -1.27678 0.74848 230 231 235
3.22066 -1.28485 0.75277 230 232 236
3.21807 -1.29295 0.75707 230 232 234
3.21546 -1.30107 0.76138 228 231 234
3.21285 -1.30922 0.76570 227 230 233
3.21024 -1.31739 0.77004 228 230 232
3.20761 -1.32558 0.77439 227 228 231
3.20498 -1.33380 0.77875 228 228 232
3.20234 -1.34204 0.78312 227 228 234
3.19969 -1.35030 0.78751 227 229 234
3.19703 -1.35859 0.79191 225 228 233
3.19437 -1.36691 0.79633 224 227 230
3.19170 -1.37525 0.80075 225 227 233
3.18902 -1.38361 0.80519 226 229 234
3.18633 -1.39200 0.80965 223 227 232
3.18363 -1.40042 0.81411 225 225 229
3.18093 -1.40886 0.81859 225 226 228
3.17822 -1.41732 0.82309 225 227 229
3.17550 -1.42581 0.82759 224 227 230
3.17277 -1.43433 0.83211 224 226 232
3.17003 -1.44287 0.83665 223 227 231
3.16729 -1.45143 0.84119 223 227 231
3.16454 -1.46003 0.84576 224 226 230
3.16178 -1.46865 0.85033 224 226 230
3.15901 -1.47729 0.85492 222 225 229
3.15623 -1.48596 0.85952 222 224 231
3.15344 -1.49466 0.86414 222 224 229
3.15065 -1.50338 0.86877 223 225 230
3.14784 -1.51213 0.87341 222 225 228
3.14503 -1.52091 0.87807 222 222 226
3.14221 -1.52971 0.88275 220 221 227
3.13938 -1.53854 0.88743 221 221 227
3.13654 -1.54740 0.89213 221 222 228
3.13370 -1.55628 0.89685 220 222 228
3.13084 -1.56519 0.90158 220 221 226
3.12798 -1.57413 0.90633 220 221 226
3.12511 -1.58310 0.91109 219 221 227
3.12223 -1.59209 0.91586 219 221 228
3.11934 -1.60111 0.92065 217 220 227
3.11644 -1.61016 0.92545 219 220 226
3.11353 -1.61924 0.93027 218 219 226
3.11061 -1.62835 0.93511 218 219 225
3.10768 -1.63748 0.93995 219 219 224
3.10475 -1.64664 0.94482 218 218 223
3.10180 -1.65584 0.94970 217 219 226
3.09885 -1.66505 0.95459 218 219 226
3.09589 -1.67430 0.95950 217 220 224
3.09291 -1.68358 0.96442 218 220 224
3.08993 -1.69289 0.96936 218 221 225
3.08694 -1.70222 0.97432 217 220 224
3.08394 -1.71159 0.97929 217 219 223
3.08093 -1.72098 0.98428 217 218 223
3.07791 -1.73041 0.98928 217 218 223
3.07488 -1.73986 0.99430 217 219 221
3.07185 -1.74934 0.99933 217 218 222
3.06880 -1.75886 1.00438 217 218 224
3.06574 -1.76840 1.00945 216 219 223
3.06267 -1.77798 1.01453 217 219 223
3.05959 -1.78758 1.01963 218 220 225
3.05651 -1.79722 1.02475 219 222 226
3.05341 -1.80688 1.02988 222 224 229
3.01868 -1.91529 1.08742 220 223 225
3.01546 -1.92534 1.09276 218 220 224
3.01223 -1.93542 1.09811 217 219 223
3.00899 -1.94553 1.10348 215 219 222
3.00574 -1.95568 1.10886 214 217 220
3.00248 -1.96586 1.11427 213 216 218
2.99921 -1.97607 1.11969 212 216 217
2.99592 -1.98632 1.12513 212 216 221
2.99263 -1.99660 1.13058 212 215 219
2.98933 -2.00691 1.13606 210 213 219
2.98601 -2.01726 1.14155 208 214 218
2.98268 -2.02764 1.14706 211 215 217
2.97935 -2.03806 1.15259 211 214 219
2.97600 -2.04851 1.15814 212 214 217
2.97264 -2.05900 1.16371 211 214 218
2.96927 -2.06952 1.16929 212 215 219
2.96589 -2.08008 1.17490 211 214 219
2.96249 -2.09067 1.18052 212 215 216
2.95909 -2.10129 1.18616 211 214 217
2.95567 -2.11196 1.19182 210 215 218
2.95224 -2.12266 1.19750 210 214 218
2.94880 -2.13339 1.20320 210 213 215
2.94535 -2.14416 1.20892 208 213 214
2.94189 -2.15497 1.21465 208 213 214
2.93842 -2.16581 1.22041 208 212 216
2.93493 -2.17669 1.22619 206 211 218
2.93143 -2.18761 1.23198 208 210 215
2.92792 -2.19857 1.23780 209 211 214
2.92440 -2.20956 1.24363 207 212 214
2.92087 -2.22059 1.24949 207 211 211
2.91732 -2.23166 1.25536 209 209 209
2.91376 -2.24276 1.26126 208 210 213
2.91019 -2.25391 1.26717 206 210 210
2.90661 -2.26509 1.27311 206 209 209
2.90302 -2.27631 1.27906 206 209 211
2.89941 -2.28757 1.28504 205 208 211
2.89579 -2.29886 1.29104 204 209 212
2.89216 -2.31020 1.29706 204 207 213
2.88851 -2.32158 1.30309 203 207 209
2.88486 -2.33299 1.30915 202 207 208
2.88119 -2.34445 1.31523 202 207 209
2.87750 -2.35594 1.32134 202 207 209
2.87381 -2.36748 1.32746 201 207 209
2.87010 -2.37905 1.33360 201 206 208
2.86638 -2.39067 1.33977 200 206 206
2.86264 -2.40233 1.34596 200 206 205
2.85889 -2.41403 1.35217 201 205 208
2.85513 -2.42576 1.35840 200 204 207
2.85136 -2.43754 1.36465 199 203 206
2.84757 -2.44937 1.37093 200 203 207
2.84377 -2.46123 1.37723 199 202 206
2.83996 -2.47314 1.38355 199 202 204
2.83613 -2.48509 1.38989 199 201 202
2.83229 -2.49708 1.39626 198 201 203
2.82843 -2.50911 1.40264 202 207 211
3.22627 -1.27228 0.73399 228 231 235
3.22368 -1.28034 0.73826 228 231 235
3.22109 -1.28844 0.74254 229 231 236
3.21850 -1.29655 0.74683 229 230 233
3.21589 -1.30469 0.75113 227 228 233
3.21328 -1.31286 0.75545 226 229 234
3.21066 -1.32104 0.75978 227 229 232
3.20803 -1.32926 0.76412 228 230 229
3.20539 -1.33749 0.76847 226 229 233
3.20275 -1.34575 0.77284 227 228 237
3.20009 -1.35404 0.77722 226 230 235
3.19744 -1.36235 0.78161 226 228 234
3.19477 -1.37068 0.78602 226 228 231
3.19209 -1.37904 0.79043 226 228 233
3.18941 -1.38742 0.79487 227 228 231
3.18672 -1.39583 0.79931 224 228 231
3.18402 -1.40426 0.80377 226 227 230
3.18131 -1.41272 0.80824 225 226 229
3.17859 -1.42121 0.81273 223 225 230
3.17587 -1.42972 0.81723 224 225 230
3.17314 -1.43825 0.82174 222 226 234
3.17040 -1.44681 0.82626 223 226 231
3.16765 -1.45540 0.83080 223 225 229
3.16489 -1.46401 0.83536 223 226 229
3.16213 -1.47265 0.83992 223 226 230
3.15935 -1.48132 0.84450 221 224 229
3.15657 -1.49001 0.84910 221 224 232
3.15378 -1.49872 0.85371 221 224 229
3.15098 -1.50747 0.85833 223 224 230
3.14817 -1.51624 0.86296 222 224 229
3.14536 -1.52504 0.86761 221 222 229
3.14253 -1.53386 0.87228 219 221 228
3.13970 -1.54271 0.87696 220 221 228
3.13686 -1.55159 0.88165 220 222 227
3.13401 -1.56049 0.88636 220 222 225
3.13115 -1.56943 0.89108 220 220 225
3.12828 -1.57839 0.89582 220 221 227
3.12540 -1.58738 0.90057 219 221 228
3.12252 -1.59639 0.90534 219 221 228
3.11962 -1.60543 0.91012 217 220 226
3.11672 -1.61451 0.91491 218 220 224
3.11381 -1.62361 0.91972 218 220 226
3.11089 -1.63273 0.92455 219 220 226
3.10795 -1.64189 0.92939 219 219 224
3.10501 -1.65107 0.93424 217 218 224
3.10206 -1.66029 0.93912 217 218 226
3.09911 -1.66953 0.94400 217 219 227
3.09614 -1.67880 0.94890 217 219 223
3.09316 -1.68810 0.95382 218 220 223
3.09018 -1.69743 0.95875 218 220 223
3.08718 -1.70679 0.96370 218 219 223
3.08417 -1.71618 0.96866 217 218 221
3.08116 -1.72560 0.97364 217 219 221
3.07814 -1.73504 0.97863 217 219 223
3.07510 -1.74452 0.98365 217 219 223
3.07206 -1.75403 0.98867 217 218 225
3.06901 -1.76357 0.99371 217 218 226
3.06594 -1.77314 0.99877 217 218 222
3.06287 -1.78273 1.00385 218 219 222
3.05979 -1.79236 1.00894 220 221 225
3.05670 -1.80202 1.01404 222 224 228
3.01881 -1.92040 1.07662 218 221 223
3.01558 -1.93047 1.08195 217 220 221
3.01235 -1.94058 1.08729 216 219 220
3.00910 -1.95072 1.09265 215 218 219
3.00584 -1.96089 1.09803 213 217 218
3.00258 -1.97110 1.10342 213 215 218
2.99930 -1.98134 1.10884 212 215 218
2.99601 -1.99161 1.11427 212 215 219
2.99271 -2.00192 1.11972 212 215 218
2.98940 -2.01226 1.12518 211 214 218
2.98608 -2.02263 1.13067 210 215 218
