ply
format ascii 1.0
element face 0
property list uchar int vertex_indices
element vertex 1300
property float x
property float y
property float z
property uchar diffuse_red
property uchar diffuse_green
property uchar diffuse_blue
end_header
-0.78080 -4.48337 0.53915 97 97 96
-0.79455 -4.48849 0.54157 90 95 96
-0.80828 -4.49361 0.54399 90 101 102
-0.82201 -4.49873 0.54641 98 105 106
-0.83573 -4.50384 0.54883 99 104 103
-0.84945 -4.50895 0.55125 98 104 101
-0.86316 -4.51406 0.55367 95 95 102
-0.87686 -4.51917 0.55608 97 93 98
-0.89055 -4.52428 0.55850 99 98 93
-0.90424 -4.52938 0.56091 97 98 94
-0.91792 -4.53448 0.56333 94 97 94
-0.93160 -4.53958 0.56574 95 97 91
-0.94527 -4.54467 0.56815 95 97 90
-0.95893 -4.54977 0.57056 94 94 95
-0.97258 -4.55485 0.57296 95 92 101
-0.98623 -4.55994 0.57537 95 93 99
-0.99987 -4.56503 0.57777 94 93 99
-1.01350 -4.57011 0.58018 94 92 96
-1.02713 -4.57519 0.58258 88 86 84
-1.04075 -4.58027 0.58498 81 85 83
-1.05436 -4.58534 0.58738 85 88 90
-1.06797 -4.59041 0.58978 91 93 87
-1.08157 -4.59548 0.59218 91 94 89
-1.09517 -4.60055 0.59458 86 88 92
-1.10875 -4.60562 0.59697 86 86 99
-1.12233 -4.61068 0.59937 89 88 95
-1.13591 -4.61574 0.60176 88 88 85
-1.14947 -4.62080 0.60415 87 89 86
-1.16303 -4.62585 0.60654 95 95 97
-1.17659 -4.63090 0.60893 99 96 90
-1.19013 -4.63595 0.61132 90 89 81
-1.20367 -4.64100 0.61371 87 87 89
-1.21720 -4.64604 0.61610 89 91 91
-1.23073 -4.65109 0.61848 88 91 89
-1.24425 -4.65613 0.62087 88 89 86
-1.25776 -4.66116 0.62325 91 91 85
-1.27127 -4.66620 0.62563 90 92 87
-1.28477 -4.67123 0.62801 90 93 89
-1.29826 -4.67626 0.63039 87 88 80
-1.31175 -4.68129 0.63277 82 83 73
-1.32523 -4.68631 0.63514 79 85 85
-1.33870 -4.69134 0.63752 86 86 86
-1.35217 -4.69636 0.63989 92 88 89
-1.36563 -4.70137 0.64227 87 85 89
-1.37908 -4.70639 0.64464 82 80 83
-1.39253 -4.71140 0.64701 76 79 75
-1.40597 -4.71641 0.64938 81 83 82
-1.41940 -4.72142 0.65175 88 83 88
-1.43283 -4.72642 0.65412 86 86 87
-1.44625 -4.73143 0.65648 86 88 83
-1.45966 -4.73643 0.65885 78 80 83
-1.47307 -4.74142 0.66121 75 80 81
-1.48647 -4.74642 0.66358 78 78 70
-1.49987 -4.75141 0.66594 81 77 77
-1.51325 -4.75640 0.66830 76 81 85
-1.52663 -4.76139 0.67066 80 83 87
1.05758 -3.78397 0.20296 129 132 133
1.04296 -3.78942 0.20555 133 136 140
1.02834 -3.79488 0.20813 132 138 155
1.01373 -3.80033 0.21071 124 129 145
0.99913 -3.80577 0.21328 119 125 132
0.98453 -3.81122 0.21586 121 131 133
0.96994 -3.81666 0.21844 138 146 150
0.95536 -3.82210 0.22101 135 140 150
0.94079 -3.82754 0.22358 133 145 144
0.92622 -3.83297 0.22615 129 137 142
0.91166 -3.83840 0.22872 123 129 143
0.89711 -3.84383 0.23129 124 134 145
0.88257 -3.84925 0.23386 124 129 137
0.86803 -3.85468 0.23643 122 115 119
0.85350 -3.86010 0.23899 118 119 137
0.83898 -3.86551 0.24155 138 147 153
0.82447 -3.87093 0.24412 148 147 148
0.80996 -3.87634 0.24668 123 127 130
0.79546 -3.88175 0.24924 120 131 138
0.78097 -3.88715 0.25180 135 132 132
0.76648 -3.89255 0.25435 136 134 137
0.75201 -3.89795 0.25691 129 131 138
0.73754 -3.90335 0.25946 131 138 146
0.72308 -3.90875 0.26202 127 136 137
0.70862 -3.91414 0.26457 128 136 140
0.69417 -3.91953 0.26712 132 142 134
0.67973 -3.92491 0.26967 129 127 134
0.66530 -3.93030 0.27222 123 118 133
0.65087 -3.93568 0.27476 115 116 125
0.63646 -3.94106 0.27731 117 127 136
0.62204 -3.94643 0.27985 122 131 131
0.60764 -3.95181 0.28240 111 114 133
0.59325 -3.95718 0.28494 112 115 141
0.57886 -3.96254 0.28748 120 131 139
0.56447 -3.96791 0.29002 124 127 137
0.55010 -3.97327 0.29255 123 127 131
0.53573 -3.97863 0.29509 117 123 127
0.52137 -3.98399 0.29762 122 128 132
0.50702 -3.98934 0.30016 129 138 135
0.49268 -3.99469 0.30269 131 132 130
0.47834 -4.00004 0.30522 131 130 133
0.46401 -4.00538 0.30775 131 133 134
0.44968 -4.01073 0.31028 131 136 135
0.43537 -4.01607 0.31281 129 135 144
0.42106 -4.02140 0.31533 134 136 147
0.40676 -4.02674 0.31786 138 138 143
0.39246 -4.03207 0.32038 130 126 133
0.37818 -4.03740 0.32290 118 120 125
0.36390 -4.04273 0.32543 116 121 126
0.34962 -4.04805 0.32794 124 128 140
0.33536 -4.05337 0.33046 129 134 139
0.32110 -4.05869 0.33298 124 131 129
0.30685 -4.06401 0.33550 116 125 124
0.29261 -4.06932 0.33801 112 120 125
0.27837 -4.07463 0.34052 119 130 132
0.26414 -4.07994 0.34304 120 126 134
0.24992 -4.08524 0.34555 126 135 141
0.23570 -4.09055 0.34806 122 125 138
0.22150 -4.09585 0.35056 121 121 129
0.20729 -4.10114 0.35307 121 115 123
0.19310 -4.10644 0.35558 121 124 133
0.17891 -4.11173 0.35808 134 133 136
0.16474 -4.11702 0.36058 122 124 124
0.15056 -4.12231 0.36309 114 126 118
0.13640 -4.12759 0.36559 130 131 118
0.12224 -4.13287 0.36809 121 118 118
0.10809 -4.13815 0.37058 112 109 119
0.09395 -4.14342 0.37308 104 104 114
0.07981 -4.14870 0.37558 124 130 128
0.06568 -4.15397 0.37807 127 132 124
0.05156 -4.15924 0.38056 114 119 129
0.03744 -4.16450 0.38306 121 125 129
0.02334 -4.16976 0.38555 120 120 123
0.00924 -4.17502 0.38804 111 116 123
-0.00486 -4.18028 0.39052 114 118 126
-0.01894 -4.18553 0.39301 120 125 129
-0.03302 -4.19079 0.39550 128 129 136
-0.04710 -4.19604 0.39798 124 122 133
-0.06116 -4.20128 0.40046 119 118 127
-0.07522 -4.20653 0.40295 117 116 126
-0.08927 -4.21177 0.40543 120 121 128
-0.10332 -4.21701 0.40791 124 129 130
-0.11735 -4.22224 0.41038 123 128 124
-0.13138 -4.22748 0.41286 119 120 113
-0.14541 -4.23271 0.41534 111 114 102
-0.15942 -4.23794 0.41781 108 111 112
-0.17343 -4.24316 0.42028 115 118 126
-0.18743 -4.24838 0.42276 123 127 125
-0.20143 -4.25361 0.42523 125 130 123
-0.21542 -4.25882 0.42770 113 116 124
-0.22940 -4.26404 0.43016 106 106 123
-0.24337 -4.26925 0.43263 110 112 119
-0.25734 -4.27446 0.43510 110 112 116
-0.27130 -4.27967 0.43756 107 109 119
-0.28525 -4.28487 0.44002 110 113 116
-0.29920 -4.29007 0.44249 109 112 111
-0.31314 -4.29527 0.44495 105 110 110
-0.32707 -4.30047 0.44741 105 110 111
-0.34099 -4.30567 0.44986 109 111 115
-0.35491 -4.31086 0.45232 107 109 115
-0.36882 -4.31605 0.45478 108 108 118
-0.38273 -4.32123 0.45723 114 110 113
-0.39662 -4.32642 0.45969 118 117 111
-0.41051 -4.33160 0.46214 108 114 116
-0.42440 -4.33678 0.46459 108 113 117
-0.43827 -4.34195 0.46704 113 120 127
-0.45214 -4.34713 0.46949 114 112 116
-0.46601 -4.35230 0.47193 108 109 113
-0.47986 -4.35747 0.47438 104 108 114
-0.49371 -4.36263 0.47683 110 112 103
-0.50755 -4.36780 0.47927 104 101 110
-0.52139 -4.37296 0.48171 111 108 102
-0.53522 -4.37811 0.48415 112 107 103
-0.54904 -4.38327 0.48659 111 109 106
-0.56285 -4.38842 0.48903 109 110 105
-0.57666 -4.39357 0.49147 106 112 109
-0.59046 -4.39872 0.49390 109 116 105
-0.60425 -4.40387 0.49634 104 110 95
-0.61804 -4.40901 0.49877 103 102 97
-0.63182 -4.41415 0.50121 105 104 99
-0.64559 -4.41929 0.50364 104 98 103
-0.65936 -4.42442 0.50607 107 103 107
-0.67312 -4.42956 0.50850 103 102 94
-0.68687 -4.43469 0.51093 107 106 100
-0.70062 -4.43981 0.51335 102 99 95
-0.71436 -4.44494 0.51578 98 97 93
-0.72809 -4.45006 0.51820 97 97 97
-0.74181 -4.45518 0.52062 99 103 102
-0.75553 -4.46030 0.52305 100 101 103
-0.76924 -4.46541 0.52547 98 101 102
-0.78295 -4.47052 0.52789 98 104 104
-0.79665 -4.47563 0.53030 93 99 99
-0.81034 -4.48074 0.53272 92 98 102
-0.82402 -4.48585 0.53514 97 105 109
-0.83770 -4.49095 0.53755 100 104 106
-0.85137 -4.49605 0.53997 99 103 103
-0.86504 -4.50114 0.54238 97 99 108
-0.87869 -4.50624 0.54479 98 96 106
-0.89234 -4.51133 0.54720 98 97 96
-0.90599 -4.51642 0.54961 95 95 90
-0.91963 -4.52151 0.55202 95 95 91
-0.93326 -4.52659 0.55442 98 100 93
-0.94688 -4.53167 0.55683 99 103 92
-0.96050 -4.53675 0.55923 97 98 93
-0.97411 -4.54183 0.56163 92 92 93
-0.98771 -4.54690 0.56403 89 88 94
-1.00131 -4.55198 0.56644 93 89 101
-1.01490 -4.55705 0.56883 96 92 97
-1.02848 -4.56211 0.57123 91 90 87
-1.04206 -4.56718 0.57363 88 89 86
-1.05563 -4.57224 0.57602 89 92 87
-1.06919 -4.57730 0.57842 95 95 87
-1.08275 -4.58236 0.58081 92 90 82
-1.09630 -4.58741 0.58320 81 81 81
-1.10984 -4.59246 0.58560 84 84 96
-1.12338 -4.59751 0.58799 85 86 93
-1.13691 -4.60256 0.59037 87 88 82
-1.15043 -4.60760 0.59276 88 89 83
-1.16395 -4.61264 0.59515 96 95 100
-1.17746 -4.61768 0.59753 99 96 95
-1.19096 -4.62272 0.59992 90 88 82
-1.20446 -4.62776 0.60230 86 85 83
-1.21795 -4.63279 0.60468 87 88 87
-1.23143 -4.63782 0.60706 84 85 85
-1.24491 -4.64284 0.60944 85 86 87
-1.25838 -4.64787 0.61182 88 91 90
-1.27184 -4.65289 0.61419 90 97 95
-1.28530 -4.65791 0.61657 91 96 93
-1.29875 -4.66293 0.61894 87 87 77
-1.31219 -4.66794 0.62132 86 84 74
-1.32563 -4.67295 0.62369 88 89 90
-1.33906 -4.67796 0.62606 88 87 94
-1.35248 -4.68297 0.62843 88 83 89
-1.36590 -4.68798 0.63080 89 86 93
-1.37931 -4.69298 0.63317 88 87 91
-1.39271 -4.69798 0.63553 83 83 86
-1.40611 -4.70298 0.63790 84 84 88
-1.41950 -4.70797 0.64026 86 85 86
-1.43289 -4.71296 0.64263 82 87 88
-1.44627 -4.71795 0.64499 83 89 88
-1.45964 -4.72294 0.64735 86 91 86
-1.47300 -4.72793 0.64971 79 80 84
-1.48636 -4.73291 0.65207 77 76 81
-1.49971 -4.73789 0.65442 80 75 86
-1.51306 -4.74287 0.65678 86 83 87
-1.52639 -4.74784 0.65913 83 83 77
1.10769 -3.75126 0.18216 126 131 144
1.09308 -3.75671 0.18474 128 130 142
1.07849 -3.76216 0.18732 135 137 139
1.06390 -3.76761 0.18990 131 136 141
1.04931 -3.77305 0.19247 122 129 137
1.03474 -3.77849 0.19505 129 136 134
1.02017 -3.78393 0.19762 133 136 144
1.00561 -3.78936 0.20020 131 135 146
0.99106 -3.79479 0.20277 126 128 135
0.97651 -3.80022 0.20534 124 127 133
0.96197 -3.80565 0.20791 134 137 141
0.94744 -3.81107 0.21048 131 129 141
0.93292 -3.81650 0.21305 122 127 142
0.91840 -3.82191 0.21561 113 122 139
0.90389 -3.82733 0.21818 119 125 138
0.88939 -3.83274 0.22074 127 133 143
0.87490 -3.83815 0.22330 129 134 141
0.86041 -3.84356 0.22586 131 132 133
0.84593 -3.84896 0.22842 125 130 143
0.83146 -3.85437 0.23098 133 141 160
0.81700 -3.85977 0.23354 142 146 153
0.80254 -3.86516 0.23609 124 123 139
0.78809 -3.87056 0.23864 123 136 147
0.77365 -3.87595 0.24120 136 135 137
0.75921 -3.88133 0.24375 133 137 148
0.74478 -3.88672 0.24630 128 126 135
0.73036 -3.89210 0.24885 131 130 144
0.71595 -3.89748 0.25139 127 128 136
0.70154 -3.90286 0.25394 131 134 144
0.68715 -3.90823 0.25649 136 132 140
0.67275 -3.91361 0.25903 143 141 149
0.65837 -3.91897 0.26157 127 126 129
0.64399 -3.92434 0.26411 110 115 128
0.62962 -3.92970 0.26665 121 123 137
0.61526 -3.93506 0.26919 129 135 131
0.60091 -3.94042 0.27173 121 128 132
0.58656 -3.94578 0.27426 115 125 137
0.57222 -3.95113 0.27680 119 127 137
0.55789 -3.95648 0.27933 121 124 136
0.54356 -3.96183 0.28186 121 127 132
0.52924 -3.96717 0.28439 124 127 136
0.51493 -3.97251 0.28692 129 129 137
0.50063 -3.97785 0.28945 125 125 135
0.48633 -3.98319 0.29198 118 121 126
0.47204 -3.98852 0.29450 120 124 130
0.45776 -3.99386 0.29703 125 128 137
0.44349 -3.99918 0.29955 128 132 139
0.42922 -4.00451 0.30207 128 132 146
0.41496 -4.00983 0.30459 131 138 144
0.40070 -4.01515 0.30711 132 139 140
0.38646 -4.02047 0.30963 127 125 138
0.37222 -4.02579 0.31215 120 124 133
0.35799 -4.03110 0.31466 119 125 129
0.34376 -4.03641 0.31718 122 124 129
0.32954 -4.04171 0.31969 123 124 129
0.31533 -4.04702 0.32220 119 123 129
0.30113 -4.05232 0.32471 119 121 128
0.28693 -4.05762 0.32722 120 125 133
0.27275 -4.06291 0.32973 125 137 139
0.25856 -4.06821 0.33224 131 138 145
0.24439 -4.07350 0.33474 126 136 140
0.23022 -4.07879 0.33725 117 128 139
0.21606 -4.08407 0.33975 120 125 135
0.20191 -4.08936 0.34225 119 122 131
0.18776 -4.09464 0.34475 116 124 132
0.17362 -4.09991 0.34725 127 129 138
0.15949 -4.10519 0.34975 123 122 117
0.14537 -4.11046 0.35224 109 115 82
0.13125 -4.11573 0.35474 119 119 119
0.11714 -4.12100 0.35723 119 116 125
0.10304 -4.12626 0.35973 116 120 125
0.08894 -4.13152 0.36222 119 120 126
0.07485 -4.13678 0.36471 119 126 136
0.06077 -4.14204 0.36720 123 128 124
0.04669 -4.14729 0.36968 116 119 122
0.03263 -4.15254 0.37217 122 124 126
0.01856 -4.15779 0.37466 119 127 126
0.00451 -4.16304 0.37714 114 115 129
-0.00954 -4.16828 0.37962 114 114 129
-0.02358 -4.17352 0.38210 117 114 128
-0.03761 -4.17876 0.38458 126 124 127
-0.05164 -4.18399 0.38706 127 127 126
-0.06565 -4.18923 0.38954 124 124 125
-0.07967 -4.19446 0.39202 124 125 124
-0.09367 -4.19969 0.39449 125 128 125
-0.10767 -4.20491 0.39697 126 129 128
-0.12166 -4.21013 0.39944 124 127 126
-0.13564 -4.21535 0.40191 119 122 117
-0.14962 -4.22057 0.40438 110 116 108
-0.16359 -4.22578 0.40685 102 108 114
-0.17755 -4.23100 0.40932 109 112 127
-0.19151 -4.23620 0.41179 118 124 131
-0.20546 -4.24141 0.41425 117 125 125
-0.21940 -4.24662 0.41671 109 113 119
-0.23333 -4.25182 0.41918 105 105 120
-0.24726 -4.25702 0.42164 111 110 118
-0.26118 -4.26221 0.42410 111 117 118
-0.27510 -4.26741 0.42656 106 115 117
-0.28900 -4.27260 0.42902 111 115 110
-0.30290 -4.27778 0.43147 115 115 108
-0.31680 -4.28297 0.43393 113 113 103
-0.33068 -4.28815 0.43638 113 111 105
-0.34456 -4.29333 0.43884 113 114 121
-0.35844 -4.29851 0.44129 107 112 125
-0.37230 -4.30369 0.44374 102 105 115
-0.38616 -4.30886 0.44619 106 105 109
-0.40001 -4.31403 0.44864 108 106 108
-0.41386 -4.31920 0.45108 104 104 108
-0.42769 -4.32437 0.45353 109 107 105
-0.44153 -4.32953 0.45598 114 121 115
-0.45535 -4.33469 0.45842 115 115 113
-0.46917 -4.33985 0.46086 109 110 113
-0.48298 -4.34500 0.46330 108 109 116
-0.49678 -4.35015 0.46574 112 110 113
-0.51058 -4.35530 0.46818 104 104 116
-0.52437 -4.36045 0.47062 107 107 104
-0.53815 -4.36559 0.47305 114 109 113
-0.55193 -4.37074 0.47549 109 111 111
-0.56570 -4.37588 0.47792 108 109 116
-0.57946 -4.38101 0.48035 101 109 112
-0.59321 -4.38615 0.48279 107 111 102
-0.60696 -4.39128 0.48522 107 106 90
-0.62071 -4.39641 0.48764 109 112 102
-0.63444 -4.40154 0.49007 112 111 99
-0.64817 -4.40666 0.49250 106 101 101
-0.66189 -4.41178 0.49492 106 110 108
-0.67561 -4.41690 0.49735 97 94 93
-0.68931 -4.42202 0.49977 103 100 103
-0.70302 -4.42713 0.50219 98 95 98
-0.71671 -4.43224 0.50461 97 92 92
-0.73040 -4.43735 0.50703 93 91 95
-0.74408 -4.44246 0.50945 94 95 96
-0.75775 -4.44756 0.51187 96 98 97
-0.77142 -4.45267 0.51428 91 96 97
-0.78508 -4.45776 0.51670 92 98 97
-0.79873 -4.46286 0.51911 97 101 95
-0.81238 -4.46796 0.52152 97 99 99
-0.82602 -4.47305 0.52393 93 99 100
-0.83966 -4.47814 0.52634 96 99 96
-0.85328 -4.48322 0.52875 97 99 96
-0.86690 -4.48831 0.53116 101 101 108
-0.88052 -4.49339 0.53357 106 104 107
-0.89412 -4.49847 0.53597 97 98 96
-0.90772 -4.50354 0.53837 89 92 92
-0.92132 -4.50862 0.54078 96 96 95
-0.93490 -4.51369 0.54318 101 105 100
-0.94848 -4.51876 0.54558 100 106 98
-0.96206 -4.52382 0.54798 98 100 93
-0.97562 -4.52889 0.55038 95 96 93
-0.98918 -4.53395 0.55277 93 93 96
-1.00274 -4.53901 0.55517 94 92 99
-1.01628 -4.54406 0.55756 95 93 96
-1.02982 -4.54912 0.55996 93 93 90
-1.04336 -4.55417 0.56235 92 92 87
-1.05688 -4.55922 0.56474 94 94 89
-1.07040 -4.56427 0.56713 97 99 95
-1.08392 -4.56931 0.56952 93 95 91
-1.09742 -4.57435 0.57190 86 91 84
-1.11092 -4.57939 0.57429 92 96 94
-1.12442 -4.58443 0.57667 90 93 95
-1.13790 -4.58946 0.57906 90 94 89
-1.15138 -4.59449 0.58144 92 94 89
-1.16486 -4.59952 0.58382 96 96 98
-1.17832 -4.60455 0.58620 94 91 93
-1.19178 -4.60957 0.58858 89 87 84
-1.20524 -4.61459 0.59096 87 87 83
-1.21868 -4.61961 0.59334 90 89 89
-1.23213 -4.62463 0.59571 89 88 86
-1.24556 -4.62965 0.59809 86 88 87
-1.25899 -4.63466 0.60046 84 91 89
-1.27241 -4.63967 0.60283 87 95 95
-1.28582 -4.64467 0.60520 87 93 97
-1.29923 -4.64968 0.60757 84 89 87
-1.31263 -4.65468 0.60994 88 90 87
-1.32602 -4.65968 0.61231 92 92 93
-1.33941 -4.66468 0.61467 90 90 93
-1.35279 -4.66967 0.61704 87 86 86
-1.36617 -4.67466 0.61940 84 87 88
-1.37954 -4.67966 0.62177 82 87 88
-1.39290 -4.68464 0.62413 84 85 85
-1.40625 -4.68963 0.62649 85 86 86
-1.41960 -4.69461 0.62885 82 88 85
-1.43294 -4.69959 0.63121 85 89 91
-1.44628 -4.70457 0.63356 89 91 99
-1.45961 -4.70954 0.63592 93 88 87
-1.47293 -4.71452 0.63827 77 77 73
-1.48625 -4.71949 0.64063 76 78 88
-1.49956 -4.72445 0.64298 81 86 94
-1.51286 -4.72942 0.64533 92 91 93
-1.52616 -4.73438 0.64768 84 85 81
1.11384 -3.73503 0.16918 129 132 129
1.09927 -3.74047 0.17176 130 136 135
1.08472 -3.74591 0.17433 127 136 145
1.07017 -3.75134 0.17691 121 129 141
1.05563 -3.75677 0.17948 120 121 138
1.04110 -3.76220 0.18205 125 126 140
1.02657 -3.76763 0.18462 136 142 144
1.01205 -3.77305 0.18719 141 147 148
0.99754 -3.77847 0.18976 139 147 145
0.98304 -3.78389 0.19233 133 141 139
0.96854 -3.78930 0.19489 123 128 141
0.95406 -3.79471 0.19746 120 122 141
0.93957 -3.80012 0.20002 125 136 133
0.92510 -3.80553 0.20258 127 135 134
0.91063 -3.81093 0.20514 123 127 131
0.89617 -3.81633 0.20770 122 124 128
0.88172 -3.82173 0.21026 129 132 140
0.86728 -3.82712 0.21281 129 131 138
0.85284 -3.83252 0.21537 129 133 134
0.83841 -3.83791 0.21792 123 127 140
0.82399 -3.84329 0.22047 132 142 151
0.80957 -3.84868 0.22302 133 146 155
0.79517 -3.85406 0.22557 124 121 146
0.78077 -3.85944 0.22812 126 144 149
0.66582 -3.90237 0.24846 118 128 137
0.65149 -3.90772 0.25100 120 119 128
0.63716 -3.91308 0.25353 110 115 121
0.62284 -3.91842 0.25607 126 128 134
0.60853 -3.92377 0.25860 129 132 138
0.59422 -3.92911 0.26113 130 130 134
0.57992 -3.93446 0.26366 118 119 135
0.56563 -3.93979 0.26619 119 121 136
0.55134 -3.94513 0.26872 120 119 138
0.53707 -3.95046 0.27124 116 123 143
0.52280 -3.95579 0.27377 120 136 148
0.50853 -3.96112 0.27629 122 132 141
0.49428 -3.96644 0.27882 114 118 137
0.48003 -3.97177 0.28134 115 123 138
0.46579 -3.97709 0.28386 122 128 138
0.45155 -3.98240 0.28638 121 128 137
0.43733 -3.98772 0.28889 122 132 142
0.42311 -3.99303 0.29141 129 141 150
0.40889 -3.99834 0.29393 136 147 145
0.39469 -4.00364 0.29644 137 142 136
0.38049 -4.00894 0.29895 131 132 139
0.36630 -4.01425 0.30146 129 129 139
0.35211 -4.01954 0.30397 130 134 131
0.33794 -4.02484 0.30648 128 130 126
0.32377 -4.03013 0.30899 122 123 126
0.30960 -4.03542 0.31149 117 122 123
0.29545 -4.04071 0.31400 120 121 121
0.28130 -4.04599 0.31650 121 122 128
0.26716 -4.05127 0.31901 120 124 133
0.25302 -4.05655 0.32151 128 127 140
0.23890 -4.06183 0.32401 126 130 137
0.22478 -4.06710 0.32651 122 129 138
0.21066 -4.07238 0.32900 125 132 131
0.19656 -4.07764 0.33150 121 109 120
0.18246 -4.08291 0.33399 119 120 135
0.16837 -4.08817 0.33649 130 139 147
0.15428 -4.09343 0.33898 126 124 129
0.14021 -4.09869 0.34147 114 120 112
0.12613 -4.10395 0.34396 123 131 139
0.11207 -4.10920 0.34645 126 124 132
0.09801 -4.11445 0.34894 119 119 128
0.08396 -4.11970 0.35142 122 125 123
0.06992 -4.12494 0.35391 113 112 124
0.05589 -4.13019 0.35639 117 117 120
0.04186 -4.13543 0.35887 107 112 113
0.02784 -4.14066 0.36135 114 122 123
0.01382 -4.14590 0.36383 115 122 130
-0.00018 -4.15113 0.36631 125 128 138
-0.01419 -4.15636 0.36879 125 122 130
-0.02818 -4.16159 0.37127 118 116 125
-0.04217 -4.16681 0.37374 120 115 120
-0.05614 -4.17203 0.37622 122 118 127
-0.07012 -4.17725 0.37869 124 125 126
-0.08408 -4.18247 0.38116 123 126 123
-0.09804 -4.18768 0.38363 124 126 124
-0.11199 -4.19289 0.38610 128 129 128
-0.12594 -4.19810 0.38857 127 128 130
-0.13988 -4.20331 0.39103 122 122 122
-0.15381 -4.20851 0.39350 115 116 115
-0.16773 -4.21371 0.39596 104 104 117
-0.18165 -4.21891 0.39842 111 113 122
-0.19556 -4.22410 0.40089 120 121 124
-0.20946 -4.22930 0.40335 115 114 120
-0.22336 -4.23449 0.40580 112 111 114
-0.23724 -4.23967 0.40826 111 111 119
-0.25113 -4.24486 0.41072 114 116 124
-0.26500 -4.25004 0.41317 116 124 121
-0.27887 -4.25522 0.41563 114 122 119
-0.29273 -4.26040 0.41808 112 114 111
-0.30659 -4.26557 0.42053 111 114 112
-0.32043 -4.27075 0.42298 115 118 116
-0.33428 -4.27592 0.42543 116 116 118
-0.34811 -4.28108 0.42788 112 114 123
-0.36194 -4.28625 0.43033 110 113 125
-0.37576 -4.29141 0.43277 104 106 116
-0.38957 -4.29657 0.43522 108 111 111
-0.40338 -4.30173 0.43766 108 112 114
-0.41718 -4.30688 0.44010 105 108 115
-0.43097 -4.31203 0.44254 108 109 108
-0.44476 -4.31718 0.44498 106 115 106
-0.45853 -4.32233 0.44742 105 110 107
-0.47231 -4.32747 0.44986 105 109 112
-0.48607 -4.33261 0.45229 106 110 112
-0.49983 -4.33775 0.45473 107 110 117
-0.51358 -4.34289 0.45716 109 113 116
-0.52733 -4.34802 0.45959 105 106 99
-0.54107 -4.35315 0.46203 116 112 115
-0.55480 -4.35828 0.46446 117 117 115
-0.56852 -4.36341 0.46688 111 112 113
-0.58224 -4.36853 0.46931 99 108 108
-0.59595 -4.37365 0.47174 100 105 106
-0.60966 -4.37877 0.47416 105 105 100
-0.62335 -4.38389 0.47659 108 118 108
-0.63704 -4.38900 0.47901 111 113 98
-0.65073 -4.39411 0.48143 107 109 96
-0.66441 -4.39922 0.48385 109 114 107
-0.67808 -4.40433 0.48627 97 101 101
-0.69174 -4.40943 0.48869 102 106 111
-0.70540 -4.41453 0.49110 98 99 108
-0.71905 -4.41963 0.49352 100 101 97
-0.73269 -4.42473 0.49593 96 100 89
-0.74633 -4.42982 0.49835 95 98 84
-0.75996 -4.43491 0.50076 97 98 89
-0.77358 -4.44000 0.50317 95 99 92
-0.78720 -4.44509 0.50558 94 97 95
-0.80081 -4.45017 0.50799 97 101 96
-0.81441 -4.45525 0.51040 95 102 101
-0.82801 -4.46033 0.51280 90 99 98
-0.84160 -4.46541 0.51521 94 97 93
-0.85518 -4.47048 0.51761 96 93 91
-0.86876 -4.47555 0.52001 100 99 97
-0.88233 -4.48062 0.52241 104 106 94
-0.89589 -4.48568 0.52481 92 97 87
-0.90945 -4.49075 0.52721 84 90 90
-0.92300 -4.49581 0.52961 95 99 98
-0.93654 -4.50087 0.53201 100 104 101
-0.95008 -4.50592 0.53440 96 99 103
-0.96361 -4.51098 0.53680 94 96 99
-0.97713 -4.51603 0.53919 97 97 95
-0.99065 -4.52108 0.54158 100 99 100
-1.00416 -4.52612 0.54397 100 99 103
-1.01766 -4.53117 0.54636 99 98 100
-1.03116 -4.53621 0.54875 97 97 95
-1.04465 -4.54125 0.55114 98 97 96
-1.05813 -4.54628 0.55352 100 96 97
-1.07161 -4.55132 0.55591 96 96 96
-1.08508 -4.55635 0.55829 92 94 92
-1.09854 -4.56138 0.56067 92 95 89
-1.11200 -4.56640 0.56305 99 103 95
-1.12545 -4.57143 0.56543 92 99 93
-1.13889 -4.57645 0.56781 84 92 89
-1.15233 -4.58147 0.57019 91 93 91
-1.16576 -4.58648 0.57257 98 98 102
-1.17918 -4.59150 0.57494 95 95 100
-1.19260 -4.59651 0.57732 91 90 93
-1.20601 -4.60152 0.57969 90 93 92
-1.21942 -4.60652 0.58206 93 95 94
-1.23281 -4.61153 0.58443 92 91 92
-1.24621 -4.61653 0.58680 89 89 88
-1.25959 -4.62153 0.58917 85 90 84
-1.27297 -4.62653 0.59154 86 89 85
-1.28634 -4.63152 0.59391 87 88 88
-1.29971 -4.63651 0.59627 85 90 93
-1.31307 -4.64150 0.59863 86 91 99
-1.32642 -4.64649 0.60100 88 91 98
-1.33976 -4.65147 0.60336 89 90 93
-1.35310 -4.65646 0.60572 89 89 83
-1.36643 -4.66144 0.60808 84 86 71
-1.37976 -4.66641 0.61044 83 87 76
-1.39308 -4.67139 0.61279 87 88 82
-1.40639 -4.67636 0.61515 87 85 83
-1.41970 -4.68133 0.61750 78 78 81
-1.43300 -4.68630 0.61986 85 87 91
-1.44629 -4.69127 0.62221 88 90 93
-1.45958 -4.69623 0.62456 84 84 87
-1.47286 -4.70119 0.62691 82 76 76
-1.48614 -4.70615 0.62926 81 75 85
-1.49940 -4.71110 0.63161 81 81 87
-1.51267 -4.71606 0.63395 83 87 89
-1.52592 -4.72101 0.63630 80 85 88
1.06191 -3.74060 0.16657 129 128 133
1.04742 -3.74601 0.16914 125 124 133
1.03294 -3.75142 0.17170 129 138 141
1.01846 -3.75683 0.17427 139 146 148
1.00399 -3.76224 0.17683 143 147 152
0.98953 -3.76765 0.17939 134 137 145
0.97508 -3.77305 0.18195 128 136 139
0.96063 -3.77845 0.18451 124 135 141
0.94619 -3.78385 0.18707 118 127 141
0.93176 -3.78924 0.18963 123 130 137
0.91733 -3.79463 0.19218 126 135 138
0.90292 -3.80002 0.19474 130 137 141
0.88851 -3.80540 0.19729 128 134 134
0.87410 -3.81079 0.19984 136 145 137
0.85971 -3.81617 0.20239 130 134 136
0.84532 -3.82155 0.20494 119 118 133
0.83094 -3.82692 0.20749 112 119 134
0.81657 -3.83229 0.21003 126 130 141
0.80220 -3.83766 0.21258 129 133 132
0.78784 -3.84303 0.21512 118 124 142
0.77349 -3.84839 0.21767 125 135 143
0.65894 -3.89121 0.23796 117 128 129
0.64465 -3.89655 0.24049 120 124 135
0.63037 -3.90188 0.24302 123 128 138
0.61610 -3.90722 0.24555 128 129 137
0.60183 -3.91255 0.24808 118 122 132
0.58757 -3.91788 0.25060 123 122 130
0.57332 -3.92321 0.25313 111 114 130
0.55908 -3.92853 0.25565 115 118 133
0.54484 -3.93385 0.25817 122 129 132
0.53061 -3.93917 0.26069 124 134 139
0.51639 -3.94448 0.26321 125 134 140
0.50218 -3.94980 0.26573 127 130 132
0.48797 -3.95511 0.26825 128 127 124
0.47377 -3.96041 0.27076 128 128 127
0.45957 -3.96572 0.27328 126 126 132
0.44539 -3.97102 0.27579 117 122 135
0.43121 -3.97632 0.27830 118 123 142
0.41704 -3.98162 0.28082 125 131 147
0.40287 -3.98691 0.28332 131 138 141
0.38871 -3.99220 0.28583 135 140 133
0.37456 -3.99749 0.28834 131 138 136
0.36042 -4.00278 0.29085 131 137 142
0.34628 -4.00806 0.29335 133 135 138
0.33215 -4.01334 0.29585 130 132 131
0.31803 -4.01862 0.29836 122 125 131
0.30391 -4.02390 0.30086 117 122 129
0.28980 -4.02917 0.30336 123 125 126
0.27570 -4.03444 0.30585 121 122 124
0.26161 -4.03971 0.30835 117 119 122
0.24752 -4.04497 0.31085 128 128 132
0.23344 -4.05024 0.31334 125 127 134
0.21937 -4.05550 0.31583 125 129 138
0.20530 -4.06075 0.31833 126 138 141
0.19124 -4.06601 0.32082 120 131 135
0.17719 -4.07126 0.32331 108 105 123
0.16315 -4.07651 0.32579 118 133 143
0.14911 -4.08176 0.32828 131 130 137
0.13508 -4.08700 0.33077 116 118 134
0.12105 -4.09224 0.33325 124 131 143
0.10704 -4.09748 0.33574 121 126 137
0.09303 -4.10272 0.33822 114 118 130
0.07902 -4.10795 0.34070 116 119 122
0.06503 -4.11318 0.34318 111 110 115
0.05104 -4.11841 0.34566 110 109 120
0.03705 -4.12364 0.34813 103 109 123
0.02308 -4.12886 0.35061 119 125 122
0.00911 -4.13408 0.35308 114 115 123
-0.00485 -4.13930 0.35556 112 113 125
-0.01880 -4.14451 0.35803 119 119 129
-0.03275 -4.14973 0.36050 117 119 128
-0.04669 -4.15494 0.36297 120 125 125
-0.06063 -4.16014 0.36544 121 127 129
-0.07455 -4.16535 0.36791 123 126 126
-0.08847 -4.17055 0.37037 121 122 125
-0.10238 -4.17575 0.37284 119 121 126
-0.11629 -4.18095 0.37530 128 131 128
-0.13019 -4.18614 0.37776 130 131 137
-0.14408 -4.19134 0.38022 124 123 131
-0.15797 -4.19653 0.38268 115 115 119
-0.17184 -4.20171 0.38514 104 103 114
-0.18571 -4.20690 0.38760 108 110 122
-0.19958 -4.21208 0.39006 117 119 125
-0.21344 -4.21726 0.39251 116 115 119
-0.22729 -4.22243 0.39496 115 118 120
-0.24113 -4.22761 0.39742 114 119 129
-0.25497 -4.23278 0.39987 111 115 129
-0.26880 -4.23795 0.40232 112 116 119
-0.28262 -4.24312 0.40477 112 115 115
-0.29644 -4.24828 0.40722 106 110 110
-0.31025 -4.25344 0.40966 101 109 113
-0.32405 -4.25860 0.41211 112 116 123
-0.33784 -4.26376 0.41455 116 118 126
-0.35163 -4.26891 0.41699 113 109 124
-0.36542 -4.27406 0.41944 117 120 122
-0.37919 -4.27921 0.42188 113 119 112
-0.39296 -4.28436 0.42432 108 110 112
-0.40672 -4.28950 0.42675 106 109 120
-0.42048 -4.29464 0.42919 106 113 126
-0.43422 -4.29978 0.43163 110 116 113
-0.44797 -4.30491 0.43406 102 108 107
-0.46170 -4.31005 0.43649 100 102 108
-0.47543 -4.31518 0.43893 99 107 109
-0.48915 -4.32031 0.44136 107 112 117
-0.50286 -4.32543 0.44379 106 109 111
-0.51657 -4.33055 0.44621 107 112 108
-0.53027 -4.33568 0.44864 101 108 106
-0.54396 -4.34079 0.45107 111 116 117
-0.55765 -4.34591 0.45349 112 121 120
-0.57133 -4.35102 0.45592 110 117 109
-0.58500 -4.35613 0.45834 102 109 104
-0.59867 -4.36124 0.46076 103 107 104
-0.61233 -4.36635 0.46318 106 108 101
-0.62599 -4.37145 0.46560 104 110 99
-0.63963 -4.37655 0.46802 100 101 95
-0.65327 -4.38165 0.47043 101 104 89
-0.66691 -4.38674 0.47285 109 113 109
-0.68053 -4.39184 0.47526 99 105 103
-0.69415 -4.39693 0.47767 100 108 109
-0.70776 -4.40201 0.48009 103 110 112
-0.72137 -4.40710 0.48250 109 110 101
-0.73497 -4.41218 0.48491 99 101 87
-0.74856 -4.41726 0.48731 97 97 72
-0.76215 -4.42234 0.48972 98 97 82
-0.77573 -4.42742 0.49213 94 94 87
-0.78930 -4.43249 0.49453 93 95 91
-0.80287 -4.43756 0.49694 94 97 90
-0.81643 -4.44263 0.49934 89 94 91
-0.82998 -4.44769 0.50174 89 96 94
-0.84353 -4.45276 0.50414 95 98 98
-0.85707 -4.45782 0.50654 97 99 102
-0.87060 -4.46287 0.50894 97 99 96
-0.88413 -4.46793 0.51133 97 99 88
-0.89765 -4.47298 0.51373 95 95 88
-0.91116 -4.47803 0.51612 95 94 92
-0.92467 -4.48308 0.51851 98 98 97
-0.93817 -4.48813 0.52091 99 98 99
-0.95166 -4.49317 0.52330 100 100 107
-0.96515 -4.49821 0.52568 101 102 109
-0.97863 -4.50325 0.52807 98 100 101
-0.99210 -4.50829 0.53046 99 103 105
-1.00557 -4.51332 0.53285 101 106 111
-1.01903 -4.51835 0.53523 101 104 107
-1.03248 -4.52338 0.53761 101 101 102
-1.04593 -4.52840 0.54000 103 101 107
-1.05937 -4.53343 0.54238 102 98 106
-1.07280 -4.53845 0.54476 96 95 98
-1.08623 -4.54347 0.54714 91 93 95
-1.09965 -4.54848 0.54951 91 94 97
-1.11307 -4.55350 0.55189 97 98 101
-1.12647 -4.55851 0.55427 89 94 95
-1.13988 -4.56352 0.55664 81 89 90
-1.15327 -4.56852 0.55901 91 91 90
-1.16666 -4.57353 0.56138 97 96 101
-1.18004 -4.57853 0.56376 97 97 101
-1.19341 -4.58353 0.56613 94 93 93
-1.20678 -4.58852 0.56849 90 95 93
-1.22015 -4.59352 0.57086 93 97 97
-1.23350 -4.59851 0.57323 95 94 100
-1.24685 -4.60350 0.57559 92 92 94
-1.26019 -4.60849 0.57796 87 92 88
-1.27353 -4.61347 0.58032 87 89 85
-1.28686 -4.61845 0.58268 90 90 90
-1.30018 -4.62343 0.58504 88 90 98
-1.31350 -4.62841 0.58740 86 87 96
-1.32681 -4.63338 0.58976 85 84 90
-1.34011 -4.63835 0.59211 82 85 86
-1.35341 -4.64332 0.59447 81 88 85
-1.36670 -4.64829 0.59682 84 89 82
-1.37998 -4.65326 0.59918 83 89 82
-1.39326 -4.65822 0.60153 85 87 76
-1.40653 -4.66318 0.60388 87 83 81
-1.41980 -4.66814 0.60623 87 82 85
-1.43306 -4.67309 0.60858 85 82 88
-1.44631 -4.67805 0.61093 85 86 93
-1.45955 -4.68300 0.61328 89 85 97
-1.47279 -4.68794 0.61562 92 85 83
-1.48603 -4.69289 0.61796 89 86 88
-1.49925 -4.69783 0.62031 83 81 89
-1.51247 -4.70278 0.62265 80 87 89
-1.52569 -4.70771 0.62499 76 82 91
1.03926 -3.73532 0.15886 133 133 142
1.02483 -3.74072 0.16142 126 134 130
1.01040 -3.74611 0.16398 120 135 134
0.99598 -3.75151 0.16653 131 142 151
0.98157 -3.75690 0.16909 130 141 144
0.96717 -3.76228 0.17164 125 140 138
0.95277 -3.76767 0.17420 126 137 135
0.93838 -3.77305 0.17675 129 129 137
0.92400 -3.77843 0.17930 131 134 140
0.90962 -3.78381 0.18185 120 131 141
0.89525 -3.78918 0.18440 132 141 148
0.88089 -3.79455 0.18695 132 139 149
0.86654 -3.79992 0.18949 130 135 143
0.85219 -3.80528 0.19204 128 136 143
0.83785 -3.81065 0.19458 123 126 138
0.82352 -3.81601 0.19712 124 127 143
0.80919 -3.82136 0.19966 129 141 150
0.79487 -3.82672 0.20220 128 135 134
0.78056 -3.83207 0.20474 113 121 141
0.76626 -3.83742 0.20728 122 137 147
0.63785 -3.88544 0.23005 126 131 137
0.62362 -3.89077 0.23258 142 147 155
0.60940 -3.89609 0.23510 139 142 141
0.59518 -3.90140 0.23762 116 117 118
0.58097 -3.90672 0.24014 125 132 130
0.56677 -3.91203 0.24266 119 121 124
0.55257 -3.91734 0.24518 121 123 125
0.53838 -3.92264 0.24770 120 125 131
0.52420 -3.92795 0.25021 123 131 143
0.51003 -3.93325 0.25273 122 129 138
0.49586 -3.93855 0.25524 121 126 128
0.48170 -3.94384 0.25775 120 122 124
0.46755 -3.94914 0.26026 121 120 127
0.45340 -3.95443 0.26277 122 119 132
0.43926 -3.95972 0.26528 121 121 132
0.42513 -3.96500 0.26778 126 129 136
0.41100 -3.97028 0.27029 128 130 143
0.39689 -3.97556 0.27279 126 133 140
0.38277 -3.98084 0.27530 127 132 130
0.36867 -3.98612 0.27780 126 125 132
0.35457 -3.99139 0.28030 123 127 140
0.34048 -3.99666 0.28280 122 127 139
0.32640 -4.00192 0.28529 122 126 135
0.31233 -4.00719 0.28779 122 129 136
0.29826 -4.01245 0.29029 121 131 138
0.28420 -4.01771 0.29278 122 128 139
0.27014 -4.02296 0.29527 121 130 137
0.25609 -4.02822 0.29776 118 128 128
0.24205 -4.03347 0.30025 126 131 133
0.22802 -4.03872 0.30274 127 133 135
0.21399 -4.04396 0.30523 133 136 132
0.19997 -4.04921 0.30772 126 123 142
0.18596 -4.05445 0.31020 125 137 140
0.17195 -4.05969 0.31269 117 122 131
0.15796 -4.06492 0.31517 117 122 137
0.14396 -4.07015 0.31765 137 138 139
0.12998 -4.07538 0.32013 123 125 134
0.11600 -4.08061 0.32261 127 131 146
0.10203 -4.08584 0.32509 138 138 143
0.08807 -4.09106 0.32757 126 130 131
0.07411 -4.09628 0.33004 122 126 130
0.06016 -4.10150 0.33252 126 120 128
0.04622 -4.10671 0.33499 120 117 126
0.03228 -4.11192 0.33746 123 121 129
0.01835 -4.11713 0.33993 134 130 131
0.00443 -4.12234 0.34240 127 126 124
-0.00948 -4.12754 0.34487 111 109 120
-0.02339 -4.13274 0.34734 120 124 125
-0.03729 -4.13794 0.34980 121 125 130
-0.05119 -4.14314 0.35227 122 130 125
-0.06508 -4.14833 0.35473 119 124 120
-0.07896 -4.15353 0.35719 121 121 122
-0.09283 -4.15871 0.35965 118 118 124
-0.10670 -4.16390 0.36211 114 112 125
-0.12056 -4.16908 0.36457 116 118 126
-0.13441 -4.17426 0.36703 120 122 130
-0.14826 -4.17944 0.36948 121 122 127
-0.16210 -4.18462 0.37194 115 120 117
-0.17593 -4.18979 0.37439 111 113 118
-0.18976 -4.19496 0.37684 114 117 128
-0.20358 -4.20013 0.37929 115 120 127
-0.21739 -4.20530 0.38174 110 115 119
-0.23119 -4.21046 0.38419 110 115 119
-0.24499 -4.21562 0.38664 111 115 124
-0.25878 -4.22078 0.38909 111 115 125
-0.27257 -4.22593 0.39153 115 116 116
-0.28635 -4.23109 0.39398 115 114 114
-0.30012 -4.23624 0.39642 110 113 116
-0.31388 -4.24139 0.39886 109 116 113
-0.32764 -4.24653 0.40130 112 115 116
-0.34139 -4.25167 0.40374 113 108 115
-0.35514 -4.25681 0.40618 102 96 112
-0.36887 -4.26195 0.40861 99 103 109
-0.38260 -4.26709 0.41105 101 108 113
-0.39633 -4.27222 0.41348 99 100 108
-0.41004 -4.27735 0.41592 106 106 111
-0.42375 -4.28248 0.41835 111 114 123
-0.43746 -4.28760 0.42078 117 119 119
-0.45115 -4.29272 0.42321 113 113 114
-0.46484 -4.29784 0.42564 109 109 101
-0.47853 -4.30296 0.42806 98 99 89
-0.49220 -4.30808 0.43049 107 106 104
-0.50587 -4.31319 0.43291 102 101 97
-0.51954 -4.31830 0.43534 97 102 103
-0.53319 -4.32341 0.43776 99 103 103
-0.54684 -4.32851 0.44018 107 108 105
-0.56049 -4.33361 0.44260 108 107 109
-0.57412 -4.33871 0.44502 108 114 112
-0.58775 -4.34381 0.44744 106 110 112
-0.60137 -4.34891 0.44985 106 110 104
-0.61499 -4.35400 0.45227 107 108 99
-0.62860 -4.35909 0.45468 103 95 95
-0.64220 -4.36417 0.45709 97 99 98
-0.65580 -4.36926 0.45950 99 101 95
-0.66939 -4.37434 0.46191 98 102 99
-0.68297 -4.37942 0.46432 91 99 102
-0.69655 -4.38450 0.46673 96 104 106
-0.71012 -4.38957 0.46914 102 109 114
-0.72368 -4.39465 0.47154 110 105 107
-0.73724 -4.39972 0.47395 101 99 99
-0.75078 -4.40478 0.47635 105 105 88
-0.76433 -4.40985 0.47875 104 104 86
-0.77786 -4.41491 0.48115 95 96 84
-0.79139 -4.41997 0.48355 97 102 89
-0.80492 -4.42503 0.48595 98 101 90
-0.81843 -4.43008 0.48835 90 94 93
-0.83194 -4.43514 0.49075 90 95 95
-0.84545 -4.44019 0.49314 96 97 94
-0.85894 -4.44523 0.49554 93 97 95
-0.87243 -4.45028 0.49793 92 93 92
-0.88592 -4.45532 0.50032 93 93 91
-0.89939 -4.46036 0.50271 94 96 92
-0.91286 -4.46540 0.50510 97 99 94
-0.92633 -4.47043 0.50749 101 100 95
-0.93978 -4.47547 0.50987 102 99 95
-0.95323 -4.48050 0.51226 102 98 100
-0.96668 -4.48553 0.51464 100 99 105
-0.98011 -4.49055 0.51703 97 98 101
-0.99354 -4.49557 0.51941 100 101 105
-1.00697 -4.50059 0.52179 100 104 110
-1.02039 -4.50561 0.52417 99 103 107
-1.03380 -4.51063 0.52655 100 101 103
-1.04720 -4.51564 0.52893 99 100 102
-1.06060 -4.52065 0.53130 97 98 101
-1.07399 -4.52566 0.53368 95 96 99
-1.08738 -4.53067 0.53605 94 95 100
-1.10076 -4.53567 0.53843 98 96 100
-1.11413 -4.54067 0.54080 101 95 103
-1.12749 -4.54567 0.54317 95 91 99
-1.14085 -4.55067 0.54554 94 93 101
-1.15420 -4.55566 0.54791 98 94 99
-1.16755 -4.56065 0.55027 94 91 95
-1.18089 -4.56564 0.55264 93 94 89
-1.19422 -4.57063 0.55500 94 94 86
-1.20755 -4.57561 0.55737 90 94 91
-1.22087 -4.58059 0.55973 93 95 97
-1.23418 -4.58557 0.56209 99 97 102
-1.24749 -4.59055 0.56445 94 96 97
-1.26079 -4.59552 0.56681 89 93 93
-1.27408 -4.60049 0.56917 88 92 92
-1.28737 -4.60546 0.57152 91 94 97
-1.30065 -4.61043 0.57388 89 92 98
-1.31393 -4.61540 0.57623 88 90 93
-1.32720 -4.62036 0.57859 89 89 89
-1.34046 -4.62532 0.58094 86 88 88
-1.35371 -4.63027 0.58329 84 87 87
-1.36696 -4.63523 0.58564 81 86 77
-1.38021 -4.64018 0.58799 81 87 83
-1.39344 -4.64513 0.59034 85 88 94
-1.40667 -4.65008 0.59268 92 86 95
-1.41990 -4.65503 0.59503 92 88 101
-1.43311 -4.65997 0.59737 86 88 93
-1.44632 -4.66491 0.59972 85 86 88
-1.45953 -4.66985 0.60206 89 85 89
-1.47273 -4.67478 0.60440 86 87 78
-1.48592 -4.67972 0.60674 85 85 86
-1.49910 -4.68465 0.60908 83 83 88
-1.51228 -4.68958 0.61142 80 81 86
-1.52545 -4.69450 0.61375 75 78 79
0.80459 -3.75495 2.33981 131 130 134
0.82390 -3.72695 2.31440 147 134 128
0.81561 -3.74581 2.31927 146 134 127
0.80726 -3.76478 2.32417 134 130 133
0.85124 -3.68056 2.28442 147 135 131
0.84307 -3.69916 2.28917 148 134 132
0.83486 -3.71787 2.29396 148 134 129
0.82660 -3.73669 2.29877 148 134 127
0.81830 -3.75562 2.30361 146 133 128
0.80994 -3.77465 2.30848 135 129 132
0.87018 -3.65312 2.25947 145 134 125
0.86210 -3.67158 2.26414 145 136 126
0.85397 -3.69015 2.26884 147 137 128
0.84580 -3.70882 2.27356 148 136 132
0.83758 -3.72759 2.27831 149 135 130
0.82931 -3.74647 2.28309 149 135 128
0.82100 -3.76546 2.28789 148 132 129
0.81263 -3.78455 2.29273 138 129 133
0.90485 -3.58957 2.22562 152 138 130
0.89694 -3.60768 2.23015 151 134 125
0.88898 -3.62590 2.23471 151 134 128
0.88098 -3.64421 2.23930 149 135 130
0.87294 -3.66263 2.24391 148 137 130
0.86485 -3.68115 2.24854 148 137 125
0.85671 -3.69977 2.25321 149 137 124
0.84853 -3.71850 2.25789 149 137 129
0.84030 -3.73734 2.26261 149 136 131
0.83203 -3.75628 2.26735 149 135 130
0.82371 -3.77533 2.27212 149 133 130
0.81534 -3.79449 2.27691 140 130 133
0.93889 -3.52718 2.19239 167 153 134
0.93114 -3.54496 2.19679 158 140 132
0.92335 -3.56283 2.20121 150 134 128
0.91552 -3.58080 2.20566 151 136 129
0.90765 -3.59887 2.21014 151 135 132
0.89973 -3.61704 2.21464 152 136 130
0.89176 -3.63532 2.21916 151 137 132
0.88376 -3.65369 2.22371 150 137 133
0.87570 -3.67217 2.22829 148 137 132
0.86761 -3.69075 2.23289 149 136 128
0.85946 -3.70944 2.23751 150 136 125
0.85127 -3.72823 2.24217 150 137 124
0.84304 -3.74713 2.24685 149 136 127
0.83476 -3.76613 2.25155 148 135 129
0.82643 -3.78525 2.25628 147 134 129
0.81805 -3.80447 2.26104 140 131 132
0.94172 -3.53628 2.17699 150 132 130
0.93396 -3.55412 2.18136 150 131 124
0.92617 -3.57205 2.18575 149 134 126
0.91833 -3.59008 2.19016 151 137 127
0.91045 -3.60821 2.19460 151 137 134
0.90252 -3.62644 2.19907 151 137 134
0.89455 -3.64477 2.20355 151 138 134
0.88654 -3.66320 2.20807 150 139 135
0.87848 -3.68174 2.21261 149 138 132
0.87037 -3.70039 2.21717 149 137 128
0.86222 -3.71913 2.22176 150 136 126
0.85403 -3.73799 2.22638 150 136 127
0.84578 -3.75695 2.23102 149 136 128
0.83749 -3.77602 2.23569 147 136 129
0.82916 -3.79520 2.24039 145 135 127
0.82077 -3.81448 2.24511 140 132 126
0.95227 -3.52763 2.15723 152 137 131
0.94455 -3.54542 2.16154 150 134 124
0.93679 -3.56331 2.16587 150 133 118
0.92899 -3.58130 2.17022 149 134 123
0.92115 -3.59939 2.17460 149 137 123
0.91326 -3.61758 2.17901 148 138 130
0.90533 -3.63586 2.18344 149 138 132
0.89735 -3.65426 2.18789 150 137 132
0.88933 -3.67275 2.19237 150 138 131
0.88126 -3.69135 2.19687 150 138 128
0.87315 -3.71006 2.20140 149 137 126
0.86499 -3.72887 2.20596 150 138 127
0.85679 -3.74778 2.21054 150 138 131
0.84854 -3.76681 2.21514 150 138 132
0.84024 -3.78594 2.21978 148 137 131
0.83190 -3.80518 2.22444 145 136 129
0.82350 -3.82454 2.22912 141 133 126
0.97804 -3.48378 2.12907 150 134 130
0.97044 -3.50134 2.13328 151 135 126
0.96280 -3.51899 2.13750 155 137 138
0.95512 -3.53674 2.14175 153 139 138
0.94740 -3.55459 2.14602 151 135 128
0.93964 -3.57254 2.15032 150 133 123
0.93183 -3.59058 2.15464 149 135 127
0.92398 -3.60873 2.15899 150 137 128
0.91608 -3.62698 2.16336 148 138 132
0.90814 -3.64533 2.16775 149 139 131
0.90016 -3.66378 2.17217 151 137 127
0.89213 -3.68234 2.17661 150 137 123
0.88406 -3.70100 2.18108 148 137 123
0.87594 -3.71976 2.18557 147 138 125
0.86778 -3.73864 2.19009 148 137 129
0.85956 -3.75762 2.19463 149 137 135
0.85131 -3.77671 2.19920 150 137 133
0.84300 -3.79590 2.20380 149 136 130
0.83465 -3.81521 2.20842 147 135 129
0.82625 -3.83463 2.21307 145 132 127
0.99600 -3.45781 2.10537 152 137 143
0.98848 -3.47524 2.10950 152 135 134
0.98092 -3.49275 2.11364 151 136 127
0.97332 -3.51037 2.11781 150 137 126
0.96567 -3.52808 2.12201 150 137 135
0.95799 -3.54589 2.12622 150 139 137
0.95026 -3.56379 2.13046 151 135 131
0.94249 -3.58180 2.13472 149 134 130
0.93468 -3.59990 2.13901 148 136 132
0.92682 -3.61811 2.14331 149 137 130
0.91892 -3.63642 2.14765 151 137 129
0.91097 -3.65483 2.15200 151 138 130
0.90298 -3.67334 2.15639 152 137 128
0.89495 -3.69196 2.16079 150 137 124
0.88687 -3.71068 2.16522 147 138 122
0.87874 -3.72951 2.16968 146 137 122
0.87057 -3.74844 2.17416 148 136 127
0.86235 -3.76749 2.17867 149 136 132
0.85408 -3.78664 2.18320 150 137 131
0.84577 -3.80590 2.18776 149 136 129
0.83741 -3.82527 2.19235 148 134 128
0.82900 -3.84476 2.19696 147 132 126
1.02124 -3.41484 2.07783 154 138 137
1.01383 -3.43204 2.08185 150 139 136
1.00639 -3.44933 2.08589 151 141 144
0.99890 -3.46671 2.08996 152 141 142
0.99138 -3.48419 2.09405 152 138 128
0.98381 -3.50176 2.09816 150 137 123
0.97621 -3.51943 2.10230 150 137 121
0.96856 -3.53720 2.10645 149 138 133
0.96086 -3.55506 2.11063 150 137 137
0.95313 -3.57303 2.11484 153 135 128
0.94535 -3.59109 2.11906 149 134 132
0.93753 -3.60926 2.12331 146 135 134
0.92967 -3.62752 2.12758 148 136 127
0.92176 -3.64589 2.13188 151 137 123
0.91381 -3.66436 2.13620 151 137 133
0.90581 -3.68293 2.14055 153 136 132
0.89777 -3.70161 2.14492 151 137 124
0.88968 -3.72040 2.14931 148 137 122
0.88155 -3.73929 2.15373 149 136 124
0.87337 -3.75829 2.15818 150 136 128
0.86514 -3.77739 2.16265 150 137 130
0.85687 -3.79661 2.16714 150 137 127
0.84855 -3.81594 2.17166 149 136 126
0.84018 -3.83537 2.17621 147 134 129
0.83176 -3.85492 2.18079 146 133 128
1.04615 -3.37241 2.05063 154 135 135
1.03886 -3.38938 2.05455 154 142 135
1.03153 -3.40645 2.05850 155 142 133
1.02417 -3.42360 2.06246 155 141 132
1.01676 -3.44085 2.06645 154 139 135
1.00931 -3.45820 2.07046 153 139 137
1.00182 -3.47564 2.07449 154 139 134
0.99429 -3.49317 2.07855 152 139 127
0.98672 -3.51080 2.08262 152 137 125
0.97910 -3.52853 2.08672 151 136 125
0.97145 -3.54635 2.09084 150 138 131
0.96375 -3.56427 2.09499 150 138 133
0.95601 -3.58230 2.09916 150 136 129
0.94823 -3.60042 2.10335 148 135 129
0.94040 -3.61864 2.10756 146 135 129
0.93253 -3.63697 2.11180 147 135 126
0.92461 -3.65540 2.11606 149 137 127
0.91666 -3.67393 2.12034 149 137 132
0.90865 -3.69256 2.12465 149 136 131
0.90060 -3.71130 2.12898 149 136 126
0.89251 -3.73015 2.13334 149 136 125
0.88437 -3.74910 2.13772 150 136 130
0.87618 -3.76817 2.14213 151 137 132
0.86795 -3.78734 2.14656 150 137 135
0.85967 -3.80662 2.15102 148 137 133
0.85134 -3.82601 2.15551 147 136 131
0.84296 -3.84551 2.16002 147 135 131
0.83454 -3.86513 2.16455 147 134 130
1.06358 -3.34726 2.02759 155 138 135
1.05637 -3.36410 2.03144 154 136 128
1.04911 -3.38104 2.03531 155 140 130
1.04182 -3.39807 2.03920 156 144 137
1.03448 -3.41519 2.04311 155 142 132
1.02711 -3.43240 2.04704 155 140 131
1.01969 -3.44970 2.05100 157 141 135
1.01224 -3.46710 2.05497 155 138 135
1.00474 -3.48460 2.05897 156 140 131
0.99721 -3.50219 2.06299 152 140 126
0.98963 -3.51987 2.06703 151 139 127
0.98201 -3.53766 2.07109 152 138 124
0.97435 -3.55554 2.07518 151 138 127
0.96665 -3.57352 2.07929 149 138 128
0.95890 -3.59160 2.08342 149 136 129
0.95111 -3.60978 2.08757 151 134 125
0.94328 -3.62806 2.09175 149 134 121
0.93540 -3.64645 2.09595 147 133 123
0.92748 -3.66494 2.10017 149 137 133
0.91951 -3.68353 2.10442 151 137 134
0.91150 -3.70223 2.10869 150 135 133
0.90345 -3.72103 2.11299 150 135 131
0.89535 -3.73994 2.11731 150 134 130
0.88720 -3.75896 2.12166 149 135 130
0.87900 -3.77808 2.12603 149 135 128
0.87076 -3.79732 2.13042 149 136 128
0.86248 -3.81666 2.13484 149 137 124
0.85414 -3.83612 2.13929 149 136 122
0.84575 -3.85569 2.14376 149 135 123
0.83732 -3.87537 2.14826 148 135 124
1.08799 -3.30566 2.00097 157 143 141
1.08089 -3.32229 2.00472 156 140 137
1.07374 -3.33901 2.00850 157 143 134
1.06656 -3.35582 2.01229 155 141 132
1.05934 -3.37271 2.01611 154 140 128
1.05208 -3.38970 2.01994 156 142 128
1.04478 -3.40678 2.02380 157 142 132
1.03744 -3.42396 2.02767 156 140 130
1.03006 -3.44122 2.03157 155 140 125
1.02264 -3.45858 2.03549 154 141 132
1.01518 -3.47604 2.03943 154 140 135
1.00768 -3.49359 2.04339 154 140 132
1.00014 -3.51123 2.04737 153 141 131
0.99255 -3.52898 2.05138 152 139 127
0.98493 -3.54682 2.05541 153 138 123
0.97726 -3.56476 2.05946 152 136 130
0.96955 -3.58280 2.06353 150 136 133
0.96180 -3.60094 2.06762 150 137 133
0.95400 -3.61918 2.07174 152 135 123
0.94617 -3.63752 2.07588 151 136 121
0.93828 -3.65597 2.08005 149 135 124
0.93035 -3.67451 2.08423 150 139 131
0.92238 -3.69317 2.08844 152 139 132
0.91437 -3.71193 2.09268 149 136 130
0.90630 -3.73079 2.09694 150 134 128
0.89819 -3.74977 2.10122 149 133 128
0.89004 -3.76885 2.10553 149 134 128
0.88184 -3.78804 2.10986 148 133 130
0.87359 -3.80734 2.11422 148 135 134
0.86529 -3.82675 2.11860 148 136 132
0.85695 -3.84627 2.12301 147 137 127
0.84856 -3.86591 2.12744 148 136 126
0.84012 -3.88566 2.13190 148 134 125
1.10510 -3.28100 1.97834 162 145 137
1.09807 -3.29750 1.98202 160 145 134
1.09099 -3.31409 1.98572 157 143 129
1.08388 -3.33077 1.98944 155 140 127
1.07673 -3.34754 1.99318 157 143 132
1.06955 -3.36441 1.99694 155 140 131
1.06232 -3.38136 2.00072 153 138 130
1.05505 -3.39840 2.00452 153 140 131
1.04775 -3.41553 2.00834 155 143 136
1.04040 -3.43276 2.01218 156 142 136
1.03302 -3.45008 2.01604 154 141 128
1.02560 -3.46750 2.01993 152 142 131
1.01813 -3.48501 2.02383 153 141 132
1.01062 -3.50261 2.02776 151 139 129
1.00308 -3.52031 2.03170 154 141 136
0.99549 -3.53812 2.03567 153 140 127
0.98786 -3.55601 2.03966 152 138 129
0.98019 -3.57401 2.04368 151 135 137
0.97247 -3.59211 2.04771 149 134 132
0.96471 -3.61031 2.05177 148 135 129
0.95691 -3.62861 2.05585 148 134 122
0.94906 -3.64701 2.05996 148 136 125
0.94117 -3.66552 2.06408 148 136 126
0.93324 -3.68413 2.06823 150 138 130
0.92526 -3.70284 2.07241 151 139 132
0.91724 -3.72166 2.07660 147 138 126
0.90917 -3.74059 2.08083 145 135 119
0.90105 -3.75963 2.08507 147 134 121
0.89289 -3.77877 2.08934 150 133 122
0.88468 -3.79803 2.09363 150 133 123
0.87643 -3.81739 2.09795 147 135 128
0.86812 -3.83687 2.10230 147 136 131
0.85977 -3.85646 2.10666 149 137 130
0.85137 -3.87616 2.11106 149 135 132
0.84292 -3.89598 2.11548 146 132 132
1.12209 -3.25650 1.95586 165 151 146
1.11513 -3.27289 1.95947 164 147 140
1.10812 -3.28935 1.96310 163 146 138
1.10108 -3.30591 1.96675 161 147 138
1.09400 -3.32255 1.97041 159 144 134
1.08689 -3.33929 1.97410 157 141 132
1.07973 -3.35611 1.97780 156 140 133
1.07254 -3.37302 1.98153 154 139 131
1.06531 -3.39003 1.98527 153 138 131
1.05804 -3.40712 1.98904 153 138 133
1.05073 -3.42431 1.99282 155 141 135
1.04338 -3.44159 1.99663 156 143 136
1.03599 -3.45897 2.00046 155 142 134
1.02856 -3.47644 2.00431 155 142 135
1.02109 -3.49401 2.00817 154 142 134
1.01358 -3.51167 2.01206 151 140 131
1.00603 -3.52943 2.01598 156 141 133
0.99843 -3.54729 2.01991 155 140 129
0.99080 -3.56524 2.02386 153 138 129
0.98312 -3.58330 2.02784 150 136 132
0.97540 -3.60146 2.03184 149 135 126
0.96763 -3.61971 2.03586 147 134 128
0.95983 -3.63807 2.03991 145 134 126
0.95197 -3.65654 2.04397 147 134 124
0.94408 -3.67510 2.04806 148 134 121
0.93614 -3.69378 2.05217 151 136 127
0.92815 -3.71255 2.05631 152 138 133
0.92012 -3.73144 2.06047 150 138 131
0.91204 -3.75043 2.06465 148 136 128
0.90392 -3.76953 2.06886 147 135 131
0.89575 -3.78874 2.07309 148 134 129
0.88754 -3.80806 2.07735 148 133 127
0.87927 -3.82749 2.08163 148 135 129
0.87096 -3.84703 2.08593 149 137 129
0.86260 -3.86669 2.09026 150 137 126
0.85420 -3.88646 2.09461 148 135 127
0.84574 -3.90634 2.09899 146 132 127
1.14582 -3.21601 1.93003 166 152 142
1.13896 -3.23219 1.93355 165 152 143
1.13206 -3.24845 1.93709 165 152 145
1.12513 -3.26479 1.94064 165 151 145
1.11816 -3.28122 1.94422 165 150 143
1.11115 -3.29774 1.94781 164 149 143
1.10411 -3.31435 1.95142 162 148 144
1.09703 -3.33105 1.95505 161 144 142
1.08991 -3.34783 1.95870 157 141 136
1.08275 -3.36471 1.96237 155 139 134
1.07555 -3.38167 1.96606 156 139 133
1.06831 -3.39873 1.96977 156 138 135
1.06104 -3.41588 1.97350 157 138 137
1.05372 -3.43312 1.97726 157 141 135
1.04637 -3.45046 1.98103 156 143 136
