ply
format ascii 1.0
element face 0
property list uchar int vertex_indices
element vertex 1259
property float x
property float y
property float z
property uchar diffuse_red
property uchar diffuse_green
property uchar diffuse_blue
end_header
-2.73262 -3.38451 1.54668 254 254 254
-2.74528 -3.38656 1.54715 254 254 254
-2.75791 -3.38862 1.54762 254 254 254
-2.77051 -3.39067 1.54808 254 254 254
-2.78309 -3.39271 1.54855 254 254 254
-2.79564 -3.39475 1.54901 254 254 254
-2.80817 -3.39679 1.54947 254 254 254
-2.82067 -3.39882 1.54994 254 254 254
-2.83315 -3.40085 1.55040 254 254 254
-2.84561 -3.40288 1.55086 254 254 254
-2.85804 -3.40490 1.55132 254 254 254
-2.87044 -3.40691 1.55177 254 254 254
-2.88282 -3.40893 1.55223 254 254 254
-2.89517 -3.41094 1.55269 254 254 254
-2.90751 -3.41294 1.55314 254 254 254
-2.91981 -3.41494 1.55360 254 254 254
-2.93209 -3.41694 1.55405 254 254 254
-2.94435 -3.41893 1.55450 254 254 254
-2.95659 -3.42092 1.55495 254 254 254
-2.96880 -3.42291 1.55540 254 254 254
-2.98098 -3.42489 1.55585 254 254 254
-2.99314 -3.42686 1.55630 254 254 254
-3.00528 -3.42884 1.55675 254 254 254
-3.01739 -3.43081 1.55720 253 253 254
-2.13046 -3.27058 1.51044 254 254 254
-2.14429 -3.27285 1.51096 254 254 254
-2.15810 -3.27511 1.51149 254 254 254
-2.17187 -3.27737 1.51201 254 254 254
-2.18562 -3.27962 1.51253 254 254 254
-2.19933 -3.28187 1.51305 254 254 254
-2.21302 -3.28411 1.51357 254 254 254
-2.22668 -3.28635 1.51409 254 254 254
-2.24032 -3.28858 1.51461 254 254 254
-2.25392 -3.29081 1.51513 254 254 254
-2.26750 -3.29303 1.51564 254 254 254
-2.28104 -3.29525 1.51616 254 254 254
-2.29456 -3.29746 1.51667 254 254 254
-2.30805 -3.29967 1.51718 254 254 254
-2.32152 -3.30188 1.51769 254 254 254
-2.33495 -3.30408 1.51820 254 254 254
-2.34836 -3.30628 1.51871 254 254 254
-2.36174 -3.30847 1.51922 254 254 254
-2.37510 -3.31066 1.51973 254 254 254
-2.38842 -3.31284 1.52023 251 253 254
-2.40172 -3.31502 1.52074 251 253 254
-2.41499 -3.31719 1.52124 253 254 254
-2.42824 -3.31936 1.52175 254 254 254
-2.44146 -3.32152 1.52225 254 254 254
-2.45465 -3.32369 1.52275 254 254 254
-2.46781 -3.32584 1.52325 254 254 254
-2.48095 -3.32799 1.52375 254 254 254
-2.49406 -3.33014 1.52425 254 254 254
-2.58508 -3.34505 1.52770 254 254 254
-2.59798 -3.34716 1.52819 254 254 254
-2.61085 -3.34927 1.52868 254 254 254
-2.62370 -3.35138 1.52917 254 254 254
-2.63652 -3.35348 1.52966 254 254 254
-2.64932 -3.35557 1.53014 254 254 254
-2.66209 -3.35766 1.53063 254 254 254
-2.67483 -3.35975 1.53111 254 254 254
-2.68755 -3.36183 1.53160 254 254 254
-2.70024 -3.36391 1.53208 254 254 254
-2.71291 -3.36599 1.53256 254 254 254
-2.72555 -3.36806 1.53304 254 254 254
-2.73817 -3.37013 1.53352 254 254 254
-2.75076 -3.37219 1.53400 254 254 254
-2.76333 -3.37425 1.53447 254 254 254
-2.77587 -3.37630 1.53495 254 254 254
-2.78839 -3.37835 1.53543 254 254 254
-2.80088 -3.38040 1.53590 254 254 254
-2.81334 -3.38244 1.53637 254 254 254
-2.82579 -3.38448 1.53685 254 254 254
-2.83820 -3.38651 1.53732 254 254 254
-2.85060 -3.38854 1.53779 254 254 254
-2.86297 -3.39057 1.53826 254 254 254
-2.87531 -3.39259 1.53873 254 254 254
-2.88763 -3.39461 1.53919 254 254 254
-2.89993 -3.39662 1.53966 254 254 254
-2.91220 -3.39863 1.54013 254 254 254
-2.92444 -3.40064 1.54059 254 254 254
-2.93667 -3.40264 1.54106 254 254 254
-2.94887 -3.40464 1.54152 254 254 254
-2.96104 -3.40663 1.54198 254 254 254
-2.97319 -3.40862 1.54244 254 254 254
-2.98532 -3.41061 1.54290 254 254 254
-2.99742 -3.41259 1.54336 254 254 254
-3.00950 -3.41457 1.54382 253 253 254
-2.15283 -3.25839 1.49741 254 254 254
-2.16656 -3.26065 1.49794 254 254 254
-2.18026 -3.26291 1.49848 254 254 254
-2.19393 -3.26517 1.49901 254 254 254
-2.20758 -3.26742 1.49954 254 254 254
-2.22119 -3.26967 1.50008 254 254 254
-2.23478 -3.27191 1.50061 254 254 254
-2.24834 -3.27415 1.50114 254 254 254
-2.26188 -3.27638 1.50166 254 254 254
-2.27538 -3.27861 1.50219 254 254 254
-2.28886 -3.28083 1.50272 254 254 254
-2.30231 -3.28305 1.50324 254 254 254
-2.31573 -3.28526 1.50377 254 254 254
-2.32912 -3.28748 1.50429 254 254 254
-2.34249 -3.28968 1.50481 254 254 254
-2.35583 -3.29188 1.50533 254 254 254
-2.36914 -3.29408 1.50585 254 254 254
-2.38242 -3.29627 1.50637 254 254 254
-2.42211 -3.30282 1.50792 249 252 254
-2.43529 -3.30499 1.50843 253 254 254
-2.44844 -3.30716 1.50895 254 254 254
-2.46156 -3.30933 1.50946 254 254 254
-2.47466 -3.31149 1.50997 254 254 254
-2.48773 -3.31364 1.51048 254 254 254
-2.50077 -3.31580 1.51099 254 254 253
-2.57848 -3.32862 1.51402 254 254 254
-2.59134 -3.33074 1.51452 254 254 254
-2.60417 -3.33286 1.51502 254 254 254
-2.61698 -3.33497 1.51552 254 254 254
-2.62976 -3.33708 1.51602 254 254 254
-2.64252 -3.33919 1.51652 254 254 254
-2.65525 -3.34129 1.51702 254 254 254
-2.66796 -3.34338 1.51751 254 254 254
-2.68064 -3.34547 1.51801 254 254 254
-2.69329 -3.34756 1.51850 254 254 254
-2.70592 -3.34965 1.51900 254 254 254
-2.71853 -3.35173 1.51949 254 254 254
-2.73111 -3.35380 1.51998 254 254 254
-2.74366 -3.35587 1.52047 254 254 254
-2.75619 -3.35794 1.52096 254 254 254
-2.76870 -3.36001 1.52145 254 254 254
-2.78118 -3.36206 1.52193 254 254 254
-2.79364 -3.36412 1.52242 254 254 254
-2.80607 -3.36617 1.52290 254 254 254
-2.81847 -3.36822 1.52339 254 254 254
-2.83085 -3.37026 1.52387 254 254 254
-2.84321 -3.37230 1.52435 254 254 254
-2.85555 -3.37433 1.52484 254 254 254
-2.86785 -3.37637 1.52532 254 254 254
-2.88014 -3.37839 1.52580 254 254 254
-2.89240 -3.38042 1.52627 254 254 254
-2.90464 -3.38243 1.52675 254 254 254
-2.91685 -3.38445 1.52723 254 254 254
-2.92904 -3.38646 1.52770 254 254 254
-2.94120 -3.38847 1.52818 254 254 254
-2.95334 -3.39047 1.52865 254 254 254
-2.96546 -3.39247 1.52913 254 254 254
-2.97755 -3.39447 1.52960 254 254 254
-2.98962 -3.39646 1.53007 254 254 254
-3.00167 -3.39845 1.53054 253 253 254
-2.18857 -3.24859 1.48507 254 254 254
-2.20217 -3.25085 1.48562 254 254 254
-2.21575 -3.25311 1.48616 254 254 254
-2.22929 -3.25536 1.48671 254 254 254
-2.24281 -3.25761 1.48725 254 254 254
-2.25630 -3.25985 1.48779 254 254 254
-2.26976 -3.26209 1.48833 254 254 254
-2.28319 -3.26432 1.48887 254 254 254
-2.29660 -3.26655 1.48940 254 254 254
-2.30998 -3.26877 1.48994 254 254 254
-2.32333 -3.27099 1.49047 254 254 254
-2.33665 -3.27320 1.49101 254 254 254
-2.34995 -3.27541 1.49154 254 254 254
-2.36322 -3.27762 1.49207 254 254 254
-2.37646 -3.27982 1.49260 254 254 254
-2.38968 -3.28202 1.49313 254 254 254
-2.42917 -3.28858 1.49471 251 252 254
-2.44228 -3.29076 1.49524 254 254 254
-2.45536 -3.29293 1.49576 254 254 254
-2.46842 -3.29510 1.49629 254 254 254
-2.48144 -3.29727 1.49681 254 254 254
-2.49445 -3.29943 1.49733 254 254 254
-2.50743 -3.30158 1.49785 253 254 253
-2.57192 -3.31230 1.50044 254 254 254
-2.58474 -3.31443 1.50095 254 254 254
-2.59754 -3.31656 1.50146 254 254 254
-2.61031 -3.31868 1.50197 254 254 254
-2.62305 -3.32080 1.50248 254 254 254
-2.63577 -3.32291 1.50299 254 254 254
-2.64846 -3.32502 1.50350 254 254 254
-2.66113 -3.32713 1.50401 254 254 254
-2.67378 -3.32923 1.50452 254 254 254
-2.68639 -3.33133 1.50502 254 254 254
-2.69899 -3.33342 1.50553 254 254 254
-2.71156 -3.33551 1.50603 254 254 254
-2.72410 -3.33759 1.50653 254 254 254
-2.73662 -3.33967 1.50704 254 254 254
-2.74911 -3.34175 1.50754 254 254 254
-2.76158 -3.34382 1.50804 254 254 254
-2.77402 -3.34589 1.50853 254 254 254
-2.78644 -3.34795 1.50903 254 254 254
-2.79884 -3.35001 1.50953 254 254 254
-2.81121 -3.35207 1.51002 254 254 254
-2.82355 -3.35412 1.51052 254 254 254
-2.83588 -3.35617 1.51101 254 254 254
-2.84817 -3.35821 1.51151 254 254 254
-2.86045 -3.36025 1.51200 254 254 254
-2.87270 -3.36229 1.51249 254 254 254
-2.88492 -3.36432 1.51298 254 254 254
-2.89713 -3.36635 1.51347 254 254 254
-2.90930 -3.36837 1.51396 254 254 254
-2.92146 -3.37039 1.51444 254 254 254
-2.93359 -3.37241 1.51493 254 254 254
-2.94570 -3.37442 1.51541 254 254 254
-2.95778 -3.37643 1.51590 254 254 254
-2.96984 -3.37843 1.51638 254 254 254
-2.98187 -3.38043 1.51686 254 254 254
-2.99389 -3.38243 1.51735 253 253 254
-2.21034 -3.23667 1.47235 254 254 254
-2.22384 -3.23893 1.47290 254 254 254
-2.23731 -3.24119 1.47346 254 254 254
-2.25076 -3.24344 1.47401 254 254 254
-2.26418 -3.24568 1.47456 254 254 254
-2.27757 -3.24792 1.47511 254 254 254
-2.29093 -3.25016 1.47566 254 254 254
-2.30427 -3.25239 1.47621 254 254 254
-2.31758 -3.25462 1.47676 254 254 254
-2.33086 -3.25684 1.47730 254 254 254
-2.34412 -3.25906 1.47785 254 254 254
-2.35735 -3.26128 1.47839 254 254 254
-2.37055 -3.26349 1.47894 254 254 254
-2.38372 -3.26569 1.47948 254 254 254
-2.39687 -3.26789 1.48002 254 254 254
-2.43616 -3.27447 1.48163 253 254 254
-2.44920 -3.27665 1.48217 254 254 254
-2.46222 -3.27883 1.48270 254 254 254
-2.47521 -3.28100 1.48324 254 254 254
-2.48817 -3.28317 1.48377 254 254 254
-2.50111 -3.28534 1.48430 254 254 254
-2.51402 -3.28750 1.48483 254 254 254
-2.56541 -3.29610 1.48695 254 254 254
-2.57819 -3.29824 1.48747 254 254 254
-2.59095 -3.30037 1.48800 254 254 254
-2.60368 -3.30251 1.48852 254 254 254
-2.61639 -3.30463 1.48904 254 254 254
-2.62907 -3.30676 1.48956 254 254 254
-2.64172 -3.30887 1.49008 254 254 254
-2.65436 -3.31099 1.49060 254 254 254
-2.66696 -3.31310 1.49112 254 254 254
-2.67954 -3.31520 1.49164 254 254 254
-2.69210 -3.31730 1.49215 254 254 254
-2.70463 -3.31940 1.49267 254 254 254
-2.71714 -3.32150 1.49318 254 254 254
-2.72962 -3.32358 1.49370 254 254 254
-2.74207 -3.32567 1.49421 254 254 254
-2.75451 -3.32775 1.49472 254 254 254
-2.76692 -3.32983 1.49523 254 254 254
-2.77930 -3.33190 1.49574 254 254 254
-2.79166 -3.33397 1.49625 254 254 254
-2.80399 -3.33603 1.49675 254 254 254
-2.81630 -3.33809 1.49726 254 254 254
-2.82859 -3.34015 1.49776 254 254 254
-2.84085 -3.34220 1.49827 254 254 254
-2.85309 -3.34425 1.49877 254 254 254
-2.86531 -3.34630 1.49927 254 254 254
-2.87750 -3.34834 1.49977 254 254 254
-2.88967 -3.35037 1.50027 254 254 254
-2.90181 -3.35240 1.50077 254 254 254
-2.91393 -3.35443 1.50127 254 254 254
-2.92603 -3.35646 1.50177 254 254 254
-2.93810 -3.35848 1.50227 254 254 254
-2.95015 -3.36050 1.50276 254 254 254
-2.96218 -3.36251 1.50326 254 254 254
-2.97418 -3.36452 1.50375 254 254 254
-2.98616 -3.36652 1.50424 253 254 254
-2.24526 -3.22714 1.46033 254 254 254
-2.25864 -3.22940 1.46090 254 254 254
-2.27199 -3.23165 1.46146 254 254 254
-2.28531 -3.23389 1.46202 254 254 254
-2.29860 -3.23613 1.46258 254 254 254
-2.31187 -3.23837 1.46314 254 254 254
-2.32511 -3.24060 1.46370 254 254 254
-2.33833 -3.24283 1.46425 254 254 254
-2.35151 -3.24505 1.46481 254 254 254
-2.36467 -3.24727 1.46536 254 254 254
-2.37781 -3.24948 1.46592 254 254 254
-2.45606 -3.26267 1.46921 253 254 254
-2.46901 -3.26485 1.46976 254 254 254
-2.48194 -3.26703 1.47030 254 254 254
-2.49483 -3.26921 1.47085 254 254 254
-2.50771 -3.27138 1.47139 254 254 254
-2.52055 -3.27354 1.47193 254 254 254
-2.53337 -3.27570 1.47247 254 254 254
-2.54617 -3.27786 1.47301 254 254 254
-2.55894 -3.28001 1.47355 254 254 254
-2.57169 -3.28216 1.47409 254 254 254
-2.58440 -3.28430 1.47462 254 254 254
-2.59710 -3.28644 1.47516 254 254 254
-2.60977 -3.28858 1.47569 254 254 254
-2.62241 -3.29071 1.47622 254 254 254
-2.63503 -3.29284 1.47675 254 254 254
-2.64762 -3.29496 1.47729 254 254 254
-2.66019 -3.29708 1.47781 254 254 254
-2.67274 -3.29919 1.47834 254 254 254
-2.68526 -3.30130 1.47887 254 254 254
-2.69775 -3.30341 1.47940 254 254 254
-2.71022 -3.30551 1.47992 254 254 254
-2.72267 -3.30761 1.48045 254 254 254
-2.73509 -3.30970 1.48097 254 254 254
-2.74748 -3.31179 1.48149 254 254 254
-2.75986 -3.31387 1.48201 254 254 254
-2.77221 -3.31596 1.48253 254 254 254
-2.78453 -3.31803 1.48305 254 254 254
-2.79683 -3.32011 1.48357 254 254 254
-2.80910 -3.32217 1.48409 254 254 254
-2.82136 -3.32424 1.48461 254 254 254
-2.83359 -3.32630 1.48512 254 254 254
-2.84579 -3.32836 1.48563 254 254 254
-2.85797 -3.33041 1.48615 254 254 254
-2.87013 -3.33246 1.48666 254 254 254
-2.88226 -3.33450 1.48717 254 254 254
-2.89437 -3.33655 1.48768 254 254 254
-2.90645 -3.33858 1.48819 254 254 254
-2.91852 -3.34062 1.48870 254 254 254
-2.93056 -3.34264 1.48921 254 254 254
-2.94257 -3.34467 1.48971 254 254 254
-2.95457 -3.34669 1.49022 254 254 254
-2.96654 -3.34871 1.49072 254 254 254
-2.97848 -3.35072 1.49123 253 254 254
-2.27972 -3.21774 1.44847 254 254 254
-2.29298 -3.21999 1.44905 254 254 254
-2.30620 -3.22223 1.44962 254 254 254
-2.31940 -3.22447 1.45019 254 254 254
-2.33258 -3.22671 1.45076 254 254 254
-2.34572 -3.22894 1.45132 254 254 254
-2.35884 -3.23117 1.45189 254 254 254
-2.47574 -3.25100 1.45693 254 254 254
-2.48860 -3.25319 1.45749 254 254 254
-2.50144 -3.25537 1.45804 254 254 254
-2.51425 -3.25754 1.45859 254 254 254
-2.52703 -3.25971 1.45915 254 254 254
-2.53979 -3.26187 1.45970 254 254 254
-2.55252 -3.26403 1.46025 254 254 254
-2.56523 -3.26619 1.46079 254 254 254
-2.57791 -3.26834 1.46134 254 254 254
-2.59056 -3.27049 1.46189 254 254 254
-2.60320 -3.27263 1.46243 254 254 254
-2.61580 -3.27477 1.46298 254 254 254
-2.62838 -3.27691 1.46352 254 254 254
-2.64094 -3.27904 1.46406 254 254 254
-2.65347 -3.28117 1.46460 254 254 254
-2.66598 -3.28329 1.46514 254 254 254
-2.67846 -3.28541 1.46568 254 254 254
-2.69092 -3.28752 1.46622 254 254 254
-2.70335 -3.28963 1.46675 254 254 254
-2.71576 -3.29174 1.46729 254 254 254
-2.72815 -3.29384 1.46782 254 254 254
-2.74051 -3.29594 1.46836 254 254 254
-2.75285 -3.29803 1.46889 254 254 254
-2.76516 -3.30012 1.46942 254 254 254
-2.77745 -3.30221 1.46995 254 254 254
-2.78971 -3.30429 1.47048 254 254 254
-2.80195 -3.30637 1.47101 254 254 254
-2.81417 -3.30844 1.47154 254 254 254
-2.82636 -3.31051 1.47206 254 254 254
-2.83853 -3.31257 1.47259 254 254 254
-2.85068 -3.31463 1.47311 254 254 254
-2.86280 -3.31669 1.47363 254 254 254
-2.87490 -3.31874 1.47416 254 254 254
-2.88698 -3.32079 1.47468 254 254 254
-2.89903 -3.32284 1.47520 254 254 254
-2.91106 -3.32488 1.47572 254 254 254
-2.92306 -3.32692 1.47623 254 254 254
-2.93505 -3.32895 1.47675 254 254 254
-2.94701 -3.33098 1.47727 254 254 254
-2.95894 -3.33301 1.47778 254 254 254
-2.97086 -3.33503 1.47830 254 254 254
-2.30057 -3.20621 1.43619 254 254 254
-2.31373 -3.20846 1.43677 254 254 254
-2.32687 -3.21070 1.43735 254 254 254
-2.33997 -3.21294 1.43793 254 254 254
-2.35305 -3.21518 1.43851 254 254 254
-2.49521 -3.23947 1.44479 254 254 254
-2.50798 -3.24165 1.44535 254 254 254
-2.52073 -3.24383 1.44591 254 254 254
-2.53345 -3.24600 1.44647 254 254 254
-2.54614 -3.24817 1.44704 254 254 254
-2.55881 -3.25033 1.44759 254 254 254
-2.57145 -3.25249 1.44815 254 254 254
-2.58407 -3.25465 1.44871 254 254 254
-2.59667 -3.25680 1.44927 254 254 254
-2.60924 -3.25895 1.44982 254 254 254
-2.62178 -3.26109 1.45038 254 254 254
-2.63430 -3.26323 1.45093 254 254 254
-2.64680 -3.26537 1.45148 254 254 254
-2.65927 -3.26750 1.45203 254 254 254
-2.67172 -3.26962 1.45258 254 254 254
-2.68414 -3.27175 1.45313 254 254 254
-2.69654 -3.27386 1.45368 254 254 254
-2.70891 -3.27598 1.45422 254 254 254
-2.72126 -3.27809 1.45477 254 254 254
-2.73358 -3.28019 1.45531 254 254 254
-2.74589 -3.28230 1.45586 254 254 254
-2.75816 -3.28439 1.45640 254 254 254
-2.77042 -3.28649 1.45694 254 254 254
-2.78265 -3.28858 1.45748 254 254 254
-2.79485 -3.29066 1.45802 254 254 254
-2.80703 -3.29274 1.45856 254 254 254
-2.81919 -3.29482 1.45909 254 254 254
-2.83133 -3.29690 1.45963 254 254 254
-2.84344 -3.29896 1.46016 254 254 254
-2.85553 -3.30103 1.46070 254 254 254
-2.86759 -3.30309 1.46123 254 254 254
-2.87964 -3.30515 1.46176 254 254 254
-2.89165 -3.30720 1.46229 254 254 254
-2.90365 -3.30925 1.46282 254 254 254
-2.91562 -3.31130 1.46335 254 254 254
-2.92757 -3.31334 1.46388 254 254 254
-2.93950 -3.31538 1.46441 254 254 254
-2.95140 -3.31741 1.46493 254 254 254
-2.96328 -3.31944 1.46546 254 254 254
-2.52715 -3.23024 1.43334 254 254 254
-2.53981 -3.23241 1.43392 254 254 254
-2.55244 -3.23458 1.43449 254 254 254
-2.56505 -3.23675 1.43506 254 254 254
-2.57763 -3.23892 1.43562 254 254 254
-2.59019 -3.24108 1.43619 254 254 254
-2.60272 -3.24323 1.43676 254 254 254
-2.61523 -3.24538 1.43732 254 254 254
-2.62771 -3.24753 1.43789 254 254 254
-2.64017 -3.24967 1.43845 254 254 254
-2.65260 -3.25181 1.43901 254 254 254
-2.66501 -3.25395 1.43957 254 254 254
-2.67740 -3.25608 1.44013 254 254 254
-2.68976 -3.25820 1.44069 254 254 254
-2.70210 -3.26033 1.44125 254 254 254
-2.71441 -3.26245 1.44180 254 254 254
-2.72670 -3.26456 1.44236 254 254 254
-2.73897 -3.26667 1.44291 254 254 254
-2.75121 -3.26877 1.44346 254 254 254
-2.76343 -3.27088 1.44401 254 254 254
-2.77563 -3.27297 1.44457 254 254 254
-2.78780 -3.27507 1.44512 254 254 254
-2.79995 -3.27716 1.44566 254 254 254
-2.81207 -3.27924 1.44621 254 254 254
-2.82417 -3.28132 1.44676 254 254 254
-2.83625 -3.28340 1.44730 254 254 254
-2.84830 -3.28547 1.44785 254 254 254
-2.86034 -3.28754 1.44839 254 254 254
-2.87234 -3.28961 1.44893 254 254 254
-2.88433 -3.29167 1.44947 254 254 254
-2.89629 -3.29373 1.45001 254 254 254
-2.90823 -3.29578 1.45055 254 254 254
-2.92015 -3.29783 1.45109 254 254 254
-2.93204 -3.29988 1.45163 254 254 254
-2.94391 -3.30192 1.45217 254 254 254
-2.95576 -3.30396 1.45270 254 254 254
-2.54611 -3.21894 1.42147 254 252 252
-2.55868 -3.22112 1.42205 254 253 254
-2.57123 -3.22329 1.42263 254 254 254
-2.58375 -3.22546 1.42321 254 254 254
-2.59624 -3.22762 1.42378 254 254 254
-2.60872 -3.22978 1.42436 254 254 254
-2.62116 -3.23194 1.42493 254 254 254
-2.63359 -3.23409 1.42551 254 254 254
-2.64598 -3.23624 1.42608 254 254 254
-2.65836 -3.23838 1.42665 254 254 254
-2.67071 -3.24052 1.42722 254 254 254
-2.68304 -3.24265 1.42779 254 254 254
-2.69534 -3.24478 1.42836 254 254 254
-2.70762 -3.24691 1.42892 254 254 254
-2.71987 -3.24903 1.42949 254 254 254
-2.73210 -3.25115 1.43005 254 254 254
-2.74431 -3.25326 1.43062 254 254 254
-2.75649 -3.25537 1.43118 254 254 254
-2.76865 -3.25748 1.43174 254 254 254
-2.78079 -3.25958 1.43230 254 254 254
-2.79291 -3.26167 1.43286 254 254 254
-2.80500 -3.26377 1.43342 254 254 254
-2.81706 -3.26586 1.43397 254 254 254
-2.82911 -3.26794 1.43453 254 254 254
-2.84113 -3.27002 1.43508 254 254 254
-2.85313 -3.27210 1.43564 254 254 254
-2.86510 -3.27417 1.43619 254 254 254
-2.87705 -3.27624 1.43674 254 254 254
-2.88898 -3.27831 1.43729 254 254 254
-2.90089 -3.28037 1.43784 254 254 254
-2.91277 -3.28243 1.43839 254 254 254
-2.92463 -3.28448 1.43894 254 254 254
-2.93647 -3.28653 1.43948 254 254 254
-2.94829 -3.28858 1.44003 254 254 254
-2.56487 -3.20778 1.40972 252 251 252
-2.57735 -3.20995 1.41031 253 253 253
-2.58981 -3.21212 1.41090 253 253 253
-2.60225 -3.21429 1.41148 254 254 254
-2.61466 -3.21645 1.41207 254 254 254
-2.62705 -3.21861 1.41265 254 254 254
-2.63941 -3.22077 1.41323 254 254 254
-2.65175 -3.22292 1.41382 254 254 254
-2.66406 -3.22506 1.41440 254 254 254
-2.67635 -3.22720 1.41498 254 254 254
-2.68862 -3.22934 1.41555 254 254 254
-2.70087 -3.23148 1.41613 254 254 254
-2.71309 -3.23360 1.41671 254 254 254
-2.72528 -3.23573 1.41728 254 254 254
-2.73745 -3.23785 1.41786 254 254 254
-2.74960 -3.23997 1.41843 254 254 254
-2.76173 -3.24208 1.41900 254 254 254
-2.77383 -3.24419 1.41957 254 254 254
-2.78591 -3.24630 1.42014 254 254 254
-2.79797 -3.24840 1.42071 254 254 254
-2.81000 -3.25049 1.42128 254 254 254
-2.82201 -3.25259 1.42184 254 254 254
-2.83400 -3.25468 1.42241 254 254 254
-2.84596 -3.25676 1.42297 254 254 254
-2.85791 -3.25884 1.42353 254 254 254
-2.86982 -3.26092 1.42410 254 254 254
-2.88172 -3.26299 1.42466 254 254 254
-2.89359 -3.26506 1.42522 254 254 254
-2.90544 -3.26713 1.42577 254 254 254
-2.91727 -3.26919 1.42633 254 254 254
-2.92908 -3.27125 1.42689 254 254 254
-2.94086 -3.27330 1.42744 254 254 254
-2.58343 -3.19673 1.39810 252 251 249
-2.59583 -3.19890 1.39869 253 252 249
-2.60820 -3.20107 1.39929 254 253 252
-2.62055 -3.20324 1.39988 253 253 254
-2.63288 -3.20540 1.40048 254 254 254
-2.64518 -3.20756 1.40107 254 254 254
-2.65746 -3.20971 1.40166 254 254 254
-2.66972 -3.21186 1.40225 254 254 254
-2.68195 -3.21401 1.40284 254 254 254
-2.69416 -3.21615 1.40343 254 254 254
-2.70634 -3.21828 1.40401 254 254 254
-2.71851 -3.22042 1.40460 254 254 254
-2.73064 -3.22255 1.40518 254 254 254
-2.74276 -3.22467 1.40576 254 254 254
-2.75485 -3.22679 1.40635 254 254 254
-2.76692 -3.22891 1.40693 254 254 254
-2.77897 -3.23102 1.40751 254 254 254
-2.79099 -3.23313 1.40808 254 254 254
-2.80299 -3.23523 1.40866 254 254 254
-2.81497 -3.23733 1.40924 254 254 254
-2.82692 -3.23943 1.40981 254 254 254
-2.83885 -3.24152 1.41039 254 254 254
-2.85076 -3.24361 1.41096 254 254 254
-2.86264 -3.24570 1.41153 254 254 254
-2.87451 -3.24778 1.41210 254 254 254
-2.88635 -3.24985 1.41267 254 254 254
-2.89817 -3.25193 1.41324 254 254 254
-2.90996 -3.25400 1.41381 254 254 254
-2.92174 -3.25606 1.41438 254 254 254
-2.93349 -3.25812 1.41494 254 254 254
-2.58945 -3.18362 1.38599 254 253 249
-2.60179 -3.18580 1.38660 254 253 245
-2.61410 -3.18797 1.38720 254 252 247
-2.62639 -3.19014 1.38781 253 251 253
-2.63866 -3.19230 1.38841 253 254 254
-2.65091 -3.19446 1.38901 254 254 254
-2.66313 -3.19662 1.38961 254 254 253
-2.67532 -3.19877 1.39021 254 254 254
-2.68750 -3.20092 1.39081 254 254 254
-2.69965 -3.20307 1.39140 254 254 254
-2.71178 -3.20521 1.39200 254 254 254
-2.72388 -3.20734 1.39259 254 254 254
-2.73596 -3.20948 1.39318 254 254 254
-2.74802 -3.21160 1.39378 254 254 254
-2.76005 -3.21373 1.39437 254 254 254
-2.77207 -3.21585 1.39496 254 254 254
-2.78405 -3.21796 1.39555 254 254 254
-2.79602 -3.22008 1.39613 254 254 254
-2.80797 -3.22218 1.39672 254 254 254
-2.81989 -3.22429 1.39730 254 254 254
-2.83178 -3.22639 1.39789 254 254 254
-2.84366 -3.22848 1.39847 254 254 254
-2.85551 -3.23058 1.39905 254 254 254
-2.86734 -3.23266 1.39963 254 254 254
-2.87915 -3.23475 1.40021 254 254 254
-2.89094 -3.23683 1.40079 254 254 254
-2.90270 -3.23890 1.40137 254 254 254
-2.91444 -3.24098 1.40195 254 254 254
-2.92616 -3.24305 1.40252 254 254 254
-2.64439 -3.17932 1.37644 254 254 254
-2.65658 -3.18148 1.37705 254 254 253
-2.66874 -3.18364 1.37766 254 253 250
-2.68088 -3.18580 1.37827 254 253 252
-2.69300 -3.18795 1.37888 254 254 253
-2.70509 -3.19010 1.37948 253 253 253
-2.71716 -3.19224 1.38009 254 254 254
-2.72921 -3.19438 1.38069 254 254 254
-2.74123 -3.19652 1.38129 254 254 254
-2.75323 -3.19865 1.38189 254 254 254
-2.76521 -3.20078 1.38249 254 254 254
-2.77717 -3.20290 1.38309 254 254 254
-2.78910 -3.20502 1.38369 254 254 254
-2.80101 -3.20713 1.38428 254 254 254
-2.81290 -3.20925 1.38488 254 254 254
-2.82476 -3.21135 1.38547 254 254 254
-2.83661 -3.21346 1.38606 254 254 254
-2.84843 -3.21555 1.38666 254 254 254
-2.86023 -3.21765 1.38725 254 254 254
-2.87200 -3.21974 1.38784 254 254 254
-2.88376 -3.22183 1.38842 254 254 254
-2.89549 -3.22391 1.38901 254 254 254
-2.90720 -3.22599 1.38960 254 254 254
-2.91889 -3.22807 1.39018 254 254 254
-2.66220 -3.16862 1.36520 254 254 254
-2.67431 -3.17078 1.36582 254 254 253
-2.68639 -3.17294 1.36644 254 254 253
-2.69845 -3.17509 1.36705 254 253 251
-2.71049 -3.17724 1.36766 251 249 248
-2.72250 -3.17939 1.36828 253 254 254
-2.73449 -3.18153 1.36889 254 254 254
-2.74646 -3.18367 1.36950 254 254 253
-2.75840 -3.18580 1.37011 254 254 254
-2.77033 -3.18793 1.37072 254 254 254
-2.78223 -3.19006 1.37132 254 254 254
-2.79410 -3.19218 1.37193 254 254 254
-2.80596 -3.19430 1.37253 254 254 254
-2.81779 -3.19642 1.37314 254 254 254
-2.82960 -3.19853 1.37374 254 254 254
-2.84139 -3.20063 1.37434 254 254 254
-2.85316 -3.20274 1.37494 254 254 254
-2.86490 -3.20483 1.37554 254 254 254
-2.87662 -3.20693 1.37614 254 254 254
-2.88832 -3.20902 1.37673 254 254 254
-2.90000 -3.21111 1.37733 254 254 254
-2.91166 -3.21319 1.37793 254 254 254
-2.66778 -3.15586 1.35345 254 254 254
-2.67983 -3.15802 1.35408 254 254 254
-2.69185 -3.16018 1.35470 254 254 254
-2.70386 -3.16234 1.35532 254 254 253
-2.71584 -3.16450 1.35595 254 254 252
-2.72779 -3.16665 1.35657 254 254 253
-2.73973 -3.16879 1.35719 253 253 251
-2.75164 -3.17093 1.35781 254 254 250
-2.76353 -3.17307 1.35843 253 254 253
-2.77540 -3.17520 1.35904 253 252 253
-2.78724 -3.17733 1.35966 254 254 254
-2.79906 -3.17946 1.36027 254 254 254
-2.81086 -3.18158 1.36088 254 254 254
-2.82264 -3.18370 1.36150 254 254 254
-2.83440 -3.18581 1.36211 254 254 254
-2.84613 -3.18792 1.36272 254 254 254
-2.85784 -3.19002 1.36333 254 254 254
-2.86953 -3.19213 1.36393 254 254 254
-2.88120 -3.19422 1.36454 254 254 254
-2.89285 -3.19632 1.36514 254 254 254
-2.90447 -3.19841 1.36575 252 254 254
-2.67331 -3.14321 1.34180 254 254 253
-2.68530 -3.14538 1.34243 254 254 254
-2.69727 -3.14754 1.34307 254 254 254
-2.70922 -3.14970 1.34370 254 254 254
-2.72114 -3.15186 1.34433 254 254 254
-2.73304 -3.15401 1.34496 254 254 254
-2.74492 -3.15616 1.34559 254 254 253
-2.75678 -3.15830 1.34621 254 254 252
-2.76861 -3.16044 1.34684 252 251 249
-2.78042 -3.16258 1.34747 250 246 247
-2.79221 -3.16471 1.34809 252 252 253
-2.80398 -3.16684 1.34871 253 254 254
-2.81573 -3.16896 1.34933 254 254 254
-2.82745 -3.17108 1.34995 254 254 254
-2.83915 -3.17320 1.35057 254 254 254
-2.85083 -3.17531 1.35119 254 254 254
-2.86249 -3.17742 1.35181 254 254 254
-2.87413 -3.17952 1.35242 254 254 254
-2.88575 -3.18162 1.35304 254 254 254
-2.89734 -3.18372 1.35365 254 254 254
-2.67879 -3.13066 1.33025 254 254 254
-2.69073 -3.13284 1.33089 254 254 254
-2.70264 -3.13500 1.33153 254 254 254
-2.71453 -3.13717 1.33217 254 254 254
-2.72640 -3.13932 1.33281 254 254 254
-2.73825 -3.14148 1.33345 254 254 254
-2.75007 -3.14363 1.33408 254 254 254
-2.76187 -3.14578 1.33472 254 254 254
-2.77365 -3.14792 1.33535 254 254 252
-2.78541 -3.15006 1.33599 254 253 251
-2.79715 -3.15219 1.33662 254 253 252
-2.80886 -3.15433 1.33725 252 250 250
-2.82055 -3.15645 1.33788 253 253 250
-2.83222 -3.15858 1.33851 253 254 253
-2.68423 -3.11823 1.31879 254 254 254
-2.69611 -3.12040 1.31944 254 254 254
-2.70797 -3.12257 1.32009 254 254 254
-2.71980 -3.12474 1.32074 254 254 254
-2.73162 -3.12690 1.32139 254 254 254
-2.74341 -3.12906 1.32203 254 254 254
-2.75518 -3.13121 1.32268 254 254 254
-2.76692 -3.13336 1.32332 254 254 254
-2.77865 -3.13550 1.32396 254 254 254
-2.79035 -3.13765 1.32460 254 254 254
-2.80204 -3.13978 1.32524 254 254 253
-2.81370 -3.14192 1.32588 254 254 253
-2.82534 -3.14405 1.32652 254 254 253
-2.68962 -3.10590 1.30744 254 254 254
-2.70144 -3.10807 1.30809 254 254 254
-2.71325 -3.11024 1.30875 254 254 254
-2.72503 -3.11241 1.30941 254 254 254
-2.73679 -3.11458 1.31006 254 254 254
-2.74853 -3.11674 1.31072 254 254 254
-2.76024 -3.11889 1.31137 254 254 254
-2.77193 -3.12104 1.31202 254 254 254
-2.78361 -3.12319 1.31267 254 254 254
-2.79526 -3.12534 1.31332 254 254 254
-2.80689 -3.12748 1.31396 254 254 254
-2.81849 -3.12961 1.31461 254 254 254
-2.70674 -3.09585 1.29684 254 254 254
-2.71848 -3.09802 1.29750 254 254 254
-2.73021 -3.10019 1.29817 254 254 254
-2.74192 -3.10236 1.29883 254 254 254
-2.75360 -3.10452 1.29949 254 254 254
-2.76526 -3.10668 1.30015 254 254 254
-2.77690 -3.10883 1.30081 254 254 254
-2.78852 -3.11098 1.30147 254 254 254
-2.80012 -3.11313 1.30212 254 254 254
-2.81169 -3.11527 1.30278 254 254 254
-2.72368 -3.08590 1.28635 254 254 254
-2.73535 -3.08807 1.28702 254 254 254
-2.74700 -3.09024 1.28769 254 254 254
-2.75863 -3.09240 1.28836 254 254 254
-2.77024 -3.09456 1.28903 254 254 254
-2.78183 -3.09672 1.28969 254 254 254
-2.79339 -3.09887 1.29036 254 254 254
-2.74045 -3.07605 1.27597 254 254 254
-2.75205 -3.07822 1.27665 254 254 254
-2.76362 -3.08039 1.27732 254 254 254
-2.77518 -3.08255 1.27800 254 254 254
-2.78671 -3.08471 1.27867 254 254 254
-2.76857 -3.06847 1.26637 254 254 254
-2.78008 -3.07064 1.26706 254 254 254
-0.76575 -5.53655 1.43995 115 117 116
-0.73385 -5.50260 1.41496 122 125 113
-0.75710 -5.50788 1.41601 117 121 121
-0.78031 -5.51315 1.41706 118 120 121
-0.80348 -5.51841 1.41810 120 122 120
-0.72535 -5.47414 1.39117 124 124 111
-0.74851 -5.47942 1.39224 121 121 106
-0.77164 -5.48469 1.39330 110 116 116
-0.79474 -5.48995 1.39436 113 116 118
-0.81779 -5.49521 1.39542 118 121 120
-0.84081 -5.50045 1.39648 118 120 116
-0.86380 -5.50569 1.39754 112 113 109
-0.88674 -5.51092 1.39860 103 106 99
-0.71690 -5.44587 1.36755 115 116 110
-0.73999 -5.45116 1.36863 117 117 117
-0.76304 -5.45643 1.36971 113 113 108
-0.78606 -5.46170 1.37079 106 112 113
-0.80904 -5.46696 1.37187 110 113 116
-0.83198 -5.47221 1.37294 114 116 119
-0.85489 -5.47745 1.37401 115 117 116
-0.87776 -5.48269 1.37509 116 115 114
-0.90059 -5.48791 1.37615 115 114 108
-0.92339 -5.49313 1.37722 110 112 108
-0.70851 -5.41782 1.34411 119 121 111
-0.73152 -5.42310 1.34520 117 114 104
-0.75450 -5.42838 1.34630 115 115 119
-0.77744 -5.43365 1.34739 114 113 113
-0.80035 -5.43892 1.34848 113 114 115
-0.82322 -5.44417 1.34957 112 119 119
-0.84605 -5.44942 1.35066 110 113 116
-0.86884 -5.45465 1.35174 112 114 114
-0.89160 -5.45988 1.35283 115 117 118
-0.91433 -5.46510 1.35391 114 115 117
-0.93702 -5.47031 1.35499 119 120 120
-0.95967 -5.47552 1.35607 122 122 120
-0.98228 -5.48072 1.35714 113 111 111
-0.67721 -5.38466 1.31972 120 117 111
-0.70018 -5.38996 1.32083 124 126 117
-0.72312 -5.39525 1.32194 123 131 126
-0.74602 -5.40053 1.32305 117 121 116
-0.76889 -5.40581 1.32415 116 120 120
-0.79172 -5.41107 1.32526 116 118 112
-0.81451 -5.41633 1.32636 118 121 109
-0.83727 -5.42158 1.32747 111 118 107
-0.85999 -5.42682 1.32857 109 111 105
-0.88268 -5.43205 1.32966 110 112 108
-0.90533 -5.43727 1.33076 111 116 111
-0.92794 -5.44249 1.33185 110 116 109
-0.95052 -5.44770 1.33295 115 117 113
-0.97306 -5.45290 1.33404 118 117 115
-0.99557 -5.45809 1.33513 113 112 105
-1.01804 -5.46327 1.33622 109 107 100
-0.62311 -5.34637 1.29433 127 125 119
-0.64608 -5.35169 1.29546 119 120 105
-0.66902 -5.35700 1.29659 109 114 114
-0.69191 -5.36230 1.29772 116 122 116
-0.71478 -5.36760 1.29884 122 120 120
-0.73760 -5.37288 1.29996 121 123 122
-0.76040 -5.37816 1.30109 113 115 109
-0.78315 -5.38343 1.30221 114 114 105
-0.80587 -5.38869 1.30332 116 117 112
-0.82855 -5.39394 1.30444 121 122 109
-0.85120 -5.39918 1.30555 117 119 101
-0.87381 -5.40442 1.30667 116 116 96
-0.89639 -5.40965 1.30778 113 113 102
-0.91893 -5.41486 1.30889 111 113 108
-0.94144 -5.42007 1.30999 110 113 108
-0.96391 -5.42528 1.31110 115 115 107
-0.98634 -5.43047 1.31220 117 117 107
-1.00874 -5.43566 1.31330 113 115 107
-1.03111 -5.44084 1.31440 112 113 105
-1.05344 -5.44601 1.31550 110 110 98
-1.07573 -5.45117 1.31660 105 105 95
-0.61513 -5.31890 1.27134 121 126 123
-0.63802 -5.32422 1.27249 127 127 135
-0.66088 -5.32954 1.27363 117 109 107
-0.68371 -5.33484 1.27477 112 109 114
-0.70649 -5.34014 1.27591 119 123 118
-0.72925 -5.34543 1.27705 126 123 126
-0.75196 -5.35071 1.27818 125 128 126
-0.77464 -5.35598 1.27931 114 118 114
-0.79729 -5.36124 1.28045 116 120 114
-0.81990 -5.36649 1.28158 117 124 117
-0.84247 -5.37174 1.28270 117 121 112
-0.86501 -5.37698 1.28383 117 121 111
-0.88751 -5.38221 1.28496 122 125 112
-0.90998 -5.38743 1.28608 117 119 110
-0.93242 -5.39265 1.28720 114 112 112
-0.95482 -5.39785 1.28832 116 114 113
-0.97718 -5.40305 1.28944 117 118 109
-0.99951 -5.40824 1.29055 116 118 109
-1.02180 -5.41342 1.29167 115 116 113
-1.04406 -5.41859 1.29278 112 114 113
-1.06628 -5.42376 1.29389 109 114 110
-1.08847 -5.42892 1.29500 111 116 112
-1.11063 -5.43407 1.29611 112 112 112
-0.63002 -5.29695 1.24968 118 121 121
-0.65281 -5.30227 1.25083 113 115 124
-0.67556 -5.30758 1.25199 120 119 107
-0.69827 -5.31287 1.25314 115 114 107
-0.72095 -5.31817 1.25429 117 118 118
-0.74359 -5.32345 1.25544 126 123 125
-0.76620 -5.32872 1.25659 126 130 116
-0.78877 -5.33399 1.25773 122 125 112
-0.81130 -5.33925 1.25887 122 125 115
-0.83381 -5.34449 1.26002 120 123 112
-0.85627 -5.34974 1.26116 119 118 106
-0.87870 -5.35497 1.26230 119 120 109
-0.90110 -5.36019 1.26343 121 122 111
-0.92346 -5.36541 1.26457 119 120 106
-0.94579 -5.37062 1.26570 119 117 110
-0.96808 -5.37582 1.26683 119 118 112
-0.99034 -5.38101 1.26796 115 118 111
-1.01256 -5.38620 1.26909 112 114 114
-1.03475 -5.39137 1.27021 114 114 119
-1.05690 -5.39654 1.27134 111 112 114
-1.07902 -5.40170 1.27246 105 111 106
-1.10111 -5.40685 1.27358 110 114 109
-1.12316 -5.41200 1.27470 113 112 108
-1.14518 -5.41713 1.27582 108 108 106
-0.57655 -5.25921 1.22468 128 119 113
-0.59933 -5.26455 1.22585 122 121 117
-0.62208 -5.26988 1.22702 113 119 114
-0.64479 -5.27519 1.22819 115 117 111
-0.66746 -5.28050 1.22936 119 114 106
-0.69010 -5.28580 1.23053 127 120 111
-0.71271 -5.29110 1.23169 123 120 111
-0.73528 -5.29638 1.23286 115 120 124
-0.75781 -5.30166 1.23402 118 117 131
-0.78031 -5.30693 1.23518 120 115 114
-0.80277 -5.31219 1.23633 121 117 113
-0.82520 -5.31744 1.23749 119 121 113
-0.84759 -5.32268 1.23864 120 120 114
-0.86995 -5.32792 1.23979 121 117 110
-0.89228 -5.33315 1.24094 120 118 112
-0.91457 -5.33837 1.24209 122 120 111
-0.93682 -5.34358 1.24324 119 120 107
-0.95904 -5.34878 1.24438 116 118 117
-0.98123 -5.35398 1.24553 115 114 113
-1.00338 -5.35916 1.24667 111 111 103
-1.02550 -5.36434 1.24781 108 111 107
-1.04758 -5.36951 1.24894 109 111 110
-1.06963 -5.37468 1.25008 106 107 96
-1.09165 -5.37983 1.25121 101 105 87
-1.11363 -5.38498 1.25235 104 114 98
-1.13558 -5.39012 1.25348 105 113 96
-1.15749 -5.39525 1.25461 102 102 95
-1.17937 -5.40037 1.25573 110 105 105
-0.56881 -5.23232 1.20216 123 113 124
-0.59152 -5.23766 1.20335 122 113 124
-0.61419 -5.24299 1.20453 121 122 127
-0.63682 -5.24831 1.20572 119 119 119
-0.65943 -5.25362 1.20690 122 119 113
-0.68199 -5.25892 1.20808 123 130 116
-0.70452 -5.26422 1.20926 122 132 133
-0.72702 -5.26951 1.21043 122 123 120
-0.74948 -5.27479 1.21161 118 122 120
-0.77191 -5.28006 1.21278 117 118 118
-0.79430 -5.28532 1.21395 121 118 106
-0.81666 -5.29057 1.21512 123 122 124
-0.83898 -5.29582 1.21629 119 123 123
-0.86127 -5.30106 1.21745 119 127 127
-0.88352 -5.30629 1.21861 124 124 122
-0.90574 -5.31151 1.21977 122 123 122
-0.92792 -5.31672 1.22093 117 121 126
-0.95007 -5.32193 1.22209 113 118 117
-0.97219 -5.32713 1.22325 112 114 117
-0.99427 -5.33232 1.22440 113 114 115
-1.01632 -5.33750 1.22556 114 117 108
-1.03833 -5.34267 1.22671 114 119 111
-1.06031 -5.34784 1.22786 113 119 115
-1.08226 -5.35300 1.22900 111 114 107
-1.10417 -5.35815 1.23015 108 107 99
-1.12605 -5.36329 1.23129 107 111 102
-1.14790 -5.36842 1.23243 108 114 98
-1.16971 -5.37355 1.23357 115 112 97
-1.19149 -5.37867 1.23471 119 115 110
-1.21323 -5.38378 1.23585 121 118 120
-1.23495 -5.38888 1.23698 120 116 108
-1.25662 -5.39398 1.23812 119 119 106
-1.27827 -5.39907 1.23925 115 114 100
0.51957 -4.95071 1.12249 153 165 133
0.44665 -4.96791 1.12636 161 166 152
0.42242 -4.97362 1.12765 160 161 156
-0.53845 -5.20027 1.17860 135 132 125
-0.56112 -5.20562 1.17980 132 126 117
-0.58376 -5.21096 1.18100 127 115 116
-0.60635 -5.21629 1.18220 125 121 122
-0.62892 -5.22161 1.18340 120 126 136
-0.65145 -5.22693 1.18459 126 124 116
-0.67394 -5.23223 1.18579 134 126 106
-0.69640 -5.23753 1.18698 126 126 108
-0.71882 -5.24282 1.18817 118 109 114
-0.74121 -5.24810 1.18935 124 125 121
-0.76357 -5.25337 1.19054 133 130 112
-0.78589 -5.25864 1.19172 127 120 110
-0.80817 -5.26390 1.19290 124 125 107
-0.83042 -5.26914 1.19408 124 124 119
-0.85264 -5.27438 1.19526 126 128 115
-0.87482 -5.27962 1.19644 121 119 120
-0.89697 -5.28484 1.19761 127 120 117
-0.91908 -5.29006 1.19879 124 116 115
-0.94116 -5.29527 1.19996 115 110 115
-0.96321 -5.30047 1.20113 106 103 107
-0.98522 -5.30566 1.20229 107 105 109
-1.00720 -5.31084 1.20346 111 114 116
-1.02914 -5.31602 1.20462 112 120 117
-1.05106 -5.32119 1.20578 114 124 117
-1.07293 -5.32635 1.20694 116 123 114
-1.09478 -5.33150 1.20810 114 120 111
-1.11659 -5.33665 1.20926 117 121 112
-1.13836 -5.34178 1.21041 121 121 111
-1.16011 -5.34691 1.21157 113 114 103
-1.18182 -5.35203 1.21272 119 119 104
-1.20350 -5.35715 1.21387 119 118 109
-1.22514 -5.36225 1.21502 119 118 110
-1.24676 -5.36735 1.21616 117 115 109
-1.26833 -5.37244 1.21731 116 116 109
-1.28988 -5.37752 1.21845 114 118 108
-1.31139 -5.38260 1.21959 111 114 102
0.47507 -4.93561 1.10229 157 164 148
0.45089 -4.94134 1.10359 139 139 139
0.42674 -4.94706 1.10489 158 167 155
0.40263 -4.95276 1.10618 170 165 152
0.37857 -4.95846 1.10748 162 158 153
0.35454 -4.96415 1.10877 156 156 155
0.33055 -4.96983 1.11006 164 162 164
-0.53090 -5.17376 1.15639 136 126 118
-0.55349 -5.17911 1.15760 138 131 121
-0.57605 -5.18445 1.15881 133 134 121
-0.59858 -5.18978 1.16003 125 128 117
-0.62107 -5.19510 1.16124 120 128 112
-0.64352 -5.20042 1.16244 114 121 115
-0.66594 -5.20573 1.16365 125 124 106
-0.68833 -5.21103 1.16485 126 126 109
-0.71068 -5.21632 1.16605 123 123 109
-0.73300 -5.22160 1.16726 114 118 111
-0.75528 -5.22688 1.16845 124 133 133
-0.77753 -5.23214 1.16965 129 134 114
-0.79974 -5.23740 1.17084 130 130 115
-0.82192 -5.24265 1.17204 122 128 111
-0.84407 -5.24790 1.17323 118 117 113
-0.86618 -5.25313 1.17442 117 114 107
-0.88826 -5.25836 1.17560 113 115 103
-0.91030 -5.26358 1.17679 119 120 113
-0.93231 -5.26879 1.17797 120 118 113
-0.95429 -5.27399 1.17916 113 107 114
-0.97623 -5.27918 1.18034 103 100 114
-0.99814 -5.28437 1.18151 108 107 115
-1.02002 -5.28955 1.18269 111 114 113
-1.04186 -5.29472 1.18387 110 117 112
-1.06367 -5.29988 1.18504 118 126 115
-1.08545 -5.30504 1.18621 122 125 107
-1.10719 -5.31019 1.18738 115 116 101
-1.12890 -5.31532 1.18855 112 117 107
-1.15058 -5.32046 1.18971 115 118 103
-1.17222 -5.32558 1.19088 107 110 100
-1.19383 -5.33070 1.19204 111 114 108
-1.21541 -5.33580 1.19320 113 116 113
-1.23695 -5.34090 1.19436 115 120 115
-1.25847 -5.34600 1.19551 115 116 103
-1.27995 -5.35108 1.19667 111 111 100
-1.30139 -5.35616 1.19782 115 110 103
0.47919 -4.90924 1.07966 158 161 155
0.45509 -4.91497 1.08098 167 161 160
0.43103 -4.92068 1.08229 158 160 151
0.40701 -4.92639 1.08360 157 146 163
0.38302 -4.93209 1.08491 172 166 159
0.35908 -4.93778 1.08621 164 156 157
0.33517 -4.94346 1.08752 160 152 158
0.31130 -4.94913 1.08882 167 153 158
0.28747 -4.95479 1.09012 155 151 147
0.26367 -4.96044 1.09141 151 150 150
0.23992 -4.96609 1.09271 163 160 160
-0.54591 -5.15278 1.13555 132 124 122
-0.56840 -5.15812 1.13678 122 125 123
-0.59085 -5.16346 1.13801 126 132 129
-0.61327 -5.16878 1.13923 124 135 131
-0.63565 -5.17410 1.14045 124 129 119
-0.65800 -5.17941 1.14167 126 125 114
-0.68032 -5.18471 1.14288 133 123 111
-0.70260 -5.19000 1.14410 123 124 121
-0.72484 -5.19529 1.14531 127 129 122
-0.74706 -5.20056 1.14652 129 134 119
-0.76923 -5.20583 1.14773 133 136 124
-0.79138 -5.21109 1.14894 129 129 125
-0.81349 -5.21635 1.15014 131 134 128
-0.83556 -5.22159 1.15135 111 120 118
-0.85760 -5.22683 1.15255 111 114 114
-0.87961 -5.23206 1.15375 115 112 107
-0.90159 -5.23728 1.15495 116 120 111
-0.92353 -5.24249 1.15614 120 126 124
-0.94543 -5.24769 1.15734 124 123 122
-0.96731 -5.25289 1.15853 121 117 120
-0.98915 -5.25808 1.15972 120 118 121
-1.01096 -5.26326 1.16091 126 125 125
-1.03273 -5.26843 1.16210 128 120 114
-1.05447 -5.27360 1.16328 122 113 101
-1.07618 -5.27876 1.16447 115 118 107
-1.09786 -5.28391 1.16565 114 120 111
-1.11950 -5.28905 1.16683 115 114 106
-1.14111 -5.29418 1.16801 119 116 107
-1.16268 -5.29931 1.16918 123 119 105
-1.18423 -5.30443 1.17036 116 117 105
-1.20574 -5.30954 1.17153 113 117 108
-1.22722 -5.31464 1.17270 110 118 113
-1.24867 -5.31973 1.17387 114 120 117
-1.27008 -5.32482 1.17504 116 117 109
-1.29146 -5.32990 1.17620 109 102 98
0.62819 -4.84851 1.04919 170 165 168
0.48328 -4.88306 1.05720 159 153 155
0.45927 -4.88878 1.05853 171 163 155
0.43529 -4.89450 1.05985 169 173 167
0.41135 -4.90020 1.06118 163 170 169
0.38745 -4.90590 1.06250 161 153 153
0.36358 -4.91159 1.06382 159 151 147
0.33976 -4.91727 1.06513 162 167 155
0.31597 -4.92294 1.06645 169 157 154
0.29222 -4.92861 1.06776 157 152 146
0.26851 -4.93426 1.06907 146 144 144
0.24483 -4.93990 1.07038 154 149 154
0.22120 -4.94554 1.07169 154 154 157
0.19760 -4.95117 1.07299 152 153 146
0.05678 -4.98474 1.08077 143 136 132
0.03344 -4.99030 1.08206 143 138 130
0.01013 -4.99586 1.08335 130 133 120
-0.01314 -5.00141 1.08464 120 123 106
-0.53839 -5.12663 1.11366 134 132 117
-0.56080 -5.13198 1.11490 130 128 118
-0.58318 -5.13731 1.11614 122 127 116
-0.60553 -5.14264 1.11737 128 133 124
-0.62784 -5.14796 1.11861 131 136 122
-0.65012 -5.15327 1.11984 128 130 112
-0.67236 -5.15857 1.12107 127 128 118
-0.69457 -5.16387 1.12229 128 126 118
-0.71674 -5.16916 1.12352 129 124 124
-0.73889 -5.17443 1.12474 129 128 123
-0.76099 -5.17970 1.12596 124 126 120
-0.78307 -5.18497 1.12718 124 130 121
-0.80511 -5.19022 1.12840 122 122 123
-0.82711 -5.19547 1.12962 128 126 122
-0.84908 -5.20071 1.13083 125 126 113
-0.87102 -5.20594 1.13204 125 122 105
-0.89293 -5.21116 1.13325 121 111 100
-0.91480 -5.21637 1.13446 116 118 117
-0.93664 -5.22158 1.13567 119 126 124
-0.95845 -5.22678 1.13687 126 124 121
-0.98022 -5.23197 1.13808 126 122 119
-1.00196 -5.23715 1.13928 122 123 120
-1.02366 -5.24233 1.14048 121 123 121
-1.04534 -5.24750 1.14168 119 116 112
-1.06698 -5.25266 1.14287 116 116 104
-1.08859 -5.25781 1.14407 112 118 107
-1.11016 -5.26295 1.14526 111 115 112
-1.13170 -5.26809 1.14645 116 113 109
-1.15321 -5.27322 1.14764 120 113 109
-1.17469 -5.27834 1.14882 121 119 110
-1.19614 -5.28345 1.15001 117 118 101
-1.21755 -5.28855 1.15119 110 112 98
-1.23893 -5.29365 1.15237 103 111 110
-1.26028 -5.29874 1.15355 106 110 116
-1.28160 -5.30382 1.15473 108 111 107
0.63175 -4.82251 1.02682 149 147 161
0.60758 -4.82829 1.02817 160 163 164
0.48735 -4.85706 1.03490 166 158 150
0.46341 -4.86278 1.03624 167 153 138
0.43952 -4.86850 1.03758 167 170 152
0.41566 -4.87421 1.03892 165 171 157
0.39184 -4.87991 1.04025 158 164 162
0.36806 -4.88560 1.04158 165 165 160
0.34432 -4.89128 1.04291 162 170 163
0.32061 -4.89695 1.04424 156 158 156
0.29694 -4.90261 1.04557 164 161 149
0.27331 -4.90827 1.04689 167 157 145
0.24971 -4.91391 1.04821 147 146 149
0.22616 -4.91955 1.04953 157 153 153
0.20264 -4.92517 1.05085 165 164 156
0.17916 -4.93079 1.05216 157 144 161
0.15571 -4.93640 1.05347 159 155 160
0.01580 -4.96987 1.06131 150 144 131
-0.00739 -4.97542 1.06261 140 138 126
-0.03054 -4.98096 1.06390 135 137 119
-0.05366 -4.98649 1.06520 134 135 116
-0.46368 -5.08458 1.08816 124 124 121
-0.48613 -5.08995 1.08941 124 127 128
-0.50854 -5.09532 1.09067 127 131 128
-0.53092 -5.10067 1.09192 130 128 120
-0.55326 -5.10602 1.09317 135 132 118
-0.57557 -5.11135 1.09442 131 127 123
-0.59784 -5.11668 1.09567 129 129 122
-0.62008 -5.12200 1.09691 131 130 129
-0.64229 -5.12731 1.09816 133 132 127
-0.66446 -5.13262 1.09940 127 125 107
-0.68660 -5.13792 1.10064 127 122 106
-0.70870 -5.14320 1.10188 125 124 114
-0.73077 -5.14848 1.10311 134 129 121
-0.75281 -5.15376 1.10435 134 132 118
-0.77481 -5.15902 1.10558 120 124 115
-0.79678 -5.16428 1.10681 119 119 113
-0.81872 -5.16952 1.10804 119 117 105
-0.84062 -5.17477 1.10926 128 129 137
-0.86249 -5.18000 1.11049 123 124 121
-0.88433 -5.18522 1.11171 126 121 111
-0.90613 -5.19044 1.11293 123 112 105
-0.92790 -5.19565 1.11415 116 119 115
-0.94964 -5.20085 1.11537 121 123 121
-0.97135 -5.20604 1.11658 119 122 122
-0.99302 -5.21122 1.11780 120 124 125
-1.01466 -5.21640 1.11901 123 127 120
-1.03626 -5.22157 1.12022 123 126 112
-1.05784 -5.22673 1.12143 116 115 102
-1.07938 -5.23189 1.12263 112 112 98
-1.10089 -5.23703 1.12384 109 113 103
-1.12236 -5.24217 1.12504 109 115 117
-1.14381 -5.24730 1.12624 118 119 128
-1.16522 -5.25242 1.12744 123 118 124
-1.18660 -5.25754 1.12864 123 124 122
-1.20795 -5.26264 1.12983 119 119 104
-1.22926 -5.26774 1.13102 115 114 101
-1.25055 -5.27284 1.13222 112 119 109
-1.27180 -5.27792 1.13341 112 115 115
0.63528 -4.79670 1.00460 159 170 168
0.61120 -4.80248 1.00597 151 156 153
0.58716 -4.80825 1.00733 156 163 159
0.46753 -4.83697 1.01412 169 169 157
0.44372 -4.84269 1.01547 169 171 144
0.41994 -4.84840 1.01682 164 169 164
0.39620 -4.85410 1.01816 157 154 145
0.37250 -4.85979 1.01951 146 147 134
0.34884 -4.86547 1.02085 160 162 146
0.32521 -4.87114 1.02219 159 147 154
0.30163 -4.87680 1.02353 156 155 157
0.27807 -4.88245 1.02486 150 158 150
0.25456 -4.88810 1.02620 162 159 146
0.23108 -4.89374 1.02753 156 151 143
0.20764 -4.89936 1.02886 152 153 151
0.18424 -4.90498 1.03019 166 156 152
0.16087 -4.91059 1.03151 158 149 150
0.13754 -4.91619 1.03284 155 147 148
0.11425 -4.92178 1.03416 149 146 145
-0.00168 -4.94961 1.04073 143 127 116
-0.02475 -4.95515 1.04204 137 136 127
-0.04779 -4.96069 1.04335 143 133 133
-0.07080 -4.96621 1.04465 144 133 129
-0.09377 -4.97172 1.04596 140 138 124
-0.11670 -4.97723 1.04726 136 123 128
-0.45648 -5.05880 1.06653 117 124 110
-0.47885 -5.06417 1.06780 118 125 118
-0.50119 -5.06953 1.06907 119 123 116
-0.52349 -5.07489 1.07033 122 125 118
-0.54577 -5.08023 1.07159 132 131 128
-0.56800 -5.08557 1.07285 138 134 130
-0.59021 -5.09090 1.07411 134 130 126
-0.61238 -5.09622 1.07537 130 131 125
-0.63451 -5.10154 1.07663 127 131 123
-0.65661 -5.10684 1.07788 121 116 115
-0.67868 -5.11214 1.07913 123 123 116
-0.70071 -5.11743 1.08038 130 123 111
-0.72272 -5.12271 1.08163 129 122 115
-0.74468 -5.12799 1.08288 131 125 122
-0.76662 -5.13325 1.08412 132 126 118
-0.78852 -5.13851 1.08536 117 120 118
-0.81039 -5.14376 1.08660 118 117 118
-0.83222 -5.14900 1.08784 114 111 110
-0.85402 -5.15423 1.08908 122 122 127
-0.87579 -5.15946 1.09031 123 122 124
-0.89753 -5.16468 1.09155 126 120 119
-0.91923 -5.16989 1.09278 124 121 117
-0.94090 -5.17509 1.09401 117 117 121
-0.96254 -5.18029 1.09523 126 122 117
-0.98414 -5.18547 1.09646 116 116 110
-1.00571 -5.19065 1.09768 114 117 118
-1.02725 -5.19582 1.09890 121 124 118
-1.04876 -5.20099 1.10012 123 125 113
-1.07024 -5.20614 1.10134 122 121 106
-1.09168 -5.21129 1.10256 120 121 101
-1.11309 -5.21643 1.10377 119 120 103
-1.13447 -5.22156 1.10499 121 120 114
-1.15581 -5.22669 1.10620 122 121 123
-1.17713 -5.23180 1.10741 124 118 121
-1.19841 -5.23691 1.10861 124 119 117
-1.21966 -5.24201 1.10982 120 116 110
-1.24088 -5.24711 1.11102 119 118 109
-1.26207 -5.25219 1.11222 116 116 109
0.66282 -4.76529 0.98117 157 163 148
0.63879 -4.77108 0.98255 164 152 158
0.61479 -4.77686 0.98392 163 166 156
0.59083 -4.78263 0.98530 159 156 152
0.56691 -4.78839 0.98667 157 155 159
0.54303 -4.79414 0.98805 165 181 168
0.42419 -4.82277 0.99487 161 163 142
0.40053 -4.82847 0.99623 157 160 152
0.37691 -4.83416 0.99759 155 162 146
0.35333 -4.83984 0.99894 162 177 154
0.32979 -4.84551 1.00030 162 162 149
0.30628 -4.85117 1.00165 159 162 147
0.28281 -4.85683 1.00300 158 153 159
0.25937 -4.86247 1.00434 158 159 159
0.23597 -4.86811 1.00569 163 159 145
0.21261 -4.87374 1.00703 159 150 131
0.18929 -4.87936 1.00837 148 145 146
0.16600 -4.88497 1.00970 160 150 137
0.14275 -4.89057 1.01104 157 149 143
0.11953 -4.89616 1.01237 159 156 143
0.09635 -4.90174 1.01371 161 159 145
0.07321 -4.90732 1.01504 162 163 141
-0.01901 -4.92953 1.02033 145 141 125
-0.04197 -4.93506 1.02165 136 138 134
-0.06490 -4.94059 1.02297 138 137 146
-0.08779 -4.94610 1.02428 141 140 133
-0.11065 -4.95161 1.02560 137 141 127
-0.13347 -4.95710 1.02691 134 139 133
-0.15626 -4.96259 1.02822 135 141 129
-0.40461 -5.02242 1.04248 118 126 126
-0.42698 -5.02781 1.04377 111 124 121
-0.44932 -5.03319 1.04505 117 124 113
-0.47162 -5.03856 1.04633 121 123 116
-0.49389 -5.04392 1.04761 123 125 121
-0.51612 -5.04928 1.04889 120 124 117
-0.53832 -5.05463 1.05016 118 123 119
-0.56049 -5.05997 1.05144 123 126 128
-0.58262 -5.06530 1.05271 125 126 132
-0.60472 -5.07062 1.05398 131 134 128
-0.62679 -5.07594 1.05525 130 129 124
-0.64882 -5.08124 1.05651 125 124 119
-0.67082 -5.08654 1.05777 114 112 119
-0.69278 -5.09183 1.05904 121 121 123
-0.71471 -5.09712 1.06030 125 122 116
-0.73661 -5.10239 1.06155 126 121 116
-0.75848 -5.10766 1.06281 129 129 131
-0.78031 -5.11292 1.06406 131 130 120
-0.80211 -5.11817 1.06532 130 128 114
-0.82387 -5.12341 1.06657 125 129 112
-0.84561 -5.12865 1.06782 118 114 101
-0.86731 -5.13387 1.06906 125 115 123
-0.88898 -5.13909 1.07031 125 126 126
-0.91061 -5.14431 1.07155 127 125 123
-0.93222 -5.14951 1.07279 125 125 117
-0.95379 -5.15471 1.07403 125 120 116
-0.97532 -5.15989 1.07527 127 119 111
