ply
format ascii 1.0
element face 0
property list uchar int vertex_indices
element vertex 1256
property float x
property float y
property float z
property uchar diffuse_red
property uchar diffuse_green
property uchar diffuse_blue
end_header
-4.00161 -4.87943 1.52963 150 148 132
-4.01345 -4.91172 1.53364 150 148 130
-4.02541 -4.94434 1.53769 150 149 131
-4.03750 -4.97730 1.54179 150 150 131
-4.04971 -5.01060 1.54592 151 150 134
-4.06205 -5.04424 1.55010 151 150 142
-4.07451 -5.07824 1.55432 150 151 144
-4.08711 -5.11260 1.55859 150 152 141
-4.09984 -5.14732 1.56290 150 152 138
-4.11271 -5.18241 1.56726 153 151 137
-4.12572 -5.21787 1.57166 155 150 141
-4.13886 -5.25372 1.57612 155 149 141
-4.15215 -5.28996 1.58062 154 149 134
-3.69282 -4.05769 1.41273 141 133 112
-3.70175 -4.08214 1.41570 140 135 110
-3.71076 -4.10681 1.41870 139 136 115
-3.71985 -4.13169 1.42172 140 137 115
-3.72902 -4.15680 1.42477 140 138 110
-3.73828 -4.18214 1.42785 140 139 115
-3.74762 -4.20770 1.43096 139 139 114
-3.75705 -4.23351 1.43409 138 137 118
-3.76656 -4.25954 1.43725 140 140 119
-3.77616 -4.28582 1.44045 141 143 115
-3.78585 -4.31234 1.44367 143 146 118
-3.79563 -4.33911 1.44692 146 146 125
-3.80550 -4.36612 1.45020 147 144 122
-3.81546 -4.39339 1.45351 146 142 122
-3.82552 -4.42092 1.45686 145 142 122
-3.83567 -4.44871 1.46023 144 142 120
-3.97698 -4.83549 1.50722 146 147 131
-3.98862 -4.86736 1.51110 146 147 130
-4.00039 -4.89955 1.51501 147 149 126
-4.01227 -4.93207 1.51896 148 150 120
-4.02427 -4.96493 1.52295 149 151 123
-4.03640 -4.99812 1.52698 150 152 129
-4.04865 -5.03166 1.53106 150 152 130
-4.06104 -5.06556 1.53518 150 152 127
-4.07355 -5.09981 1.53934 150 152 130
-4.08620 -5.13442 1.54354 150 152 135
-4.09898 -5.16940 1.54779 152 152 136
-4.11189 -5.20475 1.55209 154 151 132
-4.12495 -5.24049 1.55643 154 151 135
-4.13814 -5.27661 1.56082 152 151 138
-4.15148 -5.31312 1.56525 151 149 135
-3.66429 -3.99986 1.39099 136 132 110
-3.67301 -4.02381 1.39383 136 131 106
-3.68181 -4.04798 1.39670 138 134 108
-3.69068 -4.07236 1.39960 139 135 105
-3.69963 -4.09695 1.40252 139 135 102
-3.70867 -4.12177 1.40547 139 137 112
-3.71778 -4.14681 1.40844 139 138 113
-3.72698 -4.17208 1.41144 140 139 108
-3.73626 -4.19757 1.41447 140 141 114
-3.74562 -4.22330 1.41753 140 140 120
-3.75507 -4.24926 1.42061 142 139 124
-3.76461 -4.27547 1.42372 144 143 125
-3.77424 -4.30191 1.42686 146 146 117
-3.78395 -4.32860 1.43004 147 146 114
-3.79376 -4.35554 1.43324 144 144 120
-3.80366 -4.38274 1.43647 144 142 123
-3.81365 -4.41018 1.43973 145 140 122
-3.82373 -4.43789 1.44302 143 142 119
-3.97567 -4.85531 1.49260 146 146 128
-3.98735 -4.88740 1.49641 148 146 125
-3.99915 -4.91982 1.50026 147 149 121
-4.01107 -4.95258 1.50415 148 151 117
-4.02312 -4.98567 1.50809 150 152 121
-4.03529 -5.01911 1.51206 150 152 129
-4.04759 -5.05290 1.51607 150 152 126
-4.06002 -5.08704 1.52013 151 152 118
-4.07258 -5.12155 1.52423 152 153 121
-4.08527 -5.15642 1.52837 151 153 131
-4.09810 -5.19166 1.53255 151 153 132
-4.11107 -5.22728 1.53679 153 152 130
-4.12417 -5.26329 1.54106 154 152 135
-4.13742 -5.29969 1.54539 154 151 137
-3.65342 -3.99029 1.37513 135 134 113
-3.66208 -4.01418 1.37790 136 133 110
-3.67082 -4.03828 1.38070 137 133 109
-3.67964 -4.06259 1.38352 138 136 108
-3.68853 -4.08712 1.38637 138 137 106
-3.69751 -4.11187 1.38924 137 138 106
-3.70656 -4.13684 1.39214 138 140 113
-3.71570 -4.16203 1.39507 139 140 116
-3.72492 -4.18746 1.39802 141 140 114
-3.73422 -4.21311 1.40100 144 142 120
-3.74361 -4.23901 1.40400 144 142 126
-3.75309 -4.26514 1.40703 145 144 127
-3.76265 -4.29151 1.41010 145 145 127
-3.77230 -4.31812 1.41319 145 143 120
-3.78204 -4.34499 1.41630 146 141 114
-3.79188 -4.37210 1.41945 144 141 120
-3.80180 -4.39947 1.42263 144 141 124
-3.81182 -4.42710 1.42584 146 141 120
-3.96274 -4.84328 1.47414 146 147 130
-3.97434 -4.87528 1.47786 149 147 128
-3.98607 -4.90760 1.48161 150 147 130
-3.99791 -4.94026 1.48540 150 149 127
-4.00987 -4.97325 1.48923 151 151 123
-4.02196 -5.00659 1.49310 152 151 123
-4.03418 -5.04027 1.49701 151 151 132
-4.04652 -5.07431 1.50096 150 151 131
-4.05899 -5.10871 1.50495 153 152 124
-4.07160 -5.14347 1.50899 154 152 127
-4.08434 -5.17860 1.51307 152 153 133
-4.09722 -5.21411 1.51719 150 153 133
-4.11023 -5.25001 1.52136 152 153 132
-4.12339 -5.28629 1.52557 155 153 136
-4.13669 -5.32296 1.52983 155 151 135
-3.64257 -3.98074 1.35931 136 135 107
-3.65117 -4.00456 1.36201 136 135 115
-3.65986 -4.02860 1.36473 137 135 113
-3.66862 -4.05284 1.36748 138 135 109
-3.67745 -4.07730 1.37026 140 138 105
-3.68637 -4.10198 1.37305 139 139 102
-3.69536 -4.12688 1.37588 137 139 110
-3.70444 -4.15201 1.37872 137 140 116
-3.71360 -4.17736 1.38160 140 142 119
-3.72285 -4.20295 1.38450 144 143 120
-3.73217 -4.22877 1.38743 148 145 123
-3.74159 -4.25482 1.39038 146 144 126
-3.75109 -4.28112 1.39336 143 145 125
-3.76067 -4.30766 1.39637 142 144 125
-3.77035 -4.33445 1.39941 143 141 122
-3.78012 -4.36149 1.40247 144 139 119
-3.78998 -4.38878 1.40557 143 139 123
-3.79993 -4.41633 1.40869 143 142 124
-3.94984 -4.83129 1.45573 148 148 129
-3.96137 -4.86319 1.45935 147 148 129
-3.97301 -4.89541 1.46300 149 149 128
-3.98477 -4.92797 1.46669 151 149 132
-3.99666 -4.96086 1.47042 151 148 131
-4.00866 -4.99409 1.47419 152 149 128
-4.02079 -5.02768 1.47799 152 149 128
-4.03305 -5.06161 1.48184 150 151 134
-4.04544 -5.09590 1.48573 149 153 134
-4.05796 -5.13055 1.48966 152 153 133
-4.07061 -5.16558 1.49363 154 152 134
-4.08340 -5.20097 1.49764 153 152 133
-4.09633 -5.23675 1.50170 152 152 129
-4.10939 -5.27292 1.50580 152 153 128
-4.12260 -5.30948 1.50994 154 154 133
-4.13595 -5.34644 1.51413 153 152 133
-3.63174 -3.97121 1.34352 139 134 118
-3.64029 -3.99497 1.34614 139 136 112
-3.64891 -4.01893 1.34880 139 136 114
-3.65761 -4.04311 1.35147 138 135 111
-3.66639 -4.06751 1.35417 137 136 109
-3.67525 -4.09212 1.35689 140 138 108
-3.68419 -4.11695 1.35964 142 139 106
-3.69321 -4.14201 1.36241 140 139 113
-3.70231 -4.16729 1.36521 140 140 120
-3.71149 -4.19281 1.36804 142 144 127
-3.72076 -4.21855 1.37088 144 146 124
-3.73011 -4.24453 1.37376 145 146 119
-3.73955 -4.27076 1.37666 144 143 121
-3.74907 -4.29722 1.37959 142 143 122
-3.75868 -4.32393 1.38254 140 142 122
-3.76839 -4.35089 1.38553 142 141 120
-3.91443 -4.75666 1.43043 143 145 132
-3.92564 -4.78783 1.43387 146 146 131
-3.93697 -4.81932 1.43736 147 147 128
-3.94842 -4.85112 1.44088 147 148 128
-3.95998 -4.88325 1.44443 147 149 130
-3.97166 -4.91570 1.44802 147 150 129
-3.98347 -4.94850 1.45165 149 150 129
-3.99539 -4.98163 1.45532 151 149 127
-4.00744 -5.01511 1.45902 151 150 127
-4.01961 -5.04893 1.46276 151 152 130
-4.03192 -5.08312 1.46655 149 153 131
-4.04435 -5.11766 1.47037 149 154 130
-4.05692 -5.15258 1.47423 151 153 133
-4.06962 -5.18786 1.47814 152 151 135
-4.08245 -5.22353 1.48208 154 152 133
-4.09543 -5.25958 1.48607 154 154 127
-4.10854 -5.29603 1.49011 153 155 127
-4.12180 -5.33287 1.49418 153 155 133
-4.13521 -5.37012 1.49830 152 152 131
-3.62092 -3.96169 1.32775 138 135 110
-3.62942 -3.98539 1.33031 141 135 119
-3.63799 -4.00929 1.33289 143 135 119
-3.64664 -4.03340 1.33549 141 136 116
-3.65536 -4.05773 1.33812 138 136 113
-3.66416 -4.08227 1.34077 139 137 112
-3.67304 -4.10704 1.34344 140 138 113
-3.68200 -4.13203 1.34614 142 140 114
-3.69104 -4.15724 1.34886 143 141 116
-3.70016 -4.18268 1.35160 142 142 121
-3.70936 -4.20836 1.35438 142 143 128
-3.71865 -4.23427 1.35717 144 143 125
-3.72803 -4.26041 1.35999 145 142 119
-3.73749 -4.28680 1.36284 144 141 121
-3.74704 -4.31344 1.36572 142 141 127
-3.75668 -4.34032 1.36862 142 141 122
-3.87978 -4.68368 1.40568 141 142 119
-3.89071 -4.71414 1.40896 145 145 126
-3.90174 -4.74491 1.41228 146 145 126
-3.91288 -4.77598 1.41564 147 145 128
-3.92413 -4.80737 1.41903 148 146 129
-3.93550 -4.83908 1.42245 148 146 132
-3.94699 -4.87111 1.42590 146 148 131
-3.95859 -4.90347 1.42940 147 147 131
-3.97031 -4.93616 1.43293 147 147 132
-3.98215 -4.96919 1.43649 149 148 134
-3.99412 -5.00257 1.44009 150 149 130
-4.00621 -5.03629 1.44373 151 151 127
-4.01843 -5.07037 1.44741 150 154 130
-4.03077 -5.10480 1.45113 148 154 129
-4.04325 -5.13961 1.45488 147 154 128
-4.05587 -5.17478 1.45868 150 153 130
-4.06861 -5.21034 1.46252 151 152 133
-4.08150 -5.24628 1.46640 153 153 137
-4.09452 -5.28260 1.47032 154 154 135
-4.10769 -5.31933 1.47428 154 155 132
-4.12100 -5.35646 1.47829 154 154 132
-3.61013 -3.95220 1.31202 136 137 112
-3.61857 -3.97583 1.31451 138 136 108
-3.62709 -3.99966 1.31701 140 136 120
-3.63568 -4.02371 1.31954 142 137 128
-3.64434 -4.04797 1.32210 139 138 124
-3.65308 -4.07245 1.32467 139 139 117
-3.66191 -4.09715 1.32727 140 140 116
-3.67081 -4.12206 1.32989 140 141 117
-3.67979 -4.14721 1.33254 142 145 119
-3.68885 -4.17258 1.33521 144 144 117
-3.69799 -4.19818 1.33790 142 143 117
-3.70722 -4.22402 1.34062 141 141 122
-3.71653 -4.25009 1.34336 142 140 121
-3.72593 -4.27641 1.34613 143 140 116
-3.86727 -4.67213 1.38776 141 142 119
-3.87812 -4.70250 1.39096 145 145 127
-3.88908 -4.73318 1.39418 147 145 130
-3.90014 -4.76416 1.39744 148 144 131
-3.91132 -4.79546 1.40073 148 145 129
-3.92261 -4.82707 1.40406 148 147 126
-3.93402 -4.85900 1.40742 148 148 124
-3.94554 -4.89126 1.41081 148 147 127
-3.95718 -4.92385 1.41424 149 147 132
-3.96894 -4.95678 1.41771 150 147 132
-3.98083 -4.99005 1.42121 151 147 133
-3.99283 -5.02367 1.42474 151 148 131
-4.00497 -5.05764 1.42832 151 151 125
-4.01723 -5.09198 1.43193 150 153 126
-4.02962 -5.12667 1.43558 148 153 129
-4.04215 -5.16174 1.43927 149 153 134
-4.05481 -5.19718 1.44300 150 154 134
-4.06760 -5.23300 1.44677 149 153 133
-4.08053 -5.26922 1.45058 150 153 140
-4.09361 -5.30582 1.45443 153 153 142
-4.10683 -5.34283 1.45832 153 153 137
-4.12019 -5.38025 1.46226 154 153 131
-3.60775 -3.96629 1.29873 139 138 112
-3.61621 -3.99006 1.30117 139 137 110
-3.62474 -4.01404 1.30363 140 137 117
-3.63335 -4.03823 1.30611 141 138 126
-3.64203 -4.06264 1.30861 138 137 126
-3.65080 -4.08727 1.31113 140 140 124
-3.65964 -4.11212 1.31368 140 143 126
-3.66856 -4.13719 1.31625 143 143 118
-3.67756 -4.16249 1.31884 144 145 115
-3.68664 -4.18803 1.32146 143 141 108
-3.69581 -4.21379 1.32410 141 140 111
-3.70506 -4.23979 1.32676 140 140 116
-3.71440 -4.26603 1.32945 141 140 114
-3.85479 -4.66061 1.36988 141 143 121
-3.86556 -4.69089 1.37299 145 144 119
-3.87645 -4.72148 1.37612 146 144 125
-3.88744 -4.75237 1.37929 148 144 128
-3.89854 -4.78356 1.38248 148 144 129
-3.90975 -4.81508 1.38571 147 146 127
-3.92108 -4.84692 1.38898 148 149 123
-3.93252 -4.87908 1.39227 149 149 118
-3.94408 -4.91157 1.39560 150 147 124
-3.95576 -4.94440 1.39896 152 146 133
-3.96756 -4.97757 1.40236 150 148 130
-3.97949 -5.01109 1.40580 149 150 124
-3.99154 -5.04495 1.40927 150 151 125
-4.00372 -5.07918 1.41278 150 152 125
-4.01602 -5.11376 1.41632 150 153 124
-4.02846 -5.14872 1.41990 150 154 125
-4.04103 -5.18405 1.42352 150 154 133
-4.05374 -5.21976 1.42718 150 155 137
-4.06658 -5.25586 1.43088 150 155 135
-4.07956 -5.29235 1.43462 150 154 140
-4.09269 -5.32924 1.43840 151 153 143
-4.10596 -5.36654 1.44222 152 154 139
-4.11938 -5.40425 1.44609 152 153 130
-3.60535 -3.98047 1.28536 138 139 115
-3.61382 -4.00439 1.28774 139 138 116
-3.62238 -4.02851 1.29015 141 138 115
-3.63100 -4.05286 1.29258 143 138 118
-3.63971 -4.07742 1.29502 142 138 128
-3.64849 -4.10220 1.29750 144 141 127
-3.65735 -4.12720 1.29999 140 142 125
-3.66630 -4.15243 1.30251 141 141 115
-3.67532 -4.17789 1.30505 141 141 116
-3.68443 -4.20358 1.30761 139 139 112
-3.69362 -4.22951 1.31019 140 139 116
-3.70289 -4.25568 1.31280 140 140 116
-3.84233 -4.64911 1.35205 143 145 122
-3.85303 -4.67931 1.35506 145 144 123
-3.86384 -4.70980 1.35810 147 143 121
-3.87476 -4.74059 1.36117 149 144 124
-3.88578 -4.77170 1.36427 150 145 128
-3.89692 -4.80312 1.36741 150 145 127
-3.90817 -4.83486 1.37057 148 147 125
-3.91953 -4.86693 1.37377 147 150 125
-3.93101 -4.89932 1.37700 149 150 124
-3.94261 -4.93205 1.38027 151 148 129
-3.95433 -4.96511 1.38356 152 146 133
-3.96618 -4.99853 1.38690 151 147 128
-3.97814 -5.03229 1.39026 149 150 120
-3.99023 -5.06641 1.39367 151 152 123
-4.00245 -5.10089 1.39711 152 152 126
-4.01480 -5.13573 1.40058 153 152 130
-4.02729 -5.17095 1.40409 153 153 130
-4.03990 -5.20655 1.40764 151 154 132
-4.05266 -5.24253 1.41123 151 155 136
-4.06555 -5.27891 1.41486 152 155 134
-4.07858 -5.31568 1.41853 153 155 139
-4.09176 -5.35286 1.42224 153 154 143
-4.10508 -5.39045 1.42599 152 154 141
-4.11855 -5.42845 1.42978 152 153 132
-3.60293 -3.99475 1.27189 137 138 113
-3.61143 -4.01881 1.27422 140 137 110
-3.62000 -4.04309 1.27657 142 137 114
-3.62864 -4.06758 1.27895 146 141 117
-3.63737 -4.09229 1.28135 146 141 127
-3.64617 -4.11723 1.28377 144 140 125
-3.66402 -4.16778 1.28867 138 139 113
-3.67306 -4.19340 1.29115 137 141 116
-3.81938 -4.60784 1.33136 145 145 115
-3.82990 -4.63764 1.33425 145 144 118
-3.84053 -4.66774 1.33717 145 144 124
-3.85126 -4.69814 1.34012 147 144 129
-3.86210 -4.72885 1.34309 149 144 128
-3.87305 -4.75986 1.34610 151 145 127
-3.88411 -4.79119 1.34914 151 146 128
-3.89529 -4.82283 1.35221 151 145 128
-3.90657 -4.85480 1.35531 150 147 125
-3.91797 -4.88710 1.35844 148 149 126
-3.92949 -4.91972 1.36161 149 150 128
-3.94113 -4.95269 1.36481 150 148 131
-3.95289 -4.98600 1.36804 153 145 133
-3.96477 -5.01966 1.37130 152 147 130
-3.97678 -5.05367 1.37460 150 150 124
-3.98892 -5.08804 1.37794 152 151 123
-4.00118 -5.12278 1.38131 153 151 127
-4.01358 -5.15789 1.38471 155 150 136
-4.02611 -5.19337 1.38815 155 151 140
-4.03877 -5.22924 1.39163 153 152 139
-4.05157 -5.26550 1.39515 152 154 139
-4.06451 -5.30216 1.39871 153 155 135
-4.07760 -5.33921 1.40230 154 154 136
-4.09082 -5.37668 1.40593 153 153 138
-4.10420 -5.41456 1.40961 153 154 140
-4.11772 -5.45287 1.41333 152 152 134
-3.60050 -4.00913 1.25832 139 138 119
-3.60901 -4.03334 1.26060 142 139 116
-3.61760 -4.05777 1.26291 142 141 117
-3.62627 -4.08241 1.26523 143 143 118
-3.80705 -4.59648 1.31368 144 142 125
-3.81750 -4.62620 1.31649 147 143 121
-3.82806 -4.65621 1.31932 145 142 124
-3.83872 -4.68652 1.32217 144 143 126
-3.84948 -4.71713 1.32506 147 145 126
-3.86035 -4.74805 1.32797 148 145 127
-3.87134 -4.77928 1.33092 149 146 128
-3.88243 -4.81083 1.33389 149 147 127
-3.89364 -4.84270 1.33689 149 147 128
-3.90496 -4.87490 1.33993 148 147 128
-3.91640 -4.90743 1.34299 148 150 127
-3.92796 -4.94029 1.34609 149 150 127
-3.93964 -4.97350 1.34922 149 148 128
-3.95144 -5.00705 1.35239 151 147 131
-3.96336 -5.04096 1.35558 150 147 131
-3.97541 -5.07522 1.35881 150 149 127
-3.98759 -5.10985 1.36207 151 151 125
-3.99990 -5.14485 1.36537 153 151 129
-4.01234 -5.18022 1.36871 154 151 138
-4.02491 -5.21598 1.37208 153 151 142
-4.03762 -5.25212 1.37549 153 152 143
-4.05047 -5.28866 1.37893 152 154 140
-4.06346 -5.32560 1.38241 152 155 137
-4.07660 -5.36295 1.38593 154 154 137
-4.08988 -5.40071 1.38949 153 153 136
-4.10331 -5.43889 1.39309 153 155 136
-3.61519 -4.07254 1.24914 141 142 119
-3.79475 -4.58514 1.29605 141 143 124
-3.80513 -4.61477 1.29876 144 143 118
-3.81561 -4.64470 1.30150 146 143 120
-3.82619 -4.67492 1.30427 144 143 128
-3.83688 -4.70544 1.30706 144 144 127
-3.84768 -4.73626 1.30988 145 146 121
-3.85859 -4.76740 1.31273 146 146 124
-3.86961 -4.79886 1.31561 147 147 129
-3.88074 -4.83063 1.31852 148 148 130
-3.89198 -4.86273 1.32145 147 149 133
-3.90334 -4.89516 1.32442 145 150 131
-3.91482 -4.92792 1.32742 145 151 126
-3.92642 -4.96102 1.33045 148 150 119
-3.93813 -4.99447 1.33351 149 148 121
-3.94997 -5.02828 1.33660 150 148 128
-3.96194 -5.06243 1.33973 151 148 130
-3.97403 -5.09695 1.34289 151 149 129
-3.98625 -5.13184 1.34608 152 150 129
-3.99860 -5.16711 1.34931 153 150 131
-4.01109 -5.20275 1.35257 153 151 137
-4.02371 -5.23878 1.35587 153 153 140
-4.03647 -5.27520 1.35920 152 154 136
-4.04937 -5.31202 1.36257 151 155 134
-4.06241 -5.34925 1.36598 152 155 135
-4.07559 -5.38689 1.36942 153 154 137
-4.08892 -5.42494 1.37290 153 153 136
-4.10241 -5.46343 1.37643 152 154 134
-3.77226 -4.54458 1.27586 146 142 116
-3.78247 -4.57383 1.27846 144 144 118
-3.79278 -4.60338 1.28108 144 144 117
-3.80319 -4.63321 1.28373 144 144 113
-3.81370 -4.66334 1.28640 144 145 116
-3.82432 -4.69377 1.28910 144 146 125
-3.83504 -4.72450 1.29183 145 147 127
-3.84587 -4.75555 1.29459 146 147 126
-3.85681 -4.78691 1.29737 146 147 131
-3.86787 -4.81858 1.30018 147 147 133
-3.87903 -4.85059 1.30302 147 148 132
-3.89031 -4.88292 1.30589 146 149 134
-3.90171 -4.91558 1.30879 145 150 130
-3.91322 -4.94858 1.31172 146 150 123
-3.92486 -4.98193 1.31468 148 149 117
-3.93662 -5.01562 1.31767 149 148 123
-3.94850 -5.04968 1.32069 151 148 131
-3.96050 -5.08409 1.32375 152 150 131
-3.97264 -5.11887 1.32684 152 151 131
-3.98490 -5.15402 1.32996 153 151 132
-3.99730 -5.18955 1.33311 154 150 131
-4.00983 -5.22546 1.33630 154 151 133
-4.02250 -5.26177 1.33952 153 153 134
-4.03531 -5.29847 1.34278 152 153 130
-4.04825 -5.33558 1.34607 152 153 130
-4.06134 -5.37310 1.34940 152 154 135
-4.07458 -5.41103 1.35277 152 154 136
-4.08796 -5.44939 1.35617 153 153 133
-3.76008 -4.53338 1.25839 145 143 115
-3.77022 -4.56255 1.26090 145 144 118
-3.78045 -4.59200 1.26343 144 144 116
-3.79079 -4.62175 1.26599 145 145 116
-3.80123 -4.65179 1.26858 145 145 119
-3.81178 -4.68213 1.27119 145 146 119
-3.82242 -4.71277 1.27382 144 147 122
-3.83318 -4.74372 1.27648 145 148 128
-3.84405 -4.77499 1.27917 147 148 131
-3.85502 -4.80657 1.28189 148 147 135
-3.86611 -4.83847 1.28463 148 147 133
-3.87731 -4.87070 1.28740 148 148 129
-3.88863 -4.90326 1.29020 148 148 130
-3.90006 -4.93617 1.29303 148 148 127
-3.91161 -4.96941 1.29589 149 148 125
-3.92329 -5.00300 1.29878 150 149 126
-3.93509 -5.03695 1.30170 150 148 131
-3.94701 -5.07125 1.30465 151 148 135
-3.95906 -5.10592 1.30763 151 150 132
-3.97123 -5.14096 1.31065 152 152 131
-3.98354 -5.17638 1.31369 153 152 132
-3.99598 -5.21218 1.31677 154 151 132
-4.00856 -5.24837 1.31988 155 152 135
-4.02128 -5.28496 1.32303 152 153 137
-4.03413 -5.32195 1.32621 152 153 133
-4.04713 -5.35934 1.32943 153 151 133
-4.06027 -5.39715 1.33268 152 152 136
-4.07356 -5.43539 1.33597 151 154 135
-4.08699 -5.47405 1.33929 153 153 132
-3.73795 -4.49340 1.23856 143 143 118
-3.74793 -4.52220 1.24096 144 143 114
-3.75799 -4.55128 1.24338 145 143 118
-3.76816 -4.58065 1.24583 144 145 121
-3.77842 -4.61031 1.24830 143 146 118
-3.78879 -4.64026 1.25079 145 147 119
-3.79926 -4.67051 1.25331 145 147 125
-3.80984 -4.70106 1.25585 145 147 125
-3.82052 -4.73192 1.25842 145 148 125
-3.83131 -4.76309 1.26101 145 148 128
-3.84221 -4.79458 1.26363 146 148 131
-3.85322 -4.82638 1.26628 147 147 131
-3.86434 -4.85852 1.26896 147 147 128
-3.87558 -4.89098 1.27166 149 148 124
-3.88693 -4.92378 1.27439 150 148 126
-3.89840 -4.95692 1.27715 149 148 128
-3.90999 -4.99041 1.27994 150 148 130
-3.92171 -5.02425 1.28275 152 148 130
-3.93354 -5.05845 1.28560 151 148 131
-3.94551 -5.09301 1.28848 151 148 131
-3.95760 -5.12794 1.29138 151 150 132
-3.96982 -5.16324 1.29432 152 152 131
-3.98217 -5.19893 1.29729 153 153 130
-3.99466 -5.23501 1.30030 153 153 132
-4.00728 -5.27148 1.30333 153 151 136
-4.02004 -5.30834 1.30640 151 152 140
-4.03295 -5.34562 1.30951 152 153 138
-4.04599 -5.38331 1.31264 154 151 139
-4.05918 -5.42142 1.31582 152 152 139
-4.07252 -5.45996 1.31902 151 154 137
-4.08601 -5.49893 1.32227 153 153 136
-3.71609 -4.45389 1.21897 142 145 117
-3.72590 -4.48233 1.22126 143 144 119
-3.73580 -4.51105 1.22357 144 144 126
-3.74579 -4.54005 1.22590 144 143 124
-3.75589 -4.56933 1.22826 144 144 122
-3.76608 -4.59890 1.23064 144 145 122
-3.77638 -4.62876 1.23304 142 147 119
-3.78678 -4.65892 1.23547 143 147 119
-3.79728 -4.68938 1.23792 144 146 124
-3.80788 -4.72015 1.24039 145 148 126
-3.81860 -4.75122 1.24290 147 148 129
-3.82942 -4.78261 1.24542 146 147 129
-3.84035 -4.81432 1.24797 146 147 129
-3.85139 -4.84636 1.25055 146 147 129
-3.86255 -4.87872 1.25316 147 147 123
-3.87383 -4.91142 1.25579 149 147 119
-3.88522 -4.94446 1.25845 149 147 125
-3.89673 -4.97784 1.26113 148 148 130
-3.90836 -5.01158 1.26385 150 148 130
-3.92011 -5.04567 1.26659 151 148 131
-3.93199 -5.08012 1.26937 151 148 129
-3.94399 -5.11494 1.27217 152 148 128
-3.95613 -5.15014 1.27500 153 149 130
-3.96839 -5.18571 1.27786 154 150 133
-3.98079 -5.22167 1.28076 152 152 133
-3.99332 -5.25803 1.28368 152 153 130
-4.00599 -5.29478 1.28664 153 151 131
-4.01880 -5.33193 1.28963 152 151 137
-4.03175 -5.36950 1.29265 152 153 139
-4.04485 -5.40749 1.29571 153 155 141
-4.05809 -5.44590 1.29880 154 154 139
-4.07148 -5.48475 1.30193 153 153 137
-4.08503 -5.52403 1.30509 152 152 138
-3.56011 -4.02351 1.16919 128 126 98
-3.70412 -4.44293 1.20178 142 143 119
-3.71386 -4.47129 1.20398 143 143 117
-3.72369 -4.49992 1.20621 144 143 121
-3.73362 -4.52883 1.20846 146 142 128
-3.74365 -4.55803 1.21072 144 142 124
-3.75377 -4.58751 1.21302 144 143 121
-3.76399 -4.61729 1.21533 144 144 122
-3.77432 -4.64735 1.21767 142 146 120
-3.78474 -4.67772 1.22003 143 146 118
-3.79528 -4.70840 1.22241 144 146 121
-3.80591 -4.73938 1.22482 144 147 126
-3.81666 -4.77067 1.22725 146 147 133
-3.82751 -4.80229 1.22971 145 147 133
-3.83848 -4.83423 1.23219 146 147 128
-3.84956 -4.86649 1.23470 147 147 124
-3.86075 -4.89909 1.23723 148 148 120
-3.87206 -4.93203 1.23979 148 148 116
-3.88349 -4.96531 1.24237 148 148 126
-3.89504 -4.99894 1.24499 149 148 130
-3.90671 -5.03292 1.24763 150 149 128
-3.91850 -5.06727 1.25030 149 147 129
-3.93042 -5.10198 1.25300 149 147 127
-3.94246 -5.13706 1.25572 150 147 126
-3.95464 -5.17252 1.25848 152 148 130
-3.96695 -5.20837 1.26126 154 149 138
-3.97939 -5.24461 1.26408 152 152 139
-3.99197 -5.28124 1.26693 151 154 130
-4.00469 -5.31828 1.26980 152 153 128
-4.01755 -5.35572 1.27271 152 153 135
-4.03055 -5.39359 1.27566 151 153 136
-4.04369 -5.43188 1.27863 153 154 137
-4.05699 -5.47060 1.28164 154 153 135
-4.07043 -5.50975 1.28468 152 151 136
-3.56591 -4.06275 1.15696 132 127 105
-3.69218 -4.43199 1.18463 140 142 120
-3.70185 -4.46026 1.18675 143 143 119
-3.71162 -4.48882 1.18889 144 143 115
-3.72147 -4.51764 1.19105 144 143 122
-3.73143 -4.54675 1.19323 146 142 130
-3.74148 -4.57615 1.19543 145 143 121
-3.75163 -4.60583 1.19766 144 143 119
-3.76188 -4.63581 1.19990 144 143 122
-3.77224 -4.66609 1.20217 144 144 121
-3.78270 -4.69667 1.20446 143 146 117
-3.79326 -4.72756 1.20678 143 149 118
-3.80393 -4.75876 1.20912 144 147 123
-3.81471 -4.79028 1.21148 144 146 129
-3.82560 -4.82212 1.21387 145 146 130
-3.83660 -4.85429 1.21628 147 147 125
-3.84771 -4.88679 1.21871 148 148 121
-3.85894 -4.91962 1.22117 147 149 121
-3.87028 -4.95280 1.22366 148 150 125
-3.88175 -4.98633 1.22617 149 151 129
-3.89334 -5.02021 1.22871 149 150 130
-3.90504 -5.05444 1.23127 148 150 128
-3.91688 -5.08905 1.23387 148 149 127
-3.92884 -5.12402 1.23649 148 149 125
-3.94093 -5.15937 1.23914 149 149 123
-3.95314 -5.19510 1.24182 151 150 127
-3.96550 -5.23122 1.24452 153 150 136
-3.97798 -5.26774 1.24726 151 152 138
-3.99061 -5.30466 1.25002 150 154 133
-4.00337 -5.34198 1.25282 151 153 132
-4.01628 -5.37972 1.25565 152 153 134
-4.02933 -5.41789 1.25851 153 153 134
-4.04253 -5.45648 1.26140 154 152 136
-4.05587 -5.49551 1.26433 155 151 137
-4.06937 -5.53498 1.26728 154 151 138
-3.56330 -4.07765 1.14274 132 127 106
-3.65200 -4.33808 1.16153 141 140 120
-3.66133 -4.36548 1.16351 141 140 115
-3.67075 -4.39315 1.16550 142 141 109
-3.68027 -4.42107 1.16752 142 143 111
-3.68987 -4.44927 1.16955 142 144 118
-3.69956 -4.47773 1.17161 143 143 119
-3.70935 -4.50648 1.17368 143 143 116
-3.71924 -4.53550 1.17577 143 143 121
-3.72922 -4.56481 1.17789 145 144 127
-3.73930 -4.59441 1.18002 144 144 124
-3.74948 -4.62430 1.18218 146 143 124
-3.75976 -4.65449 1.18436 146 143 123
-3.77014 -4.68498 1.18656 145 145 119
-3.78063 -4.71577 1.18878 145 146 119
-3.79123 -4.74688 1.19103 143 148 120
-3.80193 -4.77830 1.19329 144 147 122
-3.81274 -4.81004 1.19558 145 145 125
-3.82366 -4.84211 1.19790 146 145 126
-3.83470 -4.87451 1.20024 148 147 126
-3.84584 -4.90725 1.20260 147 149 124
-3.85711 -4.94032 1.20498 147 150 126
-3.86849 -4.97374 1.20740 148 149 131
-3.88000 -5.00752 1.20983 150 149 130
-3.89162 -5.04165 1.21230 149 149 129
-3.90337 -5.07614 1.21479 148 149 128
-3.91524 -5.11101 1.21730 149 150 129
-3.92724 -5.14624 1.21984 150 151 130
-3.93937 -5.18186 1.22241 151 150 128
-3.95164 -5.21787 1.22501 154 149 127
-3.96403 -5.25427 1.22764 154 149 130
-3.97657 -5.29107 1.23029 152 151 132
-3.98924 -5.32827 1.23298 151 152 131
-4.00205 -5.36589 1.23569 151 152 132
-4.01500 -5.40393 1.23844 153 152 133
-4.02810 -5.44240 1.24121 153 152 132
-4.04135 -5.48130 1.24402 153 152 133
-4.05475 -5.52064 1.24686 154 151 134
-4.06830 -5.56043 1.24973 154 150 134
-3.56067 -4.09265 1.12841 132 130 107
-3.64031 -4.32743 1.14470 141 141 117
-3.64957 -4.35475 1.14659 141 141 114
-3.65893 -4.38233 1.14851 143 141 113
-3.66838 -4.41018 1.15044 145 142 110
-3.67791 -4.43829 1.15239 144 143 116
-3.68754 -4.46668 1.15436 144 144 119
-3.69726 -4.49534 1.15635 142 144 118
-3.70707 -4.52427 1.15835 141 144 121
-3.71698 -4.55350 1.16038 142 144 123
-3.72699 -4.58301 1.16243 145 144 125
-3.73710 -4.61281 1.16450 144 144 126
-3.74731 -4.64291 1.16658 146 143 129
-3.75762 -4.67330 1.16869 146 145 126
-3.76803 -4.70401 1.17082 146 147 120
-3.77855 -4.73502 1.17297 146 147 120
-3.78918 -4.76635 1.17515 144 147 120
-3.79991 -4.79799 1.17734 145 147 118
-3.81076 -4.82996 1.17956 144 146 120
-3.82171 -4.86226 1.18180 147 146 125
-3.83278 -4.89490 1.18407 150 146 129
-3.84397 -4.92787 1.18635 149 148 127
-3.85527 -4.96119 1.18867 148 149 126
-3.86669 -4.99486 1.19100 147 149 129
-3.87823 -5.02888 1.19336 149 147 126
-3.88989 -5.06327 1.19575 149 148 124
-3.90168 -5.09802 1.19816 148 149 130
-3.91359 -5.13315 1.20060 150 150 133
-3.92563 -5.16866 1.20306 150 151 132
-3.93781 -5.20455 1.20555 151 150 130
-3.95011 -5.24083 1.20807 152 148 125
-3.96255 -5.27751 1.21061 153 148 128
-3.97513 -5.31460 1.21318 154 149 129
-3.98785 -5.35209 1.21578 154 150 127
-4.00071 -5.39001 1.21842 152 151 130
-4.01372 -5.42835 1.22107 151 152 133
-4.02687 -5.46712 1.22376 151 152 132
-4.04017 -5.50634 1.22649 152 152 130
-4.05362 -5.54600 1.22924 154 151 132
-4.06723 -5.58611 1.23202 154 149 135
-3.55803 -4.10775 1.11398 132 130 106
-3.56657 -4.13305 1.11567 137 138 124
-3.62864 -4.31680 1.12790 141 140 118
-3.63784 -4.34404 1.12972 141 140 117
-3.64713 -4.37155 1.13155 140 140 114
-3.65651 -4.39931 1.13340 143 141 113
-3.66598 -4.42734 1.13526 144 140 113
-3.67554 -4.45564 1.13715 143 141 122
-3.68519 -4.48422 1.13905 144 143 120
-3.69494 -4.51307 1.14097 143 143 116
-3.70478 -4.54221 1.14291 142 143 121
-3.71471 -4.57163 1.14487 143 144 122
-3.72475 -4.60134 1.14685 145 144 125
-3.73489 -4.63135 1.14885 145 144 125
-3.74512 -4.66166 1.15087 145 146 126
-3.75546 -4.69227 1.15290 144 147 126
-3.76591 -4.72319 1.15496 146 147 126
-3.77646 -4.75442 1.15704 146 146 124
-3.78711 -4.78597 1.15914 145 146 121
-3.79788 -4.81784 1.16127 146 146 117
-3.80876 -4.85005 1.16341 144 146 120
-3.81975 -4.88258 1.16558 148 146 125
-3.83085 -4.91545 1.16777 151 145 129
-3.84207 -4.94867 1.16998 149 146 129
-3.85341 -4.98223 1.17221 147 147 128
-3.86486 -5.01615 1.17447 147 149 129
-3.87644 -5.05043 1.17675 148 149 123
-3.88814 -5.08507 1.17906 149 149 124
-3.89997 -5.12009 1.18139 150 149 136
-3.91193 -5.15548 1.18375 151 150 136
-3.92401 -5.19126 1.18613 151 151 129
-3.93623 -5.22742 1.18854 151 152 126
-3.94858 -5.26399 1.19097 149 151 127
-3.96106 -5.30095 1.19344 149 150 133
-3.97369 -5.33833 1.19592 152 149 132
-3.98645 -5.37612 1.19844 154 150 130
-3.99936 -5.41434 1.20099 152 151 135
-4.01242 -5.45298 1.20356 152 152 137
-4.02562 -5.49207 1.20616 153 152 135
-4.03897 -5.53160 1.20879 152 152 130
-4.05248 -5.57158 1.21146 153 151 132
-3.55536 -4.12296 1.09945 132 129 108
-3.56392 -4.14842 1.10108 135 136 120
-3.57256 -4.17411 1.10272 136 136 114
-3.61699 -4.30619 1.11114 140 139 107
-3.62613 -4.33336 1.11288 142 140 112
-3.63536 -4.36078 1.11462 142 140 117
-3.64467 -4.38846 1.11639 141 141 118
-3.65407 -4.41641 1.11817 144 141 120
-3.66356 -4.44463 1.11997 144 140 118
-3.67315 -4.47312 1.12179 142 141 120
-3.68282 -4.50189 1.12363 143 144 118
-3.69259 -4.53094 1.12548 143 143 116
-3.70246 -4.56028 1.12735 143 142 122
-3.71243 -4.58990 1.12924 143 143 122
-3.72249 -4.61982 1.13115 144 144 122
-3.73266 -4.65004 1.13308 145 145 123
-3.74292 -4.68056 1.13503 145 147 122
-3.75329 -4.71138 1.13699 145 147 124
-3.76376 -4.74252 1.13898 146 146 131
-3.77435 -4.77397 1.14099 146 145 131
-3.78503 -4.80575 1.14301 145 145 125
-3.79583 -4.83785 1.14506 146 146 123
-3.80674 -4.87029 1.14713 147 146 126
-3.81777 -4.90306 1.14922 150 145 129
-3.82890 -4.93617 1.15133 150 145 131
-3.84016 -4.96963 1.15347 147 147 129
-3.85153 -5.00344 1.15562 147 148 127
-3.86303 -5.03761 1.15780 149 150 123
-3.87464 -5.07215 1.16001 150 150 116
-3.88639 -5.10705 1.16223 149 149 122
-3.89825 -5.14233 1.16449 150 148 135
-3.91025 -5.17800 1.16676 151 148 135
-3.92238 -5.21405 1.16906 151 148 128
-3.93464 -5.25050 1.17139 150 150 125
-3.94703 -5.28734 1.17374 149 152 130
-3.95956 -5.32460 1.17611 149 152 135
-3.97223 -5.36227 1.17852 150 150 133
-3.98505 -5.40036 1.18095 150 150 133
-3.99800 -5.43888 1.18340 151 150 138
-4.01111 -5.47783 1.18589 153 150 138
-4.02436 -5.51723 1.18840 154 151 136
-4.03777 -5.55708 1.19095 152 151 134
-4.05132 -5.59739 1.19352 151 149 135
-3.55267 -4.13828 1.08482 132 131 112
-3.56125 -4.16390 1.08638 136 136 121
-3.56992 -4.18976 1.08796 138 135 117
-3.57866 -4.21585 1.08955 139 137 115
-3.58748 -4.24219 1.09116 140 137 111
-3.59638 -4.26877 1.09278 139 138 112
-3.60537 -4.29561 1.09442 142 138 113
-3.61445 -4.32269 1.09607 141 138 113
-3.62360 -4.35004 1.09774 142 139 113
-3.63285 -4.37764 1.09942 142 140 109
-3.64219 -4.40551 1.10112 140 141 115
-3.65161 -4.43364 1.10284 142 140 124
-3.66113 -4.46205 1.10457 143 139 121
-3.67074 -4.49074 1.10632 141 141 120
-3.68044 -4.51970 1.10809 141 144 118
-3.69024 -4.54895 1.10987 143 143 114
-3.70013 -4.57849 1.11167 144 142 121
-3.71012 -4.60832 1.11349 144 143 122
-3.72021 -4.63844 1.11533 146 144 122
-3.73041 -4.66887 1.11719 147 144 123
-3.74070 -4.69960 1.11906 145 146 120
-3.75110 -4.73065 1.12095 145 147 124
-3.76160 -4.76201 1.12287 145 146 136
-3.77222 -4.79369 1.12480 146 144 136
-3.78294 -4.82569 1.12675 146 144 127
-3.79377 -4.85802 1.12872 146 143 125
-3.80471 -4.89069 1.13072 147 144 124
-3.81577 -4.92370 1.13273 150 145 125
-3.82694 -4.95706 1.13477 150 145 128
-3.83823 -4.99077 1.13682 147 145 128
-3.84964 -5.02483 1.13890 148 147 126
-3.86118 -5.05926 1.14100 149 150 121
-3.87283 -5.09405 1.14312 149 151 119
-3.88461 -5.12922 1.14527 149 150 129
-3.89652 -5.16477 1.14744 149 149 136
-3.90856 -5.20071 1.14963 149 148 135
-3.92073 -5.23704 1.15184 149 149 129
-3.93303 -5.27377 1.15408 149 150 127
-3.94547 -5.31090 1.15635 150 152 135
-3.95805 -5.34845 1.15864 151 151 137
-3.97076 -5.38641 1.16096 150 150 131
-3.98362 -5.42481 1.16330 149 150 132
-3.99663 -5.46364 1.16567 149 149 135
-4.00979 -5.50290 1.16806 151 149 132
-4.02309 -5.54262 1.17049 152 150 131
-4.03655 -5.58280 1.17294 149 150 136
-4.05016 -5.62344 1.17542 148 150 140
-3.54997 -4.15371 1.07008 132 131 107
-3.55857 -4.17949 1.07158 136 136 114
-3.56725 -4.20551 1.07310 139 136 111
-3.57601 -4.23178 1.07463 138 138 113
-3.58485 -4.25828 1.07617 140 137 113
-3.59378 -4.28504 1.07772 139 138 115
-3.60278 -4.31205 1.07930 142 139 118
-3.61188 -4.33931 1.08088 143 139 118
-3.62106 -4.36684 1.08249 142 140 114
-3.63033 -4.39463 1.08410 141 142 107
-3.63969 -4.42268 1.08574 141 144 111
-3.64914 -4.45101 1.08738 142 141 121
-3.65868 -4.47961 1.08905 142 140 125
-3.66831 -4.50848 1.09073 140 143 122
-3.67804 -4.53765 1.09243 141 145 119
-3.68786 -4.56710 1.09414 145 143 118
-3.69778 -4.59684 1.09587 146 142 121
-3.70780 -4.62687 1.09762 146 141 119
-3.71792 -4.65721 1.09939 147 142 120
-3.72814 -4.68785 1.10117 147 144 120
-3.73846 -4.71880 1.10297 145 146 116
-3.74889 -4.75006 1.10479 144 147 119
-3.75943 -4.78165 1.10663 144 145 129
-3.77007 -4.81355 1.10848 146 144 130
-3.78082 -4.84579 1.11036 146 143 126
-3.79169 -4.87836 1.11226 146 144 127
-3.80266 -4.91127 1.11417 145 146 122
-3.81375 -4.94452 1.11611 146 148 120
-3.82496 -4.97812 1.11806 148 148 126
-3.83629 -5.01208 1.12004 146 147 129
-3.84774 -5.04640 1.12204 148 147 130
-3.85931 -5.08108 1.12405 150 148 127
-3.87100 -5.11614 1.12610 148 147 128
-3.88282 -5.15158 1.12816 148 147 136
-3.89477 -5.18740 1.13024 149 148 138
-3.90685 -5.22361 1.13235 149 149 134
-3.91906 -5.26022 1.13448 149 149 129
-3.93141 -5.29724 1.13663 149 149 126
-3.94389 -5.33466 1.13881 150 149 131
-3.95652 -5.37250 1.14102 152 149 132
-3.96928 -5.41077 1.14324 153 151 129
-3.98219 -5.44947 1.14550 151 152 131
-3.99525 -5.48861 1.14777 148 151 130
-4.00845 -5.52820 1.15008 150 151 124
-4.02181 -5.56824 1.15241 150 150 126
-4.03532 -5.60875 1.15476 149 150 133
-4.04899 -5.64972 1.15715 148 151 133
-3.54724 -4.16925 1.05524 131 130 103
-3.55586 -4.19520 1.05668 136 137 110
-3.56456 -4.22139 1.05813 138 138 112
-3.57334 -4.24782 1.05959 137 139 115
-3.58220 -4.27450 1.06107 139 138 116
-3.59115 -4.30143 1.06256 141 138 118
-3.60018 -4.32862 1.06407 142 140 116
-3.60929 -4.35606 1.06559 143 139 108
-3.61850 -4.38377 1.06712 144 140 112
-3.62779 -4.41174 1.06867 142 142 117
-3.63717 -4.43998 1.07024 142 144 115
-3.64664 -4.46850 1.07181 143 142 120
-3.65620 -4.49729 1.07341 142 142 130
-3.66586 -4.52637 1.07502 141 144 125
-3.67562 -4.55573 1.07665 142 144 118
-3.68546 -4.58538 1.07829 144 143 118
-3.69541 -4.61533 1.07995 145 142 121
-3.70546 -4.64557 1.08162 144 142 121
-3.71560 -4.67612 1.08332 144 144 121
-3.72585 -4.70698 1.08503 144 145 121
-3.73621 -4.73815 1.08675 144 147 119
-3.74667 -4.76963 1.08850 144 148 119
-3.75723 -4.80144 1.09026 144 146 124
-3.76791 -4.83358 1.09204 146 145 125
-3.77869 -4.86605 1.09384 147 144 121
-3.78959 -4.89886 1.09565 146 146 123
-3.80060 -4.93200 1.09749 145 148 124
-3.81172 -4.96550 1.09935 147 149 123
-3.82297 -4.99935 1.10122 148 148 128
-3.83433 -5.03357 1.10312 146 147 131
-3.84582 -5.06814 1.10503 147 146 130
-3.85742 -5.10309 1.10697 150 145 127
-3.86916 -5.13841 1.10892 148 146 128
-3.88102 -5.17412 1.11090 149 146 134
-3.89301 -5.21022 1.11290 151 145 132
-3.90513 -5.24671 1.11492 149 147 127
-3.91738 -5.28360 1.11697 148 148 125
-3.92978 -5.32091 1.11903 148 149 127
-3.94230 -5.35863 1.12112 148 150 131
-3.95497 -5.39677 1.12324 149 150 130
-3.96779 -5.43535 1.12537 152 150 126
-3.98074 -5.47436 1.12753 152 151 129
-3.99385 -5.51381 1.12972 149 151 131
-4.00711 -5.55372 1.13193 147 151 133
-4.02051 -5.59409 1.13417 147 150 135
-4.03408 -5.63493 1.13643 149 149 132
-4.04780 -5.67624 1.13872 150 149 124
-3.54450 -4.18490 1.04029 134 131 103
-3.55314 -4.21102 1.04166 136 137 111
-3.56185 -4.23737 1.04305 136 138 116
-3.57065 -4.26398 1.04445 138 137 121
-3.57953 -4.29083 1.04586 140 136 115
-3.58850 -4.31794 1.04728 142 137 116
-3.59755 -4.34530 1.04872 141 137 119
-3.60669 -4.37293 1.05017 143 138 109
-3.61591 -4.40082 1.05164 143 139 113
-3.62523 -4.42898 1.05312 142 142 117
-3.63463 -4.45741 1.05462 142 143 113
-3.64413 -4.48612 1.05613 143 142 113
-3.65371 -4.51511 1.05765 143 141 122
-3.66340 -4.54439 1.05919 141 143 122
-3.67318 -4.57395 1.06075 141 144 117
-3.68305 -4.60381 1.06232 142 144 119
-3.69302 -4.63396 1.06390 143 143 123
-3.70310 -4.66442 1.06550 145 143 125
-3.71327 -4.69518 1.06712 144 143 124
-3.72355 -4.72626 1.06875 144 144 123
-3.73393 -4.75765 1.07041 144 145 123
-3.74442 -4.78936 1.07207 143 146 121
-3.75502 -4.82140 1.07376 145 146 124
-3.76572 -4.85377 1.07546 146 145 127
-3.77654 -4.88647 1.07718 147 146 124
-3.78747 -4.91952 1.07892 147 147 125
-3.79852 -4.95291 1.08067 146 147 128
-3.80968 -4.98666 1.08245 147 146 124
-3.82096 -5.02076 1.08424 149 145 124
-3.83236 -5.05523 1.08605 149 146 128
-3.84388 -5.09007 1.08789 149 145 128
-3.85553 -5.12528 1.08974 148 145 128
-3.86730 -5.16087 1.09161 148 146 129
-3.87920 -5.19686 1.09350 150 147 130
-3.89123 -5.23323 1.09541 152 148 129
-3.90339 -5.27001 1.09735 149 150 128
-3.91569 -5.30719 1.09930 147 150 129
-3.92813 -5.34479 1.10128 147 149 129
-3.94070 -5.38281 1.10328 146 149 126
-3.95342 -5.42125 1.10530 148 150 125
-3.96628 -5.46014 1.10735 150 148 122
-3.97929 -5.49946 1.10941 149 148 117
-3.99244 -5.53924 1.11151 149 149 121
-4.00575 -5.57947 1.11362 148 149 132
-4.01921 -5.62017 1.11576 149 148 135
-4.03283 -5.66135 1.11793 149 148 137
-4.04661 -5.70300 1.12012 147 145 130
-3.54174 -4.20067 1.02523 136 133 110
-3.55039 -4.22695 1.02654 135 136 121
-3.55913 -4.25348 1.02786 135 135 124
-3.56795 -4.28025 1.02919 136 134 127
-3.57685 -4.30728 1.03054 136 133 111
-3.58583 -4.33457 1.03189 140 135 112
-3.59491 -4.36212 1.03326 139 136 115
-3.60406 -4.38993 1.03465 143 137 106
-3.61331 -4.41800 1.03605 143 139 113
-3.62265 -4.44635 1.03746 144 139 113
-3.63207 -4.47498 1.03888 143 140 114
-3.64159 -4.50388 1.04032 144 140 115
-3.65121 -4.53307 1.04177 143 140 121
-3.66091 -4.56255 1.04324 140 142 123
-3.67072 -4.59231 1.04472 140 144 119
-3.68062 -4.62238 1.04622 140 144 122
-3.69062 -4.65274 1.04773 141 143 127
-3.70072 -4.68341 1.04926 146 143 127
-3.71092 -4.71440 1.05080 145 143 123
-3.72123 -4.74569 1.05236 143 143 121
-3.73164 -4.77731 1.05393 144 143 122
-3.74216 -4.80925 1.05552 145 144 122
-3.75279 -4.84152 1.05712 147 145 126
-3.76353 -4.87412 1.05875 148 145 129
-3.77438 -4.90706 1.06039 146 145 127
-3.78534 -4.94035 1.06204 147 145 125
-3.79642 -4.97399 1.06372 149 144 122
-3.80761 -5.00799 1.06541 150 145 114
-3.81893 -5.04235 1.06712 150 145 116
-3.83037 -5.07708 1.06885 151 145 123
-3.84193 -5.11218 1.07060 151 144 124
-3.85361 -5.14766 1.07236 150 145 127
-3.86542 -5.18352 1.07415 147 146 128
-3.87736 -5.21978 1.07595 147 147 126
-3.88944 -5.25644 1.07778 148 149 129
-3.90164 -5.29350 1.07962 147 151 132
-3.91398 -5.33098 1.08149 147 150 134
-3.92647 -5.36888 1.08337 148 148 131
-3.93909 -5.40720 1.08528 148 147 123
-3.95185 -5.44595 1.08721 148 146 125
-3.96476 -5.48515 1.08916 149 146 126
-3.97781 -5.52479 1.09113 149 146 122
-3.99102 -5.56489 1.09313 149 146 124
-4.00438 -5.60545 1.09515 148 147 128
-4.01789 -5.64649 1.09719 150 145 127
-4.03157 -5.68801 1.09925 149 144 126
-3.53895 -4.21655 1.01006 139 134 110
-3.54763 -4.24300 1.01130 139 135 128
-3.55638 -4.26970 1.01256 136 132 122
-3.56522 -4.29665 1.01382 135 131 122
-3.57414 -4.32386 1.01510 135 134 114
-3.58315 -4.35133 1.01639 138 136 114
-3.59224 -4.37905 1.01769 141 139 115
-3.60142 -4.40705 1.01901 142 138 113
-3.61069 -4.43532 1.02033 141 139 115
-3.62005 -4.46386 1.02167 142 138 113
-3.62950 -4.49268 1.02303 143 138 118
-3.63904 -4.52178 1.02439 144 137 120
-3.64868 -4.55117 1.02577 144 139 126
-3.65841 -4.58084 1.02717 142 141 133
-3.66824 -4.61082 1.02857 142 142 129
-3.67817 -4.64109 1.02999 143 142 128
-3.68819 -4.67167 1.03143 144 142 126
-3.69832 -4.70256 1.03288 143 142 122
-3.70855 -4.73376 1.03435 141 142 117
-3.71889 -4.76528 1.03582 142 143 118
-3.72933 -4.79712 1.03732 146 142 122
-3.73988 -4.82929 1.03883 147 142 123
-3.75054 -4.86179 1.04036 147 143 124
-3.76131 -4.89464 1.04190 147 143 122
-3.77219 -4.92782 1.04346 146 144 123
-3.78319 -4.96136 1.04503 146 144 127
-3.79430 -4.99525 1.04662 147 145 127
-3.80553 -5.02950 1.04823 148 147 123
-3.81688 -5.06412 1.04986 149 147 120
-3.82836 -5.09911 1.05150 151 146 122
-3.83996 -5.13447 1.05316 152 144 127
-3.85168 -5.17023 1.05484 151 145 131
-3.86353 -5.20637 1.05654 148 146 126
-3.87551 -5.24291 1.05825 147 146 117
-3.88763 -5.27985 1.05999 148 147 120
-3.89988 -5.31721 1.06174 146 149 128
-3.91226 -5.35498 1.06351 146 149 135
-3.92479 -5.39317 1.06531 146 147 134
-3.93745 -5.43180 1.06712 146 145 127
-3.95026 -5.47087 1.06895 148 145 127
-3.96322 -5.51038 1.07081 147 146 127
-3.97633 -5.55035 1.07269 148 146 125
-3.98958 -5.59077 1.07458 148 145 127
-4.00300 -5.63167 1.07650 146 145 127
-4.01656 -5.67305 1.07845 147 145 122
-4.03029 -5.71491 1.08041 148 144 119
-4.04418 -5.75727 1.08240 141 142 115
-3.53615 -4.23254 0.99478 134 138 106
-3.54484 -4.25917 0.99596 136 135 119
-3.55361 -4.28604 0.99714 134 131 114
-3.56247 -4.31317 0.99834 136 133 114
-3.57141 -4.34056 0.99955 137 136 114
-3.58044 -4.36821 1.00077 138 139 115
-3.58955 -4.39612 1.00200 140 141 118
-3.59876 -4.42430 1.00324 141 139 118
-3.60805 -4.45276 1.00450 142 138 114
-3.61743 -4.48149 1.00577 143 138 107
-3.62690 -4.51051 1.00705 142 139 112
-3.63647 -4.53981 1.00834 141 140 115
-3.64613 -4.56940 1.00965 141 140 123
-3.65589 -4.59929 1.01097 141 141 130
-3.66574 -4.62947 1.01230 142 141 127
-3.67570 -4.65995 1.01364 143 141 125
-3.68575 -4.69075 1.01500 144 141 125
-3.69591 -4.72185 1.01638 144 141 124
-3.70617 -4.75328 1.01776 143 143 118
-3.71653 -4.78502 1.01916 145 143 119
-3.72700 -4.81709 1.02058 148 142 127
-3.73758 -4.84950 1.02201 148 143 126
-3.74827 -4.88224 1.02345 147 144 122
-3.75907 -4.91532 1.02491 147 146 121
-3.76999 -4.94875 1.02639 145 146 124
-3.78102 -4.98254 1.02788 144 145 130
-3.79217 -5.01668 1.02939 145 145 129
-3.80343 -5.05119 1.03091 146 148 124
-3.81482 -5.08607 1.03245 148 150 115
-3.82633 -5.12132 1.03400 148 147 118
-3.83797 -5.15696 1.03558 148 145 128
-3.84973 -5.19299 1.03717 147 145 131
-3.86162 -5.22941 1.03877 148 146 128
-3.87365 -5.26623 1.04040 149 146 123
-3.88580 -5.30347 1.04204 149 146 120
-3.89810 -5.34111 1.04370 146 146 119
-3.91053 -5.37919 1.04538 145 147 124
-3.92310 -5.41769 1.04708 147 146 129
-3.93581 -5.45662 1.04880 148 144 126
-3.94867 -5.49600 1.05054 148 143 125
-3.96167 -5.53584 1.05230 145 144 124
-3.97483 -5.57613 1.05407 143 145 121
-3.98814 -5.61689 1.05587 141 146 119
-4.00160 -5.65813 1.05769 141 146 120
-4.01522 -5.69985 1.05953 144 143 120
-4.02901 -5.74207 1.06140 145 140 118
-4.04295 -5.78478 1.06328 139 137 114
-3.53332 -4.24866 0.97939 132 134 111
-3.54203 -4.27545 0.98050 136 134 118
-3.55083 -4.30250 0.98162 134 132 116
-3.55970 -4.32981 0.98274 138 135 114
-3.56867 -4.35738 0.98388 140 138 116
-3.57771 -4.38521 0.98503 141 140 120
-3.58685 -4.41331 0.98619 142 143 122
-3.59607 -4.44169 0.98737 140 142 120
-3.60539 -4.47034 0.98855 142 141 118
-3.61479 -4.49926 0.98974 143 138 115
-3.62429 -4.52848 0.99095 142 139 122
-3.63388 -4.55798 0.99217 140 140 123
-3.64356 -4.58778 0.99340 141 141 127
-3.65335 -4.61787 0.99464 140 142 127
-3.66323 -4.64826 0.99590 141 142 120
-3.67321 -4.67896 0.99716 141 143 115
-3.68329 -4.70998 0.99845 142 142 117
-3.69347 -4.74130 0.99974 142 142 119
-3.70376 -4.77295 1.00105 143 144 117
-3.71415 -4.80492 1.00237 144 143 121
-3.72466 -4.83723 1.00370 145 142 128
-3.73527 -4.86987 1.00505 145 143 126
-3.74599 -4.90285 1.00641 147 144 122
-3.75682 -4.93618 1.00779 146 145 121
-3.76777 -4.96985 1.00918 143 146 121
-3.77883 -5.00389 1.01058 143 145 118
-3.79002 -5.03829 1.01200 144 144 122
-3.80132 -5.07306 1.01344 146 145 129
-3.81274 -5.10820 1.01489 147 147 124
-3.82429 -5.14373 1.01636 148 146 122
-3.83597 -5.17964 1.01784 145 145 128
-3.84777 -5.21594 1.01934 144 145 134
-3.85970 -5.25265 1.02086 145 146 131
-3.87176 -5.28976 1.02239 146 146 126
-3.88396 -5.32729 1.02394 146 146 123
-3.89630 -5.36523 1.02551 145 146 122
-3.90877 -5.40361 1.02709 145 145 125
-3.92139 -5.44241 1.02870 147 143 126
-3.93415 -5.48167 1.03032 147 142 124
-3.94705 -5.52137 1.03196 146 143 125
-3.96011 -5.56153 1.03361 143 142 127
-3.97332 -5.60215 1.03529 141 140 125
-3.98668 -5.64325 1.03699 137 143 119
-4.00019 -5.68483 1.03871 138 145 118
-4.01387 -5.72690 1.04044 142 140 120
-4.02771 -5.76947 1.04220 141 137 122
-3.53048 -4.26489 0.96389 135 133 113
-3.53921 -4.29186 0.96493 138 135 119
-3.54802 -4.31909 0.96597 137 133 119
-3.55692 -4.34658 0.96703 138 135 115
-3.56590 -4.37433 0.96810 140 138 117
-3.57497 -4.40235 0.96918 141 139 120
-3.58412 -4.43064 0.97027 142 139 120
-3.59337 -4.45920 0.97136 140 140 114
-3.60270 -4.48804 0.97247 140 140 111
-3.61213 -4.51717 0.97359 142 140 109
-3.62165 -4.54659 0.97473 142 142 116
-3.63127 -4.57629 0.97587 140 143 115
-3.64098 -4.60630 0.97702 142 142 110
-3.65078 -4.63660 0.97819 141 143 114
-3.66069 -4.66721 0.97937 141 142 112
-3.67070 -4.69812 0.98056 143 142 105
-3.68081 -4.72936 0.98176 144 141 109
-3.69102 -4.76091 0.98297 145 141 115
-3.70133 -4.79278 0.98420 145 143 117
-3.71176 -4.82499 0.98544 144 142 121
-3.72229 -4.85753 0.98669 144 141 124
-3.73293 -4.89040 0.98795 145 142 118
-3.74368 -4.92363 0.98923 145 143 118
-3.75455 -4.95720 0.99052 143 144 124
-3.76553 -4.99113 0.99183 142 145 128
-3.77663 -5.02542 0.99315 143 145 125
-3.78785 -5.06008 0.99448 143 144 127
-3.79919 -5.09511 0.99583 145 143 130
-3.81065 -5.13052 0.99719 146 143 127
-3.82223 -5.16632 0.99857 145 143 120
-3.83395 -5.20251 0.99996 143 143 120
-3.84579 -5.23909 1.00137 144 142 125
-3.85776 -5.27609 1.00279 144 142 126
-3.86987 -5.31349 1.00423 144 142 124
-3.88211 -5.35131 1.00568 145 143 122
-3.89449 -5.38956 1.00715 145 144 122
-3.90701 -5.42824 1.00864 146 144 124
-3.91967 -5.46736 1.01015 147 142 118
-3.93247 -5.50693 1.01167 145 141 114
-3.94543 -5.54696 1.01321 144 142 119
-3.95853 -5.58745 1.01477 142 140 121
-3.97179 -5.62841 1.01634 140 139 119
-3.98520 -5.66985 1.01794 137 140 117
-3.99877 -5.71177 1.01955 136 139 118
-3.52761 -4.28124 0.94827 136 133 109
-3.53636 -4.30839 0.94924 138 135 120
-3.54519 -4.33579 0.95022 137 134 125
-3.55411 -4.36346 0.95120 135 136 118
-3.56311 -4.39140 0.95220 138 137 116
-3.57220 -4.41961 0.95320 141 139 120
-3.58138 -4.44809 0.95422 141 139 117
-3.59064 -4.47685 0.95524 141 140 106
-3.60000 -4.50589 0.95628 141 141 106
-3.60945 -4.53522 0.95732 144 142 108
-3.61899 -4.56483 0.95838 143 141 115
-3.62863 -4.59475 0.95944 142 142 114
-3.63837 -4.62496 0.96052 142 142 108
-3.64820 -4.65547 0.96161 142 141 112
-3.65813 -4.68630 0.96271 145 141 112
-3.66817 -4.71744 0.96382 145 141 111
-3.67830 -4.74889 0.96494 144 141 116
-3.68854 -4.78067 0.96607 145 141 119
-3.69889 -4.81277 0.96721 145 142 117
-3.70934 -4.84521 0.96837 144 143 121
-3.71990 -4.87799 0.96954 143 143 126
-3.73058 -4.91111 0.97072 144 143 128
-3.74136 -4.94458 0.97191 144 143 127
-3.75226 -4.97840 0.97311 143 144 127
-3.76327 -5.01258 0.97433 144 144 126
-3.77441 -5.04713 0.97556 145 143 127
-3.78566 -5.08205 0.97681 146 143 129
-3.79703 -5.11735 0.97806 146 142 123
-3.80853 -5.15303 0.97934 146 141 123
-3.82016 -5.18911 0.98062 144 141 117
-3.83191 -5.22557 0.98192 144 142 116
-3.84379 -5.26245 0.98323 145 143 119
-3.85580 -5.29973 0.98456 146 143 119
-3.86795 -5.33743 0.98591 147 142 121
-3.88023 -5.37555 0.98726 145 142 118
-3.89266 -5.41410 0.98864 143 142 116
-3.90522 -5.45310 0.99003 143 143 117
-3.91793 -5.49253 0.99143 142 145 115
-3.93078 -5.53243 0.99285 141 144 115
-3.94379 -5.57278 0.99429 141 142 120
-3.95694 -5.61360 0.99575 140 140 119
-3.97025 -5.65490 0.99722 139 138 114
-3.52472 -4.29771 0.93254 140 134 111
-3.53349 -4.32504 0.93344 140 136 114
-3.54234 -4.35263 0.93434 138 136 109
-3.55128 -4.38048 0.93525 134 136 113
-3.56030 -4.40861 0.93618 138 137 115
-3.56941 -4.43700 0.93711 141 138 125
-3.57861 -4.46568 0.93805 140 139 120
-3.58790 -4.49463 0.93900 140 141 117
-3.59728 -4.52387 0.93996 140 142 120
-3.60675 -4.55340 0.94092 142 141 116
-3.61632 -4.58322 0.94190 141 140 116
-3.62598 -4.61334 0.94289 142 139 113
-3.63574 -4.64377 0.94389 142 139 107
-3.64560 -4.67450 0.94490 142 140 114
-3.65556 -4.70554 0.94591 143 139 114
-3.66562 -4.73690 0.94694 142 138 121
-3.67578 -4.76858 0.94798 141 139 124
-3.68605 -4.80059 0.94903 141 140 118
-3.69642 -4.83293 0.95009 143 140 111
-3.70691 -4.86560 0.95116 142 141 118
-3.71750 -4.89862 0.95224 142 143 126
-3.72820 -4.93198 0.95334 142 144 127
-3.73902 -4.96570 0.95444 142 143 126
-3.74995 -4.99978 0.95556 142 143 124
-3.76100 -5.03421 0.95669 143 143 122
-3.77217 -5.06903 0.95783 143 143 124
-3.78345 -5.10421 0.95898 142 143 127
-3.79486 -5.13978 0.96015 142 143 126
