ply
format ascii 1.0
element face 0
property list uchar int vertex_indices
element vertex 1280
property float x
property float y
property float z
property uchar diffuse_red
property uchar diffuse_green
property uchar diffuse_blue
end_header
-3.64655 -4.62215 0.13636 117 127 134
-3.66085 -4.62682 0.13930 120 122 134
-3.67513 -4.63149 0.14223 123 132 130
-3.68938 -4.63615 0.14516 122 131 138
-3.70360 -4.64081 0.14809 125 137 145
-3.71779 -4.64545 0.15100 142 147 143
-3.73195 -4.65008 0.15392 137 143 146
-3.74609 -4.65471 0.15682 141 148 144
-3.76020 -4.65932 0.15973 140 144 141
-3.77428 -4.66393 0.16262 145 150 151
-3.78834 -4.66853 0.16551 139 152 153
-3.80237 -4.67312 0.16840 139 152 148
-3.81637 -4.67770 0.17128 150 155 155
-3.83035 -4.68227 0.17415 151 157 155
-3.84430 -4.68683 0.17702 142 149 146
-3.85822 -4.69139 0.17988 151 160 156
-3.87212 -4.69594 0.18274 156 161 156
-3.88599 -4.70047 0.18559 152 163 156
-3.51258 -4.56096 0.09467 118 126 122
-3.52710 -4.56573 0.09767 114 121 123
-3.54158 -4.57048 0.10066 112 117 127
-3.55604 -4.57523 0.10364 109 116 126
-3.57046 -4.57997 0.10662 114 123 126
-3.58486 -4.58469 0.10960 127 136 128
-3.59924 -4.58941 0.11257 121 127 130
-3.61358 -4.59412 0.11553 115 122 133
-3.62790 -4.59882 0.11849 121 132 133
-3.64219 -4.60351 0.12144 117 130 126
-3.65645 -4.60819 0.12439 110 129 133
-3.67068 -4.61287 0.12733 124 134 138
-3.69907 -4.62218 0.13319 126 140 139
-3.72734 -4.63147 0.13903 138 149 152
-3.74144 -4.63610 0.14195 136 140 149
-3.75551 -4.64072 0.14485 138 145 147
-3.76956 -4.64533 0.14775 143 140 150
-3.78357 -4.64993 0.15065 152 157 152
-3.79756 -4.65452 0.15354 141 150 151
-3.81153 -4.65910 0.15642 135 139 138
-3.82546 -4.66368 0.15930 152 159 158
-3.83937 -4.66825 0.16218 158 162 157
-3.85326 -4.67280 0.16504 154 159 157
-3.50862 -4.54242 0.07980 127 132 136
-3.55195 -4.55669 0.08879 111 118 125
-3.56633 -4.56143 0.09178 105 111 117
-3.58069 -4.56616 0.09476 112 118 114
-3.59502 -4.57088 0.09773 121 129 128
-3.60932 -4.57560 0.10070 120 124 131
-3.62360 -4.58030 0.10366 122 133 141
-3.63785 -4.58499 0.10662 128 142 140
-3.65207 -4.58968 0.10957 123 133 131
-3.66626 -4.59436 0.11252 120 129 138
-3.59083 -4.55248 0.08299 132 146 133
-3.60510 -4.55719 0.08596 129 145 134
-3.61933 -4.56190 0.08893 125 132 133
-3.63354 -4.56659 0.09189 126 128 124
-3.64772 -4.57128 0.09485 126 128 119
-4.22281 -4.88706 1.98620 124 120 101
-4.18049 -4.81862 1.94637 122 120 95
-4.18859 -4.83462 1.95197 123 121 96
-4.19673 -4.85069 1.95759 126 122 100
-4.20490 -4.86682 1.96324 126 122 105
-4.21310 -4.88301 1.96890 127 122 106
-4.22134 -4.89928 1.97460 125 121 104
-4.15474 -4.78273 1.91809 122 121 93
-4.16276 -4.79861 1.92362 123 121 93
-4.17082 -4.81455 1.92916 124 121 91
-4.17891 -4.83055 1.93473 124 123 93
-4.18704 -4.84662 1.94033 125 123 95
-4.19519 -4.86276 1.94594 127 123 97
-4.20338 -4.87896 1.95158 125 123 98
-4.21161 -4.89523 1.95724 126 123 101
-4.21986 -4.91156 1.96293 127 123 104
-4.13710 -4.76283 1.89545 124 120 98
-4.14508 -4.77865 1.90092 124 121 97
-4.15309 -4.79453 1.90642 124 121 98
-4.16114 -4.81047 1.91194 126 121 96
-4.16922 -4.82648 1.91748 126 121 95
-4.17733 -4.84256 1.92304 126 122 96
-4.18547 -4.85870 1.92862 127 123 102
-4.19365 -4.87490 1.93423 128 123 102
-4.20186 -4.89118 1.93986 127 123 96
-4.21010 -4.90751 1.94551 127 124 97
-4.21838 -4.92392 1.95119 127 125 99
-4.11160 -4.72728 1.86747 126 120 100
-4.11951 -4.74297 1.87286 125 122 99
-4.12744 -4.75873 1.87829 125 122 99
-4.13541 -4.77455 1.88373 126 121 96
-4.14341 -4.79044 1.88919 126 121 101
-4.15144 -4.80639 1.89468 125 121 102
-4.15951 -4.82240 1.90019 127 121 99
-4.16760 -4.83848 1.90572 128 122 98
-4.17573 -4.85463 1.91128 127 122 99
-4.18390 -4.87084 1.91685 127 122 105
-4.19209 -4.88712 1.92245 129 123 105
-4.20032 -4.90346 1.92807 128 123 96
-4.20859 -4.91987 1.93372 128 124 94
-4.21689 -4.93635 1.93939 126 127 97
-4.07847 -4.67645 1.83436 124 118 101
-4.08627 -4.69196 1.83966 122 119 101
-4.09410 -4.70753 1.84499 122 120 103
-4.10196 -4.72317 1.85033 125 121 107
-4.10985 -4.73887 1.85570 125 121 105
-4.11777 -4.75463 1.86109 124 122 100
-4.12572 -4.77045 1.86651 125 122 96
-4.13371 -4.78634 1.87194 125 121 95
-4.14173 -4.80230 1.87740 125 122 104
-4.14978 -4.81832 1.88288 125 122 105
-4.15786 -4.83440 1.88838 126 123 102
-4.16598 -4.85055 1.89390 127 123 100
-4.17413 -4.86677 1.89945 126 123 104
-4.18231 -4.88305 1.90501 125 123 111
-4.19053 -4.89940 1.91061 126 125 104
-4.04569 -4.62614 1.80159 121 118 96
-4.05338 -4.64147 1.80680 123 119 97
-4.06110 -4.65686 1.81203 125 119 102
-4.06885 -4.67232 1.81729 125 120 101
-4.07663 -4.68783 1.82256 125 121 99
-4.08445 -4.70341 1.82786 124 122 97
-4.09229 -4.71905 1.83318 123 121 95
-4.10017 -4.73475 1.83852 125 121 100
-4.10808 -4.75052 1.84388 123 121 104
-4.11602 -4.76635 1.84926 123 122 100
-4.12400 -4.78224 1.85466 125 123 97
-4.13200 -4.79820 1.86009 125 122 99
-4.14004 -4.81422 1.86553 126 123 105
-4.14811 -4.83031 1.87100 126 124 105
-4.15621 -4.84647 1.87650 125 125 102
-4.16435 -4.86269 1.88201 127 124 101
-4.17252 -4.87897 1.88755 126 123 106
-4.18072 -4.89533 1.89311 124 124 111
-4.02082 -4.59150 1.77428 122 118 94
-4.02844 -4.60672 1.77942 123 119 99
-4.03609 -4.62199 1.78458 124 119 106
-4.04377 -4.63733 1.78977 124 120 100
-4.05147 -4.65272 1.79497 124 119 96
-4.05921 -4.66818 1.80019 125 119 96
-4.06698 -4.68370 1.80544 126 121 94
-4.07478 -4.69928 1.81070 126 122 95
-4.08262 -4.71493 1.81599 124 122 95
-4.09048 -4.73063 1.82130 123 123 93
-4.09838 -4.74640 1.82663 124 122 97
-4.10630 -4.76224 1.83198 125 121 103
-4.11426 -4.77814 1.83735 126 122 102
-4.12226 -4.79410 1.84275 126 123 98
-4.13028 -4.81013 1.84817 124 123 100
-4.13834 -4.82622 1.85360 125 124 104
-4.14643 -4.84238 1.85907 126 125 104
-4.15455 -4.85860 1.86455 125 125 105
-4.16271 -4.87489 1.87005 127 124 106
-4.01124 -4.58734 1.75731 122 117 94
-4.01884 -4.60256 1.76242 123 118 95
-4.02647 -4.61784 1.76755 124 118 94
-4.03414 -4.63318 1.77270 124 118 98
-4.04183 -4.64858 1.77788 123 119 97
-4.04956 -4.66404 1.78307 123 119 98
-4.05732 -4.67956 1.78829 123 119 103
-4.06511 -4.69515 1.79352 123 120 101
-4.07292 -4.71079 1.79878 123 122 97
-4.08078 -4.72651 1.80406 122 122 98
-4.08866 -4.74228 1.80936 122 123 97
-4.09657 -4.75812 1.81468 124 122 99
-4.10452 -4.77402 1.82002 128 121 102
-4.11250 -4.78999 1.82538 127 122 99
-4.12051 -4.80602 1.83077 126 124 93
-4.12855 -4.82212 1.83618 125 124 96
-3.96413 -4.50796 1.71519 120 113 92
-3.97157 -4.52289 1.72018 121 115 93
-3.97904 -4.53787 1.72518 122 117 96
-3.98654 -4.55291 1.73020 126 117 96
-3.99407 -4.56801 1.73525 126 117 97
-4.00163 -4.58317 1.74031 125 118 98
-4.00923 -4.59840 1.74539 124 119 95
-4.01685 -4.61368 1.75049 124 120 93
-4.02450 -4.62902 1.75562 125 118 94
-4.03218 -4.64442 1.76076 124 117 97
-4.03989 -4.65989 1.76592 122 117 97
-4.04764 -4.67542 1.77111 122 117 98
-4.05541 -4.69101 1.77631 122 120 101
-4.06322 -4.70666 1.78154 122 122 96
-4.07105 -4.72237 1.78679 123 122 93
-4.07892 -4.73815 1.79206 124 123 98
-4.08682 -4.75399 1.79735 124 124 98
-4.09476 -4.76990 1.80266 126 122 99
-4.10272 -4.78587 1.80799 127 121 102
-4.11072 -4.80191 1.81334 126 123 103
-4.11875 -4.81801 1.81872 126 124 102
-3.92515 -4.44464 1.67869 114 108 89
-3.93246 -4.45934 1.68357 118 110 93
-3.93980 -4.47409 1.68847 121 113 89
-3.94717 -4.48890 1.69338 121 115 93
-3.95458 -4.50377 1.69832 121 116 96
-3.96200 -4.51870 1.70327 123 118 95
-3.96946 -4.53369 1.70824 123 117 89
-3.97695 -4.54873 1.71324 123 118 93
-3.98447 -4.56384 1.71825 124 119 97
-3.99202 -4.57900 1.72328 123 120 94
-3.99960 -4.59423 1.72834 124 119 88
-4.00720 -4.60951 1.73341 125 119 90
-4.01484 -4.62486 1.73850 124 120 96
-4.02251 -4.64026 1.74361 125 119 103
-4.03021 -4.65573 1.74875 124 117 104
-4.03794 -4.67126 1.75390 123 117 100
-4.04570 -4.68686 1.75908 125 117 97
-4.05349 -4.70251 1.76427 125 119 96
-4.06132 -4.71823 1.76949 124 121 93
-4.06917 -4.73402 1.77473 124 122 94
-4.07706 -4.74986 1.77999 124 122 100
-4.08498 -4.76577 1.78527 127 122 99
-4.09293 -4.78175 1.79057 128 122 93
-4.10091 -4.79779 1.79589 130 122 94
-4.10893 -4.81390 1.80124 131 125 103
-3.91563 -4.44044 1.66191 120 111 83
-3.92293 -4.45513 1.66676 120 113 87
-3.93026 -4.46989 1.67162 120 114 97
-3.93762 -4.48470 1.67651 122 114 96
-3.94501 -4.49958 1.68141 120 115 99
-3.95243 -4.51451 1.68634 121 119 100
-3.95987 -4.52950 1.69128 124 120 101
-3.96735 -4.54454 1.69625 124 117 95
-3.97485 -4.55965 1.70123 123 118 99
-3.98239 -4.57482 1.70623 124 120 107
-3.98995 -4.59005 1.71125 121 121 100
-3.99755 -4.60534 1.71630 122 121 90
-4.00517 -4.62069 1.72136 123 119 90
-4.01283 -4.63610 1.72644 124 118 97
-4.02051 -4.65157 1.73155 125 117 102
-4.02823 -4.66711 1.73667 124 118 102
-4.03598 -4.68270 1.74181 123 119 97
-4.04376 -4.69836 1.74698 124 119 95
-4.05157 -4.71409 1.75217 126 120 97
-4.05941 -4.72987 1.75737 126 122 98
-4.06728 -4.74573 1.76260 125 122 99
-4.07519 -4.76164 1.76785 126 122 103
-3.87723 -4.37798 1.62601 111 110 87
-3.88441 -4.39246 1.63075 122 114 78
-3.89161 -4.40699 1.63551 122 114 85
-3.89884 -4.42157 1.64030 121 114 92
-3.90610 -4.43622 1.64510 123 114 89
-3.91339 -4.45092 1.64991 120 116 90
-3.92071 -4.46568 1.65475 121 115 94
-3.92805 -4.48050 1.65961 122 117 96
-3.93543 -4.49537 1.66448 124 115 91
-3.94283 -4.51031 1.66938 124 116 95
-3.95026 -4.52530 1.67429 123 120 97
-3.95773 -4.54035 1.67923 123 120 99
-3.96522 -4.55546 1.68418 123 118 98
-3.97274 -4.57063 1.68915 123 119 100
-3.98029 -4.58587 1.69415 125 119 104
-3.98787 -4.60116 1.69916 124 120 100
-3.99548 -4.61651 1.70419 123 121 96
-4.00313 -4.63193 1.70924 125 118 95
-4.01080 -4.64740 1.71432 125 117 97
-4.01850 -4.66294 1.71941 125 118 93
-4.02624 -4.67854 1.72452 124 120 94
-4.03400 -4.69421 1.72966 123 122 98
-4.04180 -4.70993 1.73481 126 121 98
-4.04963 -4.72573 1.73999 128 122 101
-3.86774 -4.37375 1.60928 121 116 87
-3.87490 -4.38823 1.61400 120 116 90
-3.88209 -4.40276 1.61873 121 118 89
-3.88931 -4.41735 1.62349 121 117 92
-3.89656 -4.43200 1.62826 123 116 96
-3.90384 -4.44670 1.63305 126 114 91
-3.91114 -4.46146 1.63786 121 116 91
-3.91847 -4.47628 1.64268 121 116 97
-3.92583 -4.49116 1.64753 123 117 101
-3.93322 -4.50610 1.65240 123 118 92
-3.94064 -4.52110 1.65728 123 116 92
-3.94809 -4.53615 1.66218 124 119 88
-3.95557 -4.55127 1.66711 124 120 93
-3.96308 -4.56644 1.67205 123 120 96
-3.97062 -4.58168 1.67701 122 120 98
-3.97818 -4.59697 1.68199 123 121 101
-3.98578 -4.61233 1.68700 121 122 97
-3.99341 -4.62775 1.69202 122 123 94
-4.00107 -4.64323 1.69706 124 119 92
-4.00876 -4.65877 1.70212 127 118 94
-4.01648 -4.67438 1.70721 127 120 93
-4.02423 -4.69004 1.71231 126 123 96
-3.82290 -4.29794 1.56937 113 107 86
-3.82991 -4.31214 1.57397 118 109 93
-3.83695 -4.32640 1.57859 119 113 90
-3.84402 -4.34071 1.58322 120 116 88
-3.85111 -4.35508 1.58787 121 118 96
-3.85823 -4.36951 1.59254 122 117 103
-3.86538 -4.38399 1.59722 121 115 95
-3.87256 -4.39852 1.60193 122 114 96
-3.87977 -4.41312 1.60665 121 115 93
-3.88700 -4.42777 1.61139 122 115 94
-3.89426 -4.44248 1.61616 124 116 100
-3.90156 -4.45724 1.62093 123 114 83
-3.90887 -4.47206 1.62573 122 116 89
-3.91622 -4.48695 1.63055 120 116 94
-3.92360 -4.50189 1.63538 121 116 96
-3.93101 -4.51689 1.64024 121 118 91
-3.93844 -4.53194 1.64511 123 116 96
-3.94591 -4.54706 1.65001 125 118 99
-3.95340 -4.56224 1.65492 125 120 92
-3.96093 -4.57748 1.65985 124 120 86
-3.96848 -4.59278 1.66480 122 120 92
-3.97606 -4.60814 1.66977 123 119 99
-3.98368 -4.62356 1.67477 125 121 97
-3.99133 -4.63905 1.67978 126 125 97
-3.99900 -4.65459 1.68481 127 123 99
-4.00671 -4.67020 1.68986 131 123 105
-3.80647 -4.27953 1.54819 117 111 80
-3.81344 -4.29368 1.55274 119 114 83
-3.82044 -4.30788 1.55731 120 116 89
-3.82747 -4.32215 1.56190 123 117 96
-3.83452 -4.33646 1.56650 120 115 98
-3.84161 -4.35083 1.57113 121 115 92
-3.84871 -4.36526 1.57576 121 118 94
-3.85585 -4.37974 1.58042 123 116 100
-3.86302 -4.39428 1.58510 121 117 97
-3.87021 -4.40888 1.58979 123 116 100
-3.87743 -4.42353 1.59451 127 116 92
-3.88468 -4.43824 1.59924 124 117 93
-3.89196 -4.45301 1.60399 126 118 97
-3.89926 -4.46784 1.60875 124 118 86
-3.90660 -4.48272 1.61354 122 119 89
-3.91396 -4.49767 1.61835 120 118 92
-3.92135 -4.51267 1.62317 121 118 92
-3.92878 -4.52773 1.62802 123 119 89
-3.93623 -4.54285 1.63288 124 119 92
-3.94371 -4.55803 1.63776 123 118 98
-3.95122 -4.57328 1.64266 123 119 95
-3.95876 -4.58858 1.64758 124 119 92
-3.96633 -4.60394 1.65253 126 119 96
-3.97393 -4.61937 1.65749 127 121 101
-3.98157 -4.63486 1.66247 129 126 103
-3.77629 -4.23312 1.51810 116 107 86
-3.78317 -4.24711 1.52257 116 112 82
-3.79008 -4.26116 1.52706 116 116 86
-3.79701 -4.27526 1.53157 118 116 94
-3.80397 -4.28941 1.53609 119 115 89
-3.81096 -4.30362 1.54063 120 117 90
-3.81797 -4.31788 1.54519 122 118 96
-3.82502 -4.33220 1.54976 124 118 93
-3.83208 -4.34658 1.55436 123 118 93
-3.83918 -4.36101 1.55897 124 118 90
-3.84630 -4.37549 1.56360 121 119 94
-3.85346 -4.39004 1.56824 124 117 101
-3.86064 -4.40463 1.57291 124 116 92
-3.86784 -4.41929 1.57759 123 118 92
-3.87508 -4.43400 1.58229 123 118 88
-3.88234 -4.44878 1.58701 121 120 95
-3.88964 -4.46361 1.59175 122 119 92
-3.89696 -4.47849 1.59651 122 117 84
-3.90431 -4.49344 1.60128 122 117 90
-3.91169 -4.50845 1.60608 123 119 90
-3.91910 -4.52351 1.61089 124 120 91
-3.92653 -4.53864 1.61572 125 120 89
-3.93400 -4.55382 1.62058 125 120 86
-3.94150 -4.56907 1.62545 123 121 96
-3.94903 -4.58437 1.63034 124 122 103
-3.95658 -4.59974 1.63525 128 125 104
-3.96417 -4.61517 1.64018 133 127 99
-3.74641 -4.18717 1.48831 116 106 87
-3.75320 -4.20101 1.49270 117 109 91
-3.76001 -4.21490 1.49711 118 111 94
-3.76686 -4.22884 1.50154 118 112 94
-3.77372 -4.24283 1.50598 119 114 92
-3.78062 -4.25688 1.51044 118 116 90
-3.78754 -4.27098 1.51492 117 117 90
-3.79449 -4.28514 1.51941 121 118 92
-3.80146 -4.29935 1.52392 119 117 87
-3.80846 -4.31362 1.52845 120 118 86
-3.81549 -4.32794 1.53300 121 118 92
-3.82255 -4.34232 1.53756 122 118 90
-3.82963 -4.35675 1.54214 120 119 91
-3.83674 -4.37124 1.54674 124 118 89
-3.84388 -4.38578 1.55136 124 118 89
-3.85105 -4.40038 1.55600 124 114 93
-3.85824 -4.41504 1.56065 124 114 88
-3.86546 -4.42976 1.56532 123 114 93
-3.87271 -4.44453 1.57001 124 116 97
-3.87999 -4.45937 1.57472 123 118 103
-3.88730 -4.47426 1.57945 124 118 96
-3.89464 -4.48921 1.58419 124 117 92
-3.90201 -4.50422 1.58896 122 118 96
-3.90940 -4.51928 1.59374 126 119 97
-3.91683 -4.53441 1.59854 127 121 97
-3.92428 -4.54960 1.60337 127 123 94
-3.93176 -4.56485 1.60821 127 124 94
-3.93928 -4.58016 1.61307 128 125 103
-3.94682 -4.59553 1.61795 129 125 103
-3.75741 -4.22455 1.48495 119 114 97
-3.76427 -4.23855 1.48936 117 115 97
-3.77115 -4.25260 1.49379 119 115 99
-3.77806 -4.26670 1.49824 121 115 96
-3.78499 -4.28086 1.50271 121 115 94
-3.79195 -4.29507 1.50719 121 115 95
-3.79894 -4.30934 1.51169 117 116 94
-3.80596 -4.32367 1.51621 119 117 97
-3.81300 -4.33805 1.52074 121 118 102
-3.82007 -4.35248 1.52529 121 117 96
-3.82717 -4.36697 1.52986 119 118 94
-3.83429 -4.38152 1.53445 124 117 91
-3.84144 -4.39613 1.53906 124 116 91
-3.84862 -4.41079 1.54368 123 115 93
-3.85583 -4.42551 1.54832 123 116 90
-3.86307 -4.44028 1.55298 123 117 94
-3.87034 -4.45512 1.55766 124 117 97
-3.87763 -4.47001 1.56236 125 119 94
-3.88496 -4.48497 1.56708 126 120 81
-3.89231 -4.49998 1.57181 128 120 93
-3.89969 -4.51505 1.57656 128 123 98
-3.90710 -4.53018 1.58134 133 128 100
-3.91454 -4.54538 1.58613 133 130 104
-3.70077 -4.12373 1.43809 113 106 87
-3.70744 -4.13737 1.44236 117 110 85
-3.71413 -4.15105 1.44665 118 113 83
-3.72084 -4.16479 1.45095 118 115 77
-3.72758 -4.17857 1.45527 119 115 79
-3.73434 -4.19241 1.45961 119 115 86
-3.74113 -4.20631 1.46396 119 113 86
-3.74795 -4.22025 1.46833 120 112 86
-3.75479 -4.23425 1.47272 119 113 91
-3.76166 -4.24831 1.47712 118 114 96
-3.76856 -4.26241 1.48154 119 116 93
-3.77548 -4.27658 1.48598 121 117 88
-3.78243 -4.29079 1.49043 122 117 86
-3.78940 -4.30506 1.49490 122 116 93
-3.79640 -4.31939 1.49939 121 115 97
-3.80343 -4.33377 1.50390 122 116 99
-3.81049 -4.34821 1.50842 122 118 98
-3.81757 -4.36270 1.51296 122 118 92
-3.82469 -4.37725 1.51752 121 120 91
-3.83183 -4.39186 1.52209 123 119 88
-3.83899 -4.40653 1.52669 123 119 92
-3.84619 -4.42125 1.53130 121 120 95
-3.85341 -4.43603 1.53593 123 119 94
-3.86067 -4.45087 1.54058 122 117 93
-3.86795 -4.46577 1.54525 126 119 88
-3.87526 -4.48072 1.54993 128 124 96
-3.88260 -4.49574 1.55464 129 125 98
-3.88997 -4.51081 1.55936 133 126 113
-3.89736 -4.52595 1.56410 130 126 103
-4.15917 -5.06159 1.73191 130 129 103
-4.16767 -5.07900 1.73737 129 129 105
-3.67159 -4.07882 1.40902 112 106 77
-3.67816 -4.09230 1.41321 115 109 79
-3.68476 -4.10584 1.41742 116 111 79
-3.69139 -4.11942 1.42165 116 113 84
-3.69804 -4.13305 1.42589 117 114 88
-3.70472 -4.14674 1.43015 119 114 90
-3.71142 -4.16048 1.43443 119 115 93
-3.71814 -4.17427 1.43872 119 117 91
-3.72489 -4.18811 1.44303 120 116 90
-3.73167 -4.20200 1.44735 121 116 90
-3.73848 -4.21595 1.45169 121 115 87
-3.74530 -4.22995 1.45605 122 115 88
-3.75216 -4.24401 1.46042 122 115 94
-3.75904 -4.25812 1.46481 121 117 96
-3.76595 -4.27228 1.46922 119 118 90
-3.77289 -4.28650 1.47365 121 118 90
-3.77985 -4.30078 1.47809 123 118 96
-3.78684 -4.31510 1.48255 123 118 103
-3.79385 -4.32949 1.48702 122 116 102
-3.80090 -4.34393 1.49152 125 116 104
-3.80797 -4.35843 1.49603 124 117 97
-3.81507 -4.37298 1.50056 124 118 92
-3.82219 -4.38759 1.50511 125 118 91
-3.82935 -4.40226 1.50967 125 119 92
-3.83653 -4.41698 1.51425 127 119 96
-3.84374 -4.43177 1.51885 126 117 98
-3.85098 -4.44661 1.52347 127 122 100
-3.85825 -4.46151 1.52811 127 124 101
-3.86554 -4.47647 1.53276 133 124 96
-3.87287 -4.49149 1.53744 129 123 104
-3.88022 -4.50657 1.54213 128 121 105
-4.11532 -4.98857 1.69213 131 128 106
-4.12368 -5.00569 1.69745 132 128 105
-4.13206 -5.02288 1.70281 132 129 100
-4.14048 -5.04015 1.70818 133 128 98
-4.14894 -5.05749 1.71358 133 128 100
-4.15744 -5.07491 1.71900 129 128 103
-4.16597 -5.09240 1.72444 130 129 102
-3.65569 -4.06106 1.38848 118 107 76
-3.66223 -4.07450 1.39263 117 109 77
-3.66879 -4.08798 1.39680 119 111 85
-3.67538 -4.10151 1.40099 118 113 86
-3.68199 -4.11510 1.40518 117 115 86
-3.68863 -4.12873 1.40940 117 115 82
-3.69529 -4.14242 1.41363 119 115 76
-3.70198 -4.15616 1.41788 121 115 82
-3.70869 -4.16995 1.42214 121 116 91
-3.71543 -4.18380 1.42642 120 117 92
-3.72220 -4.19769 1.43071 121 116 90
-3.72899 -4.21164 1.43503 122 115 90
-3.73580 -4.22565 1.43936 121 116 90
-3.74265 -4.23971 1.44370 120 118 92
-3.74951 -4.25382 1.44806 122 118 93
-3.75641 -4.26798 1.45244 124 117 88
-3.76333 -4.28221 1.45684 121 117 85
-3.77028 -4.29648 1.46125 120 118 91
-3.77726 -4.31081 1.46568 123 117 96
-3.78426 -4.32520 1.47013 121 116 99
-3.79129 -4.33964 1.47459 121 117 93
-3.79835 -4.35414 1.47907 122 118 92
-3.80543 -4.36870 1.48357 124 118 87
-3.81255 -4.38331 1.48809 126 119 90
-3.81969 -4.39798 1.49262 129 120 85
-3.82686 -4.41271 1.49718 128 122 92
-3.83405 -4.42750 1.50175 133 122 97
-3.84128 -4.44234 1.50634 131 124 101
-3.84853 -4.45725 1.51094 132 126 99
-3.85582 -4.47221 1.51557 128 123 101
-4.10514 -4.98444 1.67390 130 128 103
-4.11348 -5.00157 1.67919 132 127 107
-4.12185 -5.01877 1.68451 133 127 105
-4.13026 -5.03604 1.68985 133 128 106
-4.13870 -5.05339 1.69521 135 127 103
-4.14718 -5.07081 1.70059 132 128 102
-4.15570 -5.08831 1.70600 130 128 109
-4.16425 -5.10588 1.71143 131 128 106
-3.62690 -4.01673 1.35982 113 103 83
-3.63335 -4.03001 1.36390 118 109 73
-3.63983 -4.04334 1.36799 117 109 84
-3.64633 -4.05673 1.37210 120 108 91
-3.65286 -4.07016 1.37623 120 110 88
-3.65941 -4.08365 1.38037 118 112 94
-3.66598 -4.09718 1.38452 120 113 101
-3.67258 -4.11077 1.38869 119 114 94
-3.67920 -4.12441 1.39288 120 115 89
-3.68585 -4.13810 1.39708 120 116 85
-3.69253 -4.15184 1.40130 121 116 81
-3.69923 -4.16563 1.40554 121 117 85
-3.70595 -4.17948 1.40979 121 118 90
-3.71271 -4.19338 1.41405 121 118 91
-3.71948 -4.20733 1.41834 121 116 89
-3.72629 -4.22134 1.42264 122 116 90
-3.73312 -4.23540 1.42695 121 117 95
-3.73997 -4.24951 1.43129 120 117 100
-3.74685 -4.26368 1.43564 120 118 99
-3.75376 -4.27790 1.44000 120 116 92
-3.76070 -4.29218 1.44439 120 117 88
-3.76766 -4.30652 1.44879 118 119 90
-3.77465 -4.32091 1.45320 121 120 90
-3.78167 -4.33535 1.45764 122 117 92
-3.78871 -4.34985 1.46209 123 117 87
-3.79578 -4.36441 1.46656 121 123 94
-3.80288 -4.37903 1.47105 125 125 98
-3.81001 -4.39370 1.47555 127 126 107
-3.81717 -4.40843 1.48008 131 128 92
-3.82435 -4.42322 1.48462 128 125 97
-3.83156 -4.43807 1.48917 128 123 99
-3.83880 -4.45298 1.49375 128 122 100
-4.10327 -4.99745 1.66090 129 128 99
-4.11163 -5.01465 1.66618 130 127 110
-4.12002 -5.03193 1.67149 131 127 112
-4.12845 -5.04928 1.67681 132 127 112
-4.13691 -5.06671 1.68216 134 128 106
-4.14541 -5.08421 1.68754 132 128 104
-4.15395 -5.10179 1.69293 131 128 112
-4.16253 -5.11944 1.69835 133 128 109
-3.60476 -3.98596 1.33545 111 106 84
-3.61115 -3.99914 1.33947 116 110 86
-3.61756 -4.01238 1.34350 116 112 85
-3.62401 -4.02567 1.34755 119 111 85
-3.63047 -4.03900 1.35162 118 112 83
-3.63696 -4.05239 1.35570 117 113 84
-3.64347 -4.06582 1.35980 119 111 86
-3.65001 -4.07931 1.36391 118 110 85
-3.65657 -4.09284 1.36803 118 111 92
-3.66315 -4.10643 1.37218 117 113 92
-3.66977 -4.12007 1.37634 117 114 90
-3.67640 -4.13376 1.38051 120 115 87
-3.68306 -4.14751 1.38470 120 115 83
-3.68975 -4.16130 1.38891 120 114 88
-3.69646 -4.17515 1.39313 121 116 96
-3.70320 -4.18905 1.39737 121 117 95
-3.70997 -4.20301 1.40162 121 117 90
-3.71676 -4.21702 1.40589 121 116 84
-3.72357 -4.23108 1.41018 121 116 86
-3.73042 -4.24520 1.41448 122 117 96
-3.73728 -4.25937 1.41881 123 117 99
-3.74418 -4.27359 1.42314 123 116 96
-3.75110 -4.28788 1.42750 123 116 89
-3.75805 -4.30221 1.43187 123 119 87
-3.76503 -4.31660 1.43626 124 120 93
-3.77203 -4.33105 1.44066 127 122 97
-3.77906 -4.34556 1.44508 128 125 99
-3.78612 -4.36012 1.44952 131 128 90
-3.79321 -4.37474 1.45398 127 127 95
-3.80032 -4.38942 1.45845 127 126 101
-3.80746 -4.40415 1.46295 125 125 105
-4.10138 -5.01053 1.64782 129 130 98
-4.10976 -5.02781 1.65309 129 129 108
-4.11818 -5.04517 1.65838 130 128 109
-4.12663 -5.06260 1.66370 131 128 107
-4.13511 -5.08011 1.66904 134 128 106
-4.14363 -5.09769 1.67440 133 129 105
-4.15219 -5.11535 1.67978 133 129 107
-3.58908 -3.96846 1.31518 115 110 88
-3.59543 -3.98160 1.31916 115 108 92
-3.60181 -3.99479 1.32315 117 111 97
-3.60822 -4.00803 1.32716 120 113 89
-3.61464 -4.02131 1.33118 119 113 89
-3.62109 -4.03465 1.33522 123 111 87
-3.62757 -4.04804 1.33927 121 109 88
-3.63407 -4.06147 1.34334 119 113 87
-3.64059 -4.07496 1.34742 119 114 84
-3.64714 -4.08850 1.35152 119 113 86
-3.65371 -4.10209 1.35564 120 114 88
-3.66031 -4.11573 1.35977 121 114 88
-3.66694 -4.12943 1.36391 120 115 92
-3.67359 -4.14317 1.36808 120 117 91
-3.68026 -4.15697 1.37225 119 118 89
-3.68696 -4.17082 1.37645 120 117 88
-3.69368 -4.18473 1.38066 121 117 85
-3.70044 -4.19868 1.38488 121 117 90
-3.70721 -4.21269 1.38912 121 117 95
-3.71402 -4.22676 1.39338 121 117 88
-3.72084 -4.24088 1.39766 121 118 87
-3.72770 -4.25505 1.40195 123 117 92
-3.73458 -4.26928 1.40626 124 115 92
-3.74149 -4.28356 1.41058 124 114 93
-3.74843 -4.29790 1.41492 127 121 95
-3.75539 -4.31230 1.41928 127 127 95
-3.76238 -4.32675 1.42366 129 128 99
-3.76940 -4.34126 1.42805 133 126 96
-3.77644 -4.35582 1.43246 129 124 99
-3.78351 -4.37044 1.43689 126 124 92
-3.79062 -4.38512 1.44133 125 123 91
-3.79774 -4.39986 1.44579 126 122 97
-4.06625 -4.95496 1.61386 130 127 103
-4.07450 -4.97203 1.61903 132 127 104
-4.08279 -4.98918 1.62422 133 127 103
-4.09112 -5.00639 1.62943 131 129 102
-4.09949 -5.02368 1.63467 131 130 104
-4.10788 -5.04105 1.63993 131 131 109
-4.11632 -5.05849 1.64521 132 129 104
-4.12479 -5.07600 1.65051 132 128 101
-4.13330 -5.09359 1.65583 134 130 105
-4.14184 -5.11125 1.66118 134 130 105
-4.15042 -5.12900 1.66655 134 130 104
-3.59246 -3.99043 1.30681 115 113 89
-3.59885 -4.00367 1.31079 116 113 94
-3.60527 -4.01696 1.31478 120 113 90
-3.61170 -4.03029 1.31879 118 114 91
-3.61817 -4.04368 1.32282 121 111 78
-3.62465 -4.05712 1.32686 123 113 86
-3.63116 -4.07061 1.33092 121 113 84
-3.63770 -4.08415 1.33499 120 113 83
-3.64426 -4.09774 1.33907 119 112 90
-3.65085 -4.11139 1.34317 121 115 87
-3.65746 -4.12508 1.34729 122 115 82
-3.66409 -4.13883 1.35143 123 115 86
-3.67075 -4.15263 1.35557 122 117 86
-3.67744 -4.16648 1.35974 122 118 91
-3.68415 -4.18039 1.36392 122 117 89
-3.69089 -4.19435 1.36812 123 117 85
-3.69765 -4.20836 1.37233 122 117 87
-3.70444 -4.22243 1.37656 122 117 88
-3.71126 -4.23655 1.38081 122 118 89
-3.71810 -4.25073 1.38507 123 119 93
-3.72497 -4.26496 1.38935 127 121 97
-3.73187 -4.27924 1.39364 131 124 99
-3.73879 -4.29358 1.39795 131 127 98
-3.74574 -4.30798 1.40228 130 125 91
-3.75271 -4.32244 1.40663 126 123 91
-3.75972 -4.33695 1.41099 124 122 96
-3.76675 -4.35151 1.41537 125 121 95
-3.77381 -4.36614 1.41977 123 121 98
-4.03149 -4.90001 1.58027 131 126 104
-4.03963 -4.91687 1.58534 130 127 101
-4.04780 -4.93380 1.59043 134 128 99
-4.05601 -4.95081 1.59555 132 128 103
-4.06425 -4.96788 1.60068 131 128 103
-4.07253 -4.98503 1.60584 133 128 106
-4.08084 -5.00225 1.61101 132 128 107
-4.08919 -5.01955 1.61621 131 130 103
-4.09758 -5.03692 1.62144 133 130 107
-4.10600 -5.05436 1.62668 133 130 111
-4.11445 -5.07188 1.63195 134 130 107
-4.12295 -5.08948 1.63724 134 130 107
-4.13148 -5.10715 1.64255 135 131 105
-4.14004 -5.12490 1.64789 133 131 107
-3.58947 -3.99930 1.29440 117 112 93
-3.59588 -4.01259 1.29836 115 113 99
-3.60230 -4.02593 1.30235 119 113 92
-3.60875 -4.03932 1.30634 119 114 90
-3.61522 -4.05276 1.31036 120 113 82
-3.62172 -4.06625 1.31438 124 113 86
-3.62825 -4.07980 1.31843 122 112 91
-3.63479 -4.09339 1.32248 122 114 98
-3.64137 -4.10703 1.32656 121 113 98
-3.64796 -4.12073 1.33065 122 115 93
-3.65459 -4.13448 1.33475 123 116 87
-3.66123 -4.14828 1.33887 126 115 89
-3.66791 -4.16214 1.34301 123 114 89
-3.67460 -4.17605 1.34716 121 116 93
-3.68133 -4.19001 1.35133 123 116 93
-3.68808 -4.20402 1.35551 124 114 96
-3.69486 -4.21809 1.35971 123 116 101
-3.70166 -4.23222 1.36393 124 122 103
-3.70849 -4.24639 1.36816 128 125 101
-3.71534 -4.26063 1.37241 129 126 100
-3.72223 -4.27492 1.37667 127 123 99
-3.72913 -4.28926 1.38096 125 122 90
-3.73607 -4.30366 1.38525 125 121 88
-3.74303 -4.31812 1.38957 125 121 91
-3.75002 -4.33263 1.39390 122 119 92
-3.99712 -4.84565 1.54705 131 127 104
-4.00514 -4.86231 1.55202 130 127 102
-4.01320 -4.87903 1.55702 131 128 100
-4.02129 -4.89583 1.56203 132 127 100
-4.02941 -4.91269 1.56707 130 127 100
-4.03757 -4.92963 1.57212 130 128 96
-4.04576 -4.94664 1.57720 133 128 94
-4.05399 -4.96372 1.58230 133 128 100
-4.06225 -4.98088 1.58742 133 128 104
-4.07055 -4.99811 1.59256 134 128 107
-4.07888 -5.01541 1.59773 132 128 101
-4.08725 -5.03278 1.60292 131 130 97
-4.10410 -5.06776 1.61336 135 129 108
-3.58647 -4.00822 1.28192 121 114 92
-3.59288 -4.02156 1.28587 120 115 96
-3.59932 -4.03495 1.28984 122 114 93
-3.60578 -4.04840 1.29383 120 114 88
-3.61227 -4.06189 1.29783 120 114 86
-3.61878 -4.07543 1.30184 122 115 87
-3.62531 -4.08903 1.30587 122 115 89
-3.63187 -4.10268 1.30991 123 115 96
-3.63845 -4.11638 1.31398 121 114 94
-3.64506 -4.13013 1.31805 123 116 94
-3.65170 -4.14393 1.32214 123 117 91
-3.65836 -4.15779 1.32625 123 117 88
-3.66504 -4.17170 1.33037 120 117 85
-3.67176 -4.18566 1.33451 121 118 93
-3.67849 -4.19968 1.33867 124 120 100
-3.68525 -4.21375 1.34284 126 124 107
-3.69204 -4.22788 1.34702 127 124 104
-3.69886 -4.24206 1.35123 127 123 99
-3.70570 -4.25629 1.35545 127 121 99
-3.71257 -4.27058 1.35968 126 120 100
-3.71947 -4.28493 1.36393 124 120 98
-3.72639 -4.29933 1.36820 123 119 90
-3.73334 -4.31379 1.37249 123 118 88
-3.98694 -4.84145 1.52888 131 126 101
-3.99495 -4.85811 1.53382 131 126 101
-4.00299 -4.87484 1.53878 132 127 97
-4.01107 -4.89164 1.54376 131 127 94
-4.01917 -4.90851 1.54876 131 128 99
-4.02732 -4.92546 1.55378 131 127 101
-4.03550 -4.94247 1.55882 133 128 101
-4.04371 -4.95956 1.56389 134 128 98
-4.05195 -4.97672 1.56897 135 128 102
-4.06024 -4.99395 1.57408 134 128 105
-4.06856 -5.01126 1.57921 134 128 108
-4.07691 -5.02864 1.58436 132 128 101
-3.58345 -4.01719 1.26938 123 113 91
-3.58988 -4.03058 1.27332 121 115 92
-3.59633 -4.04402 1.27727 121 115 90
-3.60280 -4.05752 1.28124 121 114 86
-3.60929 -4.07106 1.28523 120 116 89
-3.61581 -4.08466 1.28923 121 116 91
-3.62236 -4.09831 1.29325 120 116 83
-3.62893 -4.11201 1.29728 122 116 85
-3.63553 -4.12577 1.30133 123 114 81
-3.64215 -4.13957 1.30539 124 117 92
-3.64880 -4.15343 1.30947 123 120 92
-3.65547 -4.16734 1.31356 124 121 92
-3.66217 -4.18131 1.31767 127 121 89
-3.66889 -4.19533 1.32180 127 122 91
-3.67564 -4.20940 1.32594 127 121 97
-3.68242 -4.22353 1.33009 125 120 101
-3.68922 -4.23771 1.33427 124 120 97
-3.69605 -4.25195 1.33846 123 119 91
-3.70290 -4.26624 1.34266 124 118 91
-3.70978 -4.28059 1.34689 125 117 94
-3.96879 -4.82065 1.50580 128 126 105
-3.97675 -4.83725 1.51068 131 126 105
-3.98474 -4.85391 1.51559 133 126 103
-3.99277 -4.87065 1.52051 130 126 102
-4.00083 -4.88745 1.52546 131 127 100
-4.00892 -4.90433 1.53042 133 127 98
-4.01705 -4.92128 1.53541 134 128 104
-4.02521 -4.93830 1.54042 134 127 105
-4.03341 -4.95539 1.54545 136 126 105
-4.04164 -4.97255 1.55050 135 127 102
-4.04991 -4.98979 1.55557 134 128 103
-4.05821 -5.00711 1.56066 133 129 103
-4.06655 -5.02449 1.56578 133 129 107
-3.58042 -4.02620 1.25677 119 115 98
-3.58685 -4.03964 1.26070 120 115 92
-3.59331 -4.05314 1.26464 121 114 90
-3.59980 -4.06669 1.26860 120 115 87
-3.60630 -4.08029 1.27257 117 113 94
-3.61284 -4.09394 1.27656 121 113 96
-3.61940 -4.10764 1.28056 121 117 91
-3.62598 -4.12140 1.28458 123 120 89
-3.63259 -4.13521 1.28861 130 124 88
-3.63922 -4.14907 1.29266 128 123 98
-3.64588 -4.16298 1.29672 124 121 94
-3.65256 -4.17695 1.30080 122 120 92
-3.65927 -4.19097 1.30490 124 118 91
-3.66601 -4.20505 1.30901 123 117 91
-3.67277 -4.21918 1.31314 123 118 92
-3.67956 -4.23336 1.31728 123 119 94
-3.68638 -4.24760 1.32144 122 119 93
-3.69322 -4.26190 1.32562 122 119 91
-3.94280 -4.78344 1.47797 129 124 98
-3.95068 -4.79990 1.48278 130 124 102
-3.95859 -4.81643 1.48760 128 124 102
-3.96654 -4.83303 1.49245 129 125 104
-3.97451 -4.84970 1.49732 131 126 106
-3.98253 -4.86644 1.50221 133 126 104
-3.99057 -4.88325 1.50712 131 126 105
-3.99865 -4.90013 1.51205 131 128 108
-4.00676 -4.91709 1.51701 133 129 103
-4.01491 -4.93411 1.52198 134 128 105
-4.02309 -4.95121 1.52697 133 127 104
-4.03131 -4.96838 1.53199 134 127 103
-4.03956 -4.98563 1.53703 134 127 101
-4.04785 -5.00294 1.54209 132 128 105
-4.05617 -5.02034 1.54717 133 129 106
-3.57737 -4.03526 1.24409 117 117 96
-3.58382 -4.04876 1.24801 120 116 94
-3.59029 -4.06231 1.25194 123 113 95
-3.59678 -4.07591 1.25588 122 118 92
-3.60330 -4.08956 1.25984 122 120 99
-3.60984 -4.10327 1.26381 124 123 104
-3.61641 -4.11702 1.26780 127 123 94
-3.62301 -4.13083 1.27181 125 121 90
-3.62963 -4.14470 1.27583 124 119 91
-3.63627 -4.15861 1.27986 123 118 94
-3.64294 -4.17258 1.28391 120 118 91
-3.64964 -4.18661 1.28798 120 117 87
-3.65636 -4.20068 1.29206 122 118 88
-3.66311 -4.21482 1.29616 122 118 91
-3.66989 -4.22900 1.30027 122 117 91
-3.92479 -4.76281 1.45505 127 125 95
-3.93262 -4.77920 1.45981 128 125 96
-3.94048 -4.79567 1.46458 128 125 103
-3.94838 -4.81221 1.46938 129 125 103
-3.95631 -4.82881 1.47419 128 125 97
-3.96427 -4.84548 1.47903 129 126 101
-3.97227 -4.86223 1.48388 131 126 110
-3.98030 -4.87905 1.48876 133 127 110
-3.98836 -4.89593 1.49366 133 126 107
-3.99646 -4.91289 1.49857 133 128 108
-4.00459 -4.92992 1.50351 133 129 101
-4.01276 -4.94702 1.50847 132 129 99
-4.02096 -4.96420 1.51345 131 128 99
-4.02920 -4.98145 1.51845 132 128 106
-4.03747 -4.99878 1.52348 133 128 105
-4.04578 -5.01617 1.52852 133 128 103
-4.05412 -5.03365 1.53359 133 128 103
-3.57430 -4.04437 1.23135 121 120 92
-3.58076 -4.05792 1.23525 124 122 97
-3.58724 -4.07152 1.23917 127 121 102
-3.59375 -4.08518 1.24310 124 122 93
-3.60028 -4.09888 1.24704 123 119 97
-3.60684 -4.11264 1.25100 123 119 98
-3.65344 -4.21045 1.27915 121 117 89
-3.66020 -4.22464 1.28324 121 118 90
-3.90682 -4.74223 1.43220 127 125 92
-3.91461 -4.75856 1.43690 127 125 100
-3.92242 -4.77496 1.44162 127 125 102
-3.93027 -4.79143 1.44636 128 125 101
-3.93815 -4.80797 1.45112 129 126 105
-3.94606 -4.82458 1.45590 130 126 103
-3.95401 -4.84126 1.46070 130 127 96
-3.96199 -4.85801 1.46552 130 127 99
-3.97001 -4.87483 1.47037 130 128 111
-3.97806 -4.89172 1.47523 132 128 111
-3.98614 -4.90869 1.48011 132 128 106
-3.99426 -4.92572 1.48501 134 128 103
-4.00241 -4.94283 1.48994 135 128 99
-4.01059 -4.96001 1.49488 131 129 98
-4.01882 -4.97727 1.49985 131 129 99
-4.02707 -4.99460 1.50484 133 128 109
-4.03537 -5.01200 1.50984 135 129 110
-4.04369 -5.02948 1.51487 134 129 102
-4.05206 -5.04704 1.51993 133 129 100
-3.54559 -3.99962 1.20315 133 123 93
-3.57122 -4.05352 1.21854 124 123 92
-3.57769 -4.06713 1.22243 123 120 94
-3.58418 -4.08078 1.22633 124 117 98
-3.59070 -4.09449 1.23025 121 117 92
-3.59724 -4.10825 1.23418 122 116 94
-3.65727 -4.23452 1.27024 120 118 89
-3.89664 -4.73797 1.41405 129 126 93
-3.90440 -4.75431 1.41872 127 126 93
-3.91220 -4.77071 1.42341 127 126 98
-3.92004 -4.78719 1.42811 128 126 99
-3.92790 -4.80373 1.43284 129 126 102
-3.93580 -4.82035 1.43758 130 126 106
-3.94373 -4.83703 1.44235 130 126 103
-3.95170 -4.85379 1.44713 131 127 99
-3.95970 -4.87061 1.45194 130 127 100
-3.96773 -4.88751 1.45677 129 128 104
-3.97580 -4.90448 1.46161 130 128 105
-3.98390 -4.92152 1.46648 130 129 102
-3.99204 -4.93863 1.47137 132 129 97
-4.00021 -4.95582 1.47628 134 129 96
-4.00842 -4.97308 1.48121 131 129 102
-4.01666 -4.99042 1.48616 132 129 103
-4.02494 -5.00783 1.49114 134 129 108
-4.03325 -5.02531 1.49613 135 130 108
-3.54245 -4.00861 1.19033 132 122 97
-3.54883 -4.02206 1.19414 132 122 98
-3.55524 -4.03557 1.19797 121 116 97
-3.56167 -4.04912 1.20181 122 118 99
-3.56812 -4.06273 1.20567 122 118 90
-3.57460 -4.07639 1.20954 123 117 90
-3.58111 -4.09010 1.21342 120 114 90
-3.58764 -4.10386 1.21733 120 115 88
-3.85574 -4.66901 1.37753 128 123 93
-3.86337 -4.68508 1.38209 125 124 96
-3.87102 -4.70122 1.38667 125 125 99
-3.87871 -4.71743 1.39126 128 126 100
-3.88643 -4.73370 1.39587 130 125 92
-3.89418 -4.75005 1.40051 130 126 92
-3.90197 -4.76646 1.40516 129 127 96
-3.90979 -4.78294 1.40983 128 127 96
-3.91764 -4.79949 1.41452 128 128 95
-3.92552 -4.81611 1.41923 130 128 99
-3.93344 -4.83279 1.42396 131 127 101
-3.94139 -4.84955 1.42871 130 127 96
-3.94937 -4.86638 1.43349 130 126 97
-3.95739 -4.88329 1.43828 131 126 101
-3.96545 -4.90026 1.44309 131 127 102
-3.97353 -4.91731 1.44792 131 128 101
-3.98165 -4.93443 1.45277 131 129 100
-3.98981 -4.95162 1.45765 131 130 96
-3.99800 -4.96889 1.46254 132 129 97
-4.00623 -4.98623 1.46746 133 129 107
-4.01449 -5.00364 1.47240 133 129 109
-4.02279 -5.02113 1.47735 134 129 109
-3.54568 -4.03116 1.18124 136 124 97
-3.55210 -4.04471 1.18505 127 120 95
-3.55854 -4.05832 1.18888 123 116 93
-3.56501 -4.07198 1.19272 122 114 90
-3.57150 -4.08569 1.19658 124 116 89
-3.57801 -4.09946 1.20045 120 114 89
-3.84558 -4.66472 1.35946 129 123 96
-3.85319 -4.68080 1.36398 129 123 99
-3.86083 -4.69694 1.36853 127 124 95
-3.86851 -4.71315 1.37309 127 125 95
-3.87621 -4.72943 1.37767 129 126 94
-3.88395 -4.74578 1.38226 130 126 87
-3.89172 -4.76219 1.38688 131 126 91
-3.89952 -4.77868 1.39152 131 126 97
-3.90736 -4.79523 1.39618 128 126 97
-3.91523 -4.81186 1.40085 128 127 96
-3.92313 -4.82855 1.40555 130 128 93
-3.93106 -4.84531 1.41026 131 127 92
-3.93903 -4.86215 1.41500 131 127 93
-3.94704 -4.87906 1.41976 131 126 95
-3.95507 -4.89604 1.42453 132 126 102
-3.96315 -4.91309 1.42933 133 127 106
-3.97125 -4.93021 1.43415 132 129 106
-3.97939 -4.94741 1.43898 131 130 102
-3.98757 -4.96468 1.44384 132 130 99
-3.99578 -4.98203 1.44872 131 130 100
-4.00402 -4.99945 1.45362 133 130 107
-3.54252 -4.04030 1.16827 132 123 93
-3.54895 -4.05391 1.17207 130 120 85
-3.55540 -4.06757 1.17588 124 114 83
-3.56188 -4.08128 1.17971 122 112 93
-3.56838 -4.09505 1.18355 122 115 91
-3.57490 -4.10887 1.18741 119 113 95
-3.80533 -4.59676 1.32359 126 122 95
-3.81280 -4.61257 1.32800 127 123 100
-3.82031 -4.62846 1.33244 127 124 102
-3.82784 -4.64441 1.33689 128 124 96
-3.83540 -4.66042 1.34136 130 123 94
-3.84300 -4.67651 1.34585 130 123 98
-3.85062 -4.69265 1.35036 129 123 100
-3.85828 -4.70887 1.35488 129 125 95
-3.86597 -4.72515 1.35943 129 126 93
-3.87370 -4.74150 1.36399 130 127 93
-3.88145 -4.75792 1.36858 130 127 90
-3.88924 -4.77441 1.37318 132 127 93
-3.89706 -4.79097 1.37780 132 126 96
-3.90491 -4.80760 1.38244 129 126 97
-3.91280 -4.82430 1.38710 129 127 98
-3.92072 -4.84107 1.39178 130 127 94
-3.92867 -4.85791 1.39648 131 127 92
-3.93666 -4.87482 1.40120 131 127 97
-3.94468 -4.89181 1.40595 131 127 99
-3.95274 -4.90886 1.41071 132 127 103
-3.96083 -4.92599 1.41549 133 128 108
-3.96896 -4.94320 1.42029 132 130 108
-3.97712 -4.96047 1.42511 131 130 103
-3.98531 -4.97783 1.42996 131 130 100
-3.54577 -4.06315 1.15901 131 122 91
-3.55224 -4.07687 1.16281 126 113 81
-3.55873 -4.09064 1.16662 123 112 88
-3.56524 -4.10446 1.17045 121 115 88
-3.79520 -4.59244 1.30559 126 121 94
-3.80265 -4.60826 1.30997 128 122 96
-3.81014 -4.62415 1.31437 128 123 99
-3.81766 -4.64010 1.31879 128 124 98
-3.82521 -4.65612 1.32323 126 124 94
-3.83279 -4.67221 1.32768 127 123 95
-3.84040 -4.68836 1.33216 129 123 96
-3.84804 -4.70458 1.33665 128 124 97
-3.85572 -4.72087 1.34116 129 125 95
-3.86343 -4.73722 1.34569 129 126 95
-3.87117 -4.75365 1.35024 128 127 96
-3.87894 -4.77014 1.35481 128 127 97
-3.88675 -4.78670 1.35939 129 126 99
-3.89458 -4.80334 1.36400 131 126 101
-3.90246 -4.82004 1.36863 130 126 99
-3.91036 -4.83682 1.37327 130 126 98
-3.91830 -4.85366 1.37794 131 127 97
-3.92627 -4.87058 1.38262 131 127 98
-3.93428 -4.88757 1.38733 130 127 103
-3.94232 -4.90463 1.39205 131 128 106
-3.95039 -4.92176 1.39680 132 128 106
-3.54259 -4.07245 1.14589 133 127 91
-3.54906 -4.08622 1.14967 127 113 86
-3.55556 -4.10004 1.15347 123 114 87
-3.56209 -4.11392 1.15728 122 115 86
-3.74103 -4.49451 1.26185 126 122 93
-3.74830 -4.50995 1.26609 128 121 90
-3.75559 -4.52545 1.27035 128 121 91
-3.76291 -4.54102 1.27463 128 121 90
-3.77026 -4.55665 1.27892 125 121 95
-3.77764 -4.57235 1.28324 126 121 98
-3.78505 -4.58811 1.28757 127 121 90
-3.79249 -4.60394 1.29192 126 122 94
-3.79996 -4.61983 1.29628 128 122 97
-3.80746 -4.63579 1.30067 127 123 96
-3.81500 -4.65181 1.30507 128 124 96
-3.82256 -4.66790 1.30949 126 123 95
-3.83016 -4.68406 1.31393 126 124 97
-3.83779 -4.70028 1.31839 127 124 98
-3.84545 -4.71657 1.32286 127 125 95
-3.85314 -4.73293 1.32736 129 125 98
-3.86087 -4.74936 1.33187 129 125 99
-3.86862 -4.76586 1.33640 129 125 99
-3.87641 -4.78243 1.34096 129 126 101
-3.88424 -4.79907 1.34553 129 126 102
-3.89209 -4.81578 1.35012 130 126 103
-3.89998 -4.83255 1.35473 131 126 101
-3.90791 -4.84941 1.35936 132 126 101
-3.91586 -4.86633 1.36401 132 126 102
-3.92385 -4.88332 1.36868 132 127 102
-3.93188 -4.90039 1.37337 131 127 105
-3.93994 -4.91753 1.37808 130 128 105
-3.53938 -4.08179 1.13269 137 127 90
-3.54587 -4.09561 1.13646 128 114 85
-3.55238 -4.10949 1.14024 123 115 87
-3.55892 -4.12343 1.14404 122 116 84
-3.72374 -4.47477 1.23980 127 122 91
-3.73096 -4.49015 1.24399 125 122 89
-3.73820 -4.50560 1.24820 125 123 90
-3.74548 -4.52111 1.25243 128 121 88
-3.75278 -4.53668 1.25668 128 120 91
-3.76012 -4.55231 1.26094 129 121 91
-3.76749 -4.56801 1.26522 127 121 94
-3.77488 -4.58378 1.26951 127 122 97
-3.78231 -4.59961 1.27383 125 123 93
-3.78976 -4.61550 1.27816 125 123 98
-3.79725 -4.63147 1.28251 126 123 104
-3.80477 -4.64749 1.28688 127 123 96
-3.81232 -4.66359 1.29127 130 123 97
-3.81990 -4.67975 1.29567 129 124 100
-3.82752 -4.69598 1.30009 128 125 101
-3.83516 -4.71227 1.30454 128 124 101
-3.84284 -4.72864 1.30900 128 124 96
-3.85055 -4.74507 1.31348 129 125 99
-3.85829 -4.76158 1.31797 130 125 101
-3.86607 -4.77815 1.32249 131 124 99
-3.87387 -4.79479 1.32703 130 125 96
-3.88171 -4.81150 1.33158 129 127 100
-3.88959 -4.82829 1.33616 130 127 99
-3.89750 -4.84514 1.34075 131 126 96
-3.90544 -4.86207 1.34536 131 125 101
-3.91341 -4.87907 1.35000 133 125 102
-3.92142 -4.89614 1.35465 133 127 101
-3.53616 -4.09118 1.11943 136 122 93
-3.54266 -4.10506 1.12318 128 115 88
-3.54918 -4.11900 1.12695 127 116 92
-3.55573 -4.13299 1.13073 124 114 87
-3.69223 -4.42462 1.20957 125 120 87
-3.69934 -4.43982 1.21368 125 122 89
-3.70649 -4.45508 1.21781 125 122 90
-3.71366 -4.47040 1.22195 126 124 91
-3.72086 -4.48579 1.22611 126 123 90
-3.72809 -4.50124 1.23029 125 122 91
-3.73536 -4.51675 1.23448 125 123 90
-3.74265 -4.53233 1.23869 126 122 89
-3.74997 -4.54797 1.24292 126 121 97
-3.75732 -4.56367 1.24717 130 120 92
-3.76470 -4.57944 1.25143 128 122 91
-3.77211 -4.59527 1.25571 126 123 96
-3.77955 -4.61117 1.26001 124 124 94
-3.78702 -4.62714 1.26433 125 124 96
-3.79453 -4.64317 1.26866 125 124 100
-3.80206 -4.65927 1.27301 127 123 97
-3.80963 -4.67543 1.27738 130 123 98
-3.81723 -4.69167 1.28177 130 124 102
-3.82486 -4.70797 1.28618 129 124 103
-3.83252 -4.72434 1.29060 128 123 102
-3.84021 -4.74077 1.29505 128 123 99
-3.84794 -4.75728 1.29951 130 124 100
-3.85570 -4.77386 1.30399 129 125 103
-3.86349 -4.79051 1.30849 129 125 100
-3.87132 -4.80722 1.31301 130 125 95
-3.87918 -4.82401 1.31755 130 126 99
-3.88707 -4.84087 1.32211 130 127 97
-3.89499 -4.85781 1.32669 130 127 94
-3.53292 -4.10063 1.10609 133 122 91
-3.53943 -4.11456 1.10983 124 114 90
-3.54596 -4.12855 1.11358 126 114 94
-3.55252 -4.14260 1.11735 124 113 92
-3.63327 -4.31550 1.16371 124 116 89
-3.66806 -4.39001 1.18369 124 122 89
-3.67511 -4.40509 1.18773 123 122 92
-3.68218 -4.42023 1.19179 125 121 94
-3.68928 -4.43544 1.19587 126 121 94
-3.69641 -4.45070 1.19996 124 122 96
-3.70357 -4.46603 1.20407 124 122 93
-3.71075 -4.48142 1.20820 125 123 92
-3.71797 -4.49687 1.21234 124 123 89
-3.72522 -4.51239 1.21650 125 122 95
-3.73249 -4.52797 1.22068 126 123 97
-3.73980 -4.54361 1.22488 125 122 90
-3.74713 -4.55932 1.22909 125 121 98
-3.75450 -4.57509 1.23332 127 121 92
-3.76189 -4.59093 1.23756 127 123 90
-3.76932 -4.60683 1.24183 125 123 95
-3.77678 -4.62280 1.24611 124 124 95
-3.78427 -4.63884 1.25041 126 124 94
-3.79179 -4.65494 1.25473 126 124 94
-3.79934 -4.67111 1.25906 127 124 96
-3.80692 -4.68735 1.26342 129 123 97
-3.82218 -4.72003 1.27218 129 124 101
-3.82986 -4.73647 1.27659 129 123 102
-3.83757 -4.75298 1.28102 128 123 101
-3.84532 -4.76956 1.28546 130 124 101
-3.85309 -4.78621 1.28993 130 124 104
-3.86090 -4.80294 1.29441 129 125 101
-3.86875 -4.81973 1.29892 129 126 97
-3.87662 -4.83660 1.30344 130 126 98
-3.88453 -4.85353 1.30798 130 126 97
-3.52966 -4.11012 1.09268 134 125 92
-3.53618 -4.12411 1.09641 125 114 87
-3.54273 -4.13816 1.10014 124 112 87
-3.54930 -4.15226 1.10389 123 113 86
-3.55590 -4.16642 1.10766 122 115 96
-3.62330 -4.31109 1.14613 124 117 87
-3.66506 -4.40070 1.16996 124 121 90
-3.67211 -4.41585 1.17399 124 121 95
-3.67920 -4.43105 1.17803 125 122 96
-3.68631 -4.44632 1.18209 124 122 93
-3.69345 -4.46165 1.18617 124 122 94
-3.70063 -4.47705 1.19026 125 122 90
-3.70783 -4.49250 1.19437 125 123 89
-3.71506 -4.50802 1.19850 124 122 89
-3.72232 -4.52360 1.20264 126 122 97
-3.72961 -4.53925 1.20680 127 122 99
-3.73693 -4.55496 1.21098 126 122 91
-3.74428 -4.57074 1.21518 125 122 97
-3.75166 -4.58658 1.21939 125 122 95
-3.75907 -4.60249 1.22362 126 123 95
-3.76652 -4.61846 1.22787 125 123 93
-3.77399 -4.63450 1.23213 125 123 95
-3.78150 -4.65061 1.23642 127 123 98
-3.78903 -4.66678 1.24072 127 124 100
-3.79660 -4.68302 1.24504 128 125 99
-3.80420 -4.69933 1.24937 129 124 98
-3.82719 -4.74867 1.26249 129 124 99
-3.83492 -4.76526 1.26690 129 124 100
-3.84268 -4.78192 1.27133 131 124 101
-3.85047 -4.79864 1.27578 131 124 102
-3.85830 -4.81544 1.28025 129 125 98
-3.86616 -4.83231 1.28474 129 126 95
-3.52639 -4.11967 1.07920 133 123 93
-3.53292 -4.13372 1.08291 126 114 85
-3.53948 -4.14782 1.08663 123 111 83
-3.54606 -4.16198 1.09036 122 114 84
-3.55267 -4.17619 1.09411 122 116 96
-3.55930 -4.19046 1.09787 123 116 88
-3.61332 -4.30668 1.12852 122 117 94
-3.62020 -4.32147 1.13242 122 117 89
-3.65499 -4.39630 1.15215 124 119 93
-3.66203 -4.41145 1.15615 124 119 92
-3.66910 -4.42666 1.16016 125 121 91
-3.67620 -4.44193 1.16419 126 122 91
-3.68333 -4.45727 1.16823 125 121 89
-3.69049 -4.47266 1.17229 124 121 90
-3.69767 -4.48812 1.17637 127 120 93
-3.70489 -4.50365 1.18046 127 121 94
-3.71213 -4.51923 1.18457 125 122 93
-3.71941 -4.53488 1.18870 127 122 96
-3.72671 -4.55060 1.19284 129 121 97
-3.73405 -4.56638 1.19700 126 122 94
-3.74142 -4.58222 1.20118 127 122 101
-3.74881 -4.59813 1.20538 127 122 99
-3.75624 -4.61411 1.20959 126 122 100
-3.76370 -4.63016 1.21382 126 122 89
-3.77119 -4.64627 1.21807 126 123 85
-3.77871 -4.66244 1.22234 127 124 97
-3.78626 -4.67869 1.22662 128 125 102
-3.79384 -4.69500 1.23092 128 125 100
-3.80146 -4.71139 1.23524 129 124 101
-3.52310 -4.12926 1.06565 132 120 90
-3.52964 -4.14337 1.06934 125 115 86
-3.53621 -4.15753 1.07304 122 114 84
-3.54280 -4.17175 1.07676 121 116 89
-3.54942 -4.18602 1.08049 121 117 97
-3.55607 -4.20035 1.08424 121 114 87
-3.56274 -4.21474 1.08800 121 114 85
-3.59650 -4.28752 1.10703 121 115 95
-3.60333 -4.30226 1.11088 121 117 93
-3.65193 -4.40705 1.13828 125 119 96
-3.65899 -4.42226 1.14226 125 119 94
-3.66607 -4.43754 1.14626 126 120 92
-3.67318 -4.45287 1.15027 127 121 93
-3.68033 -4.46827 1.15429 126 121 92
-3.68750 -4.48374 1.15834 125 121 94
-3.69470 -4.49926 1.16240 127 120 95
-3.70193 -4.51485 1.16647 127 120 96
-3.70919 -4.53051 1.17057 126 122 94
-3.71648 -4.54623 1.17468 126 122 95
-3.72380 -4.56201 1.17880 128 121 97
-3.73115 -4.57786 1.18295 125 121 96
-3.73853 -4.59377 1.18711 127 122 103
-3.74594 -4.60976 1.19129 128 121 98
-3.75339 -4.62580 1.19548 127 121 97
-3.76086 -4.64192 1.19970 127 122 86
-3.76837 -4.65810 1.20393 128 124 80
-3.77590 -4.67435 1.20818 128 125 93
-3.78347 -4.69067 1.21245 127 125 97
-3.79107 -4.70705 1.21673 128 124 97
-3.79870 -4.72351 1.22103 129 123 98
-3.51979 -4.13892 1.05202 132 117 89
-3.52634 -4.15308 1.05569 127 117 87
-3.53292 -4.16730 1.05938 123 115 81
-3.53952 -4.18157 1.06308 120 115 89
-3.54616 -4.19590 1.06680 122 116 94
-3.55281 -4.21029 1.07053 116 114 91
-3.55950 -4.22474 1.07427 120 114 84
-3.56621 -4.23924 1.07803 122 116 76
-3.57294 -4.25380 1.08181 121 116 83
-3.57971 -4.26842 1.08559 122 117 89
-3.58650 -4.28309 1.08940 120 115 91
-3.59332 -4.29783 1.09322 121 115 88
-3.60016 -4.31262 1.09705 121 116 89
-3.60703 -4.32747 1.10091 123 116 89
-3.64886 -4.41786 1.12434 124 120 95
-3.65593 -4.43313 1.12830 125 121 96
-3.66302 -4.44847 1.13227 125 121 98
-3.67015 -4.46388 1.13627 125 120 99
-3.67731 -4.47934 1.14028 126 121 96
-3.68449 -4.49487 1.14430 126 122 96
-3.69171 -4.51047 1.14835 125 123 90
-3.69895 -4.52613 1.15241 127 123 88
-3.70623 -4.54185 1.15648 125 123 91
-3.71353 -4.55764 1.16057 124 123 93
-3.72087 -4.57349 1.16468 125 123 95
-3.72824 -4.58941 1.16881 125 122 94
-3.73563 -4.60539 1.17296 126 123 103
-3.74306 -4.62144 1.17712 128 122 94
-3.75052 -4.63756 1.18130 128 122 90
-3.75801 -4.65375 1.18549 128 122 91
-3.76553 -4.67000 1.18971 128 124 88
-3.77308 -4.68633 1.19394 128 124 94
-3.78067 -4.70272 1.19819 129 124 94
-3.78828 -4.71918 1.20245 128 124 94
-3.79593 -4.73571 1.20674 128 123 94
-3.51646 -4.14862 1.03832 128 117 87
-3.52302 -4.16284 1.04198 126 117 89
-3.52961 -4.17712 1.04564 123 114 81
-3.53623 -4.19145 1.04933 121 114 88
-3.54287 -4.20584 1.05303 122 115 93
-3.54954 -4.22029 1.05674 116 116 93
-3.55624 -4.23479 1.06047 119 116 88
-3.56296 -4.24935 1.06421 122 116 80
-3.56971 -4.26397 1.06797 122 115 85
-3.57649 -4.27865 1.07174 121 116 92
-3.58329 -4.29339 1.07553 120 116 93
-3.59012 -4.30819 1.07933 121 117 89
