ply
format ascii 1.0
element face 0
property list uchar int vertex_indices
element vertex 1240
property float x
property float y
property float z
property uchar diffuse_red
property uchar diffuse_green
property uchar diffuse_blue
end_header
-0.01821 -0.44883 -0.67816 254 254 254
-0.01180 -0.45141 -0.67522 254 254 254
-0.00538 -0.45400 -0.67228 254 254 254
0.30505 -0.57922 -0.52999 254 254 252
0.31131 -0.58175 -0.52712 254 254 250
0.31756 -0.58427 -0.52425 254 254 248
0.32382 -0.58679 -0.52139 254 254 248
0.33006 -0.58931 -0.51852 254 254 248
0.33631 -0.59183 -0.51566 254 254 250
0.34255 -0.59435 -0.51280 254 254 251
0.34879 -0.59687 -0.50994 254 254 250
-0.33475 -0.33062 -0.81535 250 249 251
-0.32820 -0.33326 -0.81234 250 249 250
-0.32165 -0.33590 -0.80934 250 249 250
-0.30203 -0.34381 -0.80036 251 249 251
-0.29549 -0.34644 -0.79736 250 249 252
-0.28896 -0.34908 -0.79437 250 249 251
-0.28243 -0.35171 -0.79138 251 249 251
-0.27591 -0.35434 -0.78839 251 249 251
-0.26939 -0.35696 -0.78540 251 249 251
-0.26287 -0.35959 -0.78242 251 249 251
-0.25635 -0.36222 -0.77943 251 249 252
-0.24984 -0.36484 -0.77645 251 249 251
-0.24333 -0.36747 -0.77347 251 249 251
-0.23682 -0.37009 -0.77049 251 249 251
-0.23032 -0.37271 -0.76751 251 250 251
-0.22382 -0.37533 -0.76453 251 250 252
-0.21733 -0.37795 -0.76156 251 250 251
-0.21083 -0.38056 -0.75858 251 250 252
-0.20434 -0.38318 -0.75561 251 250 251
-0.19786 -0.38579 -0.75264 251 250 251
-0.19137 -0.38840 -0.74967 251 250 250
-0.18489 -0.39102 -0.74670 251 250 251
-0.17842 -0.39363 -0.74373 251 250 251
-0.17194 -0.39624 -0.74077 251 250 251
-0.16547 -0.39884 -0.73780 251 250 251
-0.15900 -0.40145 -0.73484 251 250 251
-0.15254 -0.40405 -0.73188 251 250 251
-0.14608 -0.40666 -0.72892 252 250 251
-0.13962 -0.40926 -0.72596 252 251 251
-0.13317 -0.41186 -0.72301 252 251 252
-0.12672 -0.41446 -0.72005 252 251 251
-0.12027 -0.41706 -0.71710 252 251 252
-0.11382 -0.41966 -0.71415 252 252 253
-0.10738 -0.42225 -0.71120 252 252 252
-0.10094 -0.42485 -0.70825 252 252 252
-0.09451 -0.42744 -0.70530 252 252 253
-0.08808 -0.43003 -0.70235 252 253 253
-0.08165 -0.43263 -0.69941 253 253 254
-0.07522 -0.43522 -0.69647 253 253 253
-0.06880 -0.43780 -0.69352 253 253 253
-0.06238 -0.44039 -0.69058 253 253 253
-0.05596 -0.44298 -0.68764 254 253 253
-0.04955 -0.44556 -0.68471 254 254 254
-0.04314 -0.44814 -0.68177 254 254 254
-0.03673 -0.45073 -0.67884 254 254 254
-0.03033 -0.45331 -0.67590 254 254 254
-0.02393 -0.45589 -0.67297 254 254 254
-0.01753 -0.45846 -0.67004 254 254 254
0.29211 -0.58325 -0.52821 254 254 252
0.29835 -0.58577 -0.52535 254 254 252
0.30459 -0.58828 -0.52249 254 254 250
0.31083 -0.59080 -0.51963 254 254 249
0.31706 -0.59331 -0.51678 254 254 249
0.32329 -0.59582 -0.51393 254 254 249
0.32952 -0.59833 -0.51107 254 254 251
0.33574 -0.60084 -0.50822 254 254 251
0.34196 -0.60335 -0.50537 254 254 250
-0.33946 -0.33814 -0.80966 250 249 250
-0.33293 -0.34077 -0.80667 250 249 250
-0.32641 -0.34339 -0.80368 250 249 250
-0.30684 -0.35127 -0.79472 250 249 252
-0.30033 -0.35389 -0.79174 250 249 251
-0.29382 -0.35652 -0.78876 250 249 251
-0.28731 -0.35914 -0.78578 250 249 251
-0.28080 -0.36176 -0.78280 251 249 251
-0.27430 -0.36437 -0.77983 251 249 252
-0.26780 -0.36699 -0.77685 251 249 251
-0.26131 -0.36961 -0.77388 251 249 251
-0.25482 -0.37222 -0.77091 251 249 251
-0.24833 -0.37483 -0.76794 251 249 251
-0.24184 -0.37744 -0.76497 251 249 250
-0.23536 -0.38005 -0.76200 251 249 251
-0.22888 -0.38266 -0.75903 251 249 251
-0.22241 -0.38527 -0.75607 251 249 251
-0.21593 -0.38788 -0.75311 251 250 251
-0.20946 -0.39048 -0.75015 251 250 251
-0.20300 -0.39309 -0.74719 251 250 251
-0.19653 -0.39569 -0.74423 251 250 251
-0.19007 -0.39829 -0.74127 251 250 252
-0.18362 -0.40089 -0.73831 251 250 251
-0.17716 -0.40349 -0.73536 251 250 251
-0.17071 -0.40609 -0.73241 251 250 251
-0.16427 -0.40868 -0.72946 251 250 251
-0.15782 -0.41128 -0.72651 251 250 251
-0.15138 -0.41387 -0.72356 252 250 251
-0.14494 -0.41646 -0.72061 252 250 251
-0.13851 -0.41905 -0.71767 252 250 252
-0.13208 -0.42164 -0.71472 252 251 251
-0.12565 -0.42423 -0.71178 252 251 252
-0.11923 -0.42682 -0.70884 252 251 252
-0.11280 -0.42940 -0.70590 252 252 252
-0.10639 -0.43199 -0.70296 252 252 252
-0.09997 -0.43457 -0.70003 252 252 252
-0.09356 -0.43715 -0.69709 252 252 252
-0.08715 -0.43973 -0.69416 253 252 251
-0.08074 -0.44231 -0.69122 253 253 253
-0.07434 -0.44489 -0.68829 253 253 253
-0.06794 -0.44747 -0.68536 253 253 253
-0.06154 -0.45004 -0.68244 253 253 253
-0.05515 -0.45262 -0.67951 254 254 254
-0.04876 -0.45519 -0.67658 254 254 254
-0.04237 -0.45776 -0.67366 254 254 254
-0.03599 -0.46033 -0.67074 254 254 254
0.28547 -0.58977 -0.52359 254 254 251
0.29169 -0.59228 -0.52074 254 254 252
0.29791 -0.59478 -0.51789 254 254 251
0.30413 -0.59728 -0.51505 254 254 251
0.31035 -0.59979 -0.51220 254 254 250
0.31656 -0.60229 -0.50936 254 254 250
0.32277 -0.60479 -0.50652 254 254 251
0.32897 -0.60729 -0.50367 254 254 253
-0.34414 -0.34560 -0.80400 250 249 250
-0.33763 -0.34822 -0.80102 250 248 250
-0.33113 -0.35084 -0.79805 250 249 250
-0.31163 -0.35869 -0.78913 250 249 252
-0.30513 -0.36130 -0.78616 250 249 251
-0.29864 -0.36391 -0.78319 250 249 251
-0.29215 -0.36652 -0.78022 250 249 251
-0.28567 -0.36913 -0.77725 250 249 251
-0.27919 -0.37174 -0.77429 251 249 251
-0.27271 -0.37434 -0.77132 251 249 251
-0.26623 -0.37695 -0.76836 251 249 251
-0.25976 -0.37955 -0.76540 251 249 251
-0.25329 -0.38215 -0.76244 251 249 251
-0.24683 -0.38475 -0.75948 251 249 251
-0.24037 -0.38735 -0.75653 251 249 251
-0.23391 -0.38995 -0.75357 251 249 251
-0.22745 -0.39255 -0.75062 251 249 251
-0.22100 -0.39514 -0.74767 251 249 251
-0.21455 -0.39774 -0.74472 251 249 251
-0.20810 -0.40033 -0.74177 251 249 251
-0.20166 -0.40292 -0.73882 251 249 251
-0.19522 -0.40551 -0.73588 251 250 251
-0.18878 -0.40810 -0.73293 251 250 252
-0.18235 -0.41069 -0.72999 251 250 252
-0.17592 -0.41328 -0.72705 251 250 251
-0.16949 -0.41586 -0.72411 251 250 251
-0.16307 -0.41845 -0.72117 251 250 252
-0.15665 -0.42103 -0.71823 252 250 251
-0.15023 -0.42361 -0.71530 252 250 251
-0.14382 -0.42619 -0.71236 252 251 251
-0.13740 -0.42877 -0.70943 252 251 251
-0.13100 -0.43135 -0.70650 252 251 252
-0.12459 -0.43393 -0.70357 252 252 252
-0.11819 -0.43650 -0.70064 252 252 252
-0.11179 -0.43908 -0.69771 252 252 252
-0.10540 -0.44165 -0.69479 252 252 253
-0.09900 -0.44422 -0.69186 252 252 252
-0.09261 -0.44679 -0.68894 253 252 252
-0.08623 -0.44936 -0.68602 253 253 253
-0.07984 -0.45193 -0.68310 253 253 253
-0.07346 -0.45450 -0.68018 253 253 253
-0.06709 -0.45706 -0.67726 253 253 252
-0.06071 -0.45963 -0.67435 253 253 253
-0.05434 -0.46219 -0.67143 254 253 254
0.27267 -0.59374 -0.52184 254 254 254
0.27888 -0.59624 -0.51900 254 254 252
0.28508 -0.59874 -0.51616 254 254 253
0.29128 -0.60123 -0.51332 254 254 253
0.29748 -0.60373 -0.51049 254 254 252
0.30368 -0.60622 -0.50765 254 254 251
0.30987 -0.60871 -0.50482 254 254 251
0.31606 -0.61120 -0.50199 254 254 253
0.32225 -0.61369 -0.49916 254 254 254
-0.34879 -0.35302 -0.79839 251 249 250
-0.34230 -0.35563 -0.79542 250 248 250
-0.33582 -0.35824 -0.79246 250 249 250
-0.31638 -0.36605 -0.78357 250 249 252
-0.30990 -0.36865 -0.78061 250 249 251
-0.30343 -0.37125 -0.77765 250 249 251
-0.29696 -0.37385 -0.77469 250 249 251
-0.29050 -0.37645 -0.77174 250 249 251
-0.28404 -0.37905 -0.76878 250 249 251
-0.27758 -0.38164 -0.76583 251 249 251
-0.27113 -0.38424 -0.76288 250 249 251
-0.26467 -0.38683 -0.75993 251 249 251
-0.25823 -0.38942 -0.75698 251 249 251
-0.25178 -0.39201 -0.75404 251 249 251
-0.24534 -0.39460 -0.75109 250 249 251
-0.23890 -0.39719 -0.74815 250 249 251
-0.23246 -0.39978 -0.74521 251 249 251
-0.22603 -0.40236 -0.74227 251 249 251
-0.21960 -0.40495 -0.73933 251 249 251
-0.21318 -0.40753 -0.73639 251 249 251
-0.20675 -0.41011 -0.73345 251 249 251
-0.20033 -0.41269 -0.73052 251 250 251
-0.19392 -0.41527 -0.72758 251 250 251
-0.18750 -0.41785 -0.72465 251 250 251
-0.18109 -0.42043 -0.72172 251 250 250
-0.17468 -0.42300 -0.71879 251 250 251
-0.16828 -0.42558 -0.71586 251 250 251
-0.16188 -0.42815 -0.71294 251 250 251
-0.15548 -0.43072 -0.71001 252 250 251
-0.14909 -0.43329 -0.70709 252 250 251
-0.14270 -0.43586 -0.70417 252 250 251
-0.13631 -0.43843 -0.70125 252 251 252
-0.12992 -0.44099 -0.69833 252 251 252
-0.12354 -0.44356 -0.69541 252 252 252
-0.11716 -0.44612 -0.69249 252 252 252
-0.11078 -0.44869 -0.68958 252 252 252
-0.10441 -0.45125 -0.68667 252 252 252
-0.09804 -0.45381 -0.68375 252 252 253
-0.09168 -0.45637 -0.68084 252 253 253
-0.08531 -0.45892 -0.67793 253 253 254
-0.07895 -0.46148 -0.67503 253 253 253
-0.07259 -0.46404 -0.67212 253 253 253
0.25994 -0.59770 -0.52010 254 254 254
0.26613 -0.60019 -0.51727 254 254 254
0.27232 -0.60267 -0.51444 254 254 253
0.27851 -0.60516 -0.51161 254 254 254
0.28469 -0.60765 -0.50878 254 254 254
0.29087 -0.61013 -0.50596 254 254 253
0.29705 -0.61261 -0.50313 254 254 253
0.30323 -0.61509 -0.50031 254 254 252
0.30940 -0.61758 -0.49749 254 254 253
-0.34694 -0.36298 -0.78985 250 249 250
-0.34048 -0.36558 -0.78690 250 249 250
-0.32110 -0.37336 -0.77805 250 249 252
-0.31464 -0.37596 -0.77510 250 249 251
-0.30819 -0.37855 -0.77215 250 249 251
-0.30174 -0.38114 -0.76920 250 249 251
-0.29530 -0.38372 -0.76626 250 249 251
-0.28886 -0.38631 -0.76332 250 249 251
-0.28242 -0.38890 -0.76038 250 249 251
-0.27599 -0.39148 -0.75744 250 249 251
-0.26955 -0.39406 -0.75450 250 249 252
-0.26313 -0.39664 -0.75156 251 249 251
-0.25670 -0.39923 -0.74863 251 249 250
-0.25028 -0.40180 -0.74569 251 249 251
-0.24386 -0.40438 -0.74276 251 249 251
-0.23744 -0.40696 -0.73983 251 249 251
-0.23103 -0.40953 -0.73690 251 249 251
-0.22462 -0.41211 -0.73397 251 249 251
-0.21822 -0.41468 -0.73104 251 249 251
-0.21181 -0.41725 -0.72812 251 249 251
-0.20541 -0.41982 -0.72519 251 250 251
-0.19902 -0.42239 -0.72227 251 250 251
-0.19262 -0.42496 -0.71935 251 250 251
-0.18623 -0.42753 -0.71643 251 250 252
-0.17984 -0.43009 -0.71351 251 250 251
-0.17346 -0.43265 -0.71060 251 250 251
-0.16708 -0.43522 -0.70768 251 250 251
-0.16070 -0.43778 -0.70477 252 250 251
-0.15432 -0.44034 -0.70185 252 250 251
-0.14795 -0.44290 -0.69894 252 251 252
-0.14158 -0.44546 -0.69603 252 251 251
-0.13522 -0.44801 -0.69312 252 251 252
-0.12886 -0.45057 -0.69022 252 252 252
-0.12250 -0.45312 -0.68731 252 252 252
-0.11614 -0.45567 -0.68441 252 252 253
-0.10979 -0.45823 -0.68150 252 253 252
-0.10344 -0.46078 -0.67860 252 253 253
-0.09709 -0.46332 -0.67570 252 253 253
-0.09074 -0.46587 -0.67281 253 253 253
0.25347 -0.60411 -0.51554 254 254 252
0.25964 -0.60659 -0.51272 254 254 251
0.26581 -0.60906 -0.50990 254 254 251
0.27198 -0.61154 -0.50709 254 254 252
0.27815 -0.61402 -0.50427 254 254 253
0.28431 -0.61649 -0.50145 254 254 253
0.29047 -0.61896 -0.49864 254 254 253
0.29663 -0.62144 -0.49583 254 254 251
0.30278 -0.62391 -0.49302 254 254 251
-0.35155 -0.37029 -0.78432 250 249 250
-0.34510 -0.37288 -0.78138 250 249 251
-0.33866 -0.37547 -0.77844 250 249 249
-0.33222 -0.37805 -0.77550 250 248 247
-0.32578 -0.38063 -0.77256 250 249 251
-0.31935 -0.38321 -0.76962 250 249 250
-0.31292 -0.38579 -0.76669 250 249 251
-0.30649 -0.38837 -0.76375 250 249 251
-0.30007 -0.39095 -0.76082 250 249 251
-0.29365 -0.39353 -0.75789 250 249 251
-0.28723 -0.39610 -0.75496 250 249 251
-0.28081 -0.39868 -0.75203 251 249 251
-0.27440 -0.40125 -0.74910 251 249 251
-0.26799 -0.40382 -0.74617 251 249 251
-0.26159 -0.40639 -0.74325 251 249 251
-0.25519 -0.40896 -0.74033 251 249 251
-0.24879 -0.41153 -0.73741 251 249 251
-0.24239 -0.41409 -0.73448 251 249 251
-0.23600 -0.41666 -0.73157 251 249 251
-0.22961 -0.41922 -0.72865 251 249 251
-0.22322 -0.42178 -0.72573 251 249 251
-0.21684 -0.42435 -0.72282 251 249 251
-0.21046 -0.42691 -0.71990 251 249 251
-0.20408 -0.42947 -0.71699 251 250 251
-0.19771 -0.43202 -0.71408 251 250 251
-0.19134 -0.43458 -0.71117 251 250 251
-0.18497 -0.43713 -0.70827 251 250 250
-0.17860 -0.43969 -0.70536 251 250 251
-0.17224 -0.44224 -0.70246 251 250 251
-0.16588 -0.44479 -0.69955 252 250 251
-0.15953 -0.44734 -0.69665 252 250 251
-0.15317 -0.44989 -0.69375 252 251 251
-0.14683 -0.45244 -0.69085 252 251 251
-0.14048 -0.45498 -0.68795 252 251 252
-0.13414 -0.45753 -0.68506 252 252 252
-0.12780 -0.46007 -0.68216 252 252 252
-0.12146 -0.46262 -0.67927 252 252 252
-0.11513 -0.46516 -0.67638 252 252 252
0.24088 -0.60800 -0.51383 254 254 251
0.24704 -0.61047 -0.51102 254 254 250
0.25319 -0.61294 -0.50821 254 254 248
0.25935 -0.61541 -0.50540 254 254 248
0.26550 -0.61788 -0.50259 254 254 250
0.27164 -0.62035 -0.49979 254 254 250
0.27779 -0.62281 -0.49698 254 254 251
0.28393 -0.62528 -0.49418 254 254 250
0.29007 -0.62774 -0.49138 254 254 249
-0.35613 -0.37755 -0.77883 250 249 250
-0.34970 -0.38013 -0.77590 250 249 251
-0.34328 -0.38271 -0.77297 250 249 249
-0.33686 -0.38528 -0.77004 250 248 248
-0.33044 -0.38785 -0.76711 250 249 252
-0.32403 -0.39042 -0.76418 250 249 250
-0.31762 -0.39299 -0.76126 250 249 251
-0.31121 -0.39556 -0.75833 250 249 251
-0.30481 -0.39813 -0.75541 250 249 251
-0.29840 -0.40070 -0.75249 251 249 251
-0.29201 -0.40326 -0.74957 251 249 251
-0.28561 -0.40583 -0.74665 251 249 250
-0.27922 -0.40839 -0.74374 251 249 251
-0.27283 -0.41095 -0.74082 251 249 251
-0.26644 -0.41351 -0.73791 251 249 251
-0.26006 -0.41607 -0.73500 251 249 251
-0.25368 -0.41862 -0.73209 251 249 251
-0.24731 -0.42118 -0.72918 251 249 251
-0.24093 -0.42374 -0.72627 251 249 251
-0.23456 -0.42629 -0.72336 251 249 251
-0.22820 -0.42884 -0.72046 251 249 251
-0.22183 -0.43139 -0.71755 251 249 251
-0.21547 -0.43394 -0.71465 251 250 251
-0.20911 -0.43649 -0.71175 251 250 251
-0.20276 -0.43904 -0.70885 251 250 251
-0.19641 -0.44159 -0.70595 251 250 251
-0.19006 -0.44413 -0.70306 251 250 251
-0.18371 -0.44668 -0.70016 251 250 251
-0.17737 -0.44922 -0.69727 251 250 251
-0.17103 -0.45176 -0.69437 252 250 251
-0.16470 -0.45430 -0.69148 252 250 251
-0.15836 -0.45684 -0.68859 252 251 251
-0.15203 -0.45938 -0.68570 252 251 251
-0.14571 -0.46191 -0.68282 252 251 252
-0.13938 -0.46445 -0.67993 252 251 252
-0.13306 -0.46698 -0.67705 252 252 252
0.22836 -0.61188 -0.51213 254 254 251
0.23451 -0.61434 -0.50933 254 254 251
0.24065 -0.61680 -0.50653 254 254 251
0.24679 -0.61926 -0.50373 254 254 250
0.25292 -0.62172 -0.50093 254 254 249
0.25905 -0.62418 -0.49813 254 254 250
0.26518 -0.62664 -0.49533 254 254 250
0.27131 -0.62909 -0.49254 254 254 250
0.27743 -0.63155 -0.48974 254 254 250
-0.36068 -0.38477 -0.77337 250 249 251
-0.35427 -0.38733 -0.77045 250 249 250
-0.34787 -0.38990 -0.76753 250 248 248
-0.34147 -0.39246 -0.76461 250 248 249
-0.33507 -0.39503 -0.76170 250 249 251
-0.32867 -0.39759 -0.75878 250 249 251
-0.32228 -0.40015 -0.75587 250 249 251
-0.31590 -0.40271 -0.75295 250 249 251
-0.30951 -0.40526 -0.75004 251 249 251
-0.30313 -0.40782 -0.74713 251 249 251
-0.29675 -0.41037 -0.74422 251 249 251
-0.29038 -0.41293 -0.74132 251 249 251
-0.28400 -0.41548 -0.73841 251 249 251
-0.27763 -0.41803 -0.73551 251 249 251
-0.27127 -0.42058 -0.73260 251 249 251
-0.26491 -0.42313 -0.72970 251 249 251
-0.25855 -0.42568 -0.72680 251 249 251
-0.25219 -0.42822 -0.72390 251 249 251
-0.24584 -0.43077 -0.72101 251 249 251
-0.23948 -0.43331 -0.71811 251 249 251
-0.23314 -0.43585 -0.71521 251 250 251
-0.22679 -0.43840 -0.71232 251 250 251
-0.22045 -0.44094 -0.70943 251 250 251
-0.21411 -0.44347 -0.70654 251 250 251
-0.20778 -0.44601 -0.70365 251 250 251
-0.20145 -0.44855 -0.70076 251 250 251
-0.19512 -0.45108 -0.69788 251 250 251
-0.18879 -0.45362 -0.69499 251 250 251
-0.18247 -0.45615 -0.69211 251 250 251
-0.17615 -0.45868 -0.68923 252 250 251
-0.16983 -0.46121 -0.68635 252 250 252
-0.16352 -0.46374 -0.68347 252 251 251
-0.15721 -0.46627 -0.68059 252 251 251
-0.15090 -0.46880 -0.67771 252 251 252
-0.14459 -0.47132 -0.67484 252 252 252
0.22205 -0.61818 -0.50765 254 254 253
0.22818 -0.62063 -0.50485 254 254 253
0.23430 -0.62309 -0.50206 254 254 252
0.24042 -0.62554 -0.49927 254 254 253
0.24653 -0.62799 -0.49648 254 254 252
0.25265 -0.63044 -0.49369 254 254 251
0.25876 -0.63288 -0.49091 254 254 251
0.26487 -0.63533 -0.48812 254 254 252
0.27097 -0.63778 -0.48534 254 254 252
-0.36519 -0.39194 -0.76795 251 249 251
-0.35881 -0.39449 -0.76504 251 249 248
-0.35242 -0.39705 -0.76213 250 247 244
-0.34604 -0.39960 -0.75922 250 249 251
-0.33967 -0.40215 -0.75632 250 249 251
-0.33329 -0.40470 -0.75341 250 249 251
-0.32692 -0.40725 -0.75051 250 249 251
-0.32055 -0.40980 -0.74761 250 249 251
-0.31419 -0.41235 -0.74471 251 249 252
-0.30783 -0.41489 -0.74181 251 249 251
-0.30147 -0.41744 -0.73891 251 249 251
-0.29511 -0.41998 -0.73601 251 249 251
-0.28876 -0.42253 -0.73312 251 249 252
-0.28241 -0.42507 -0.73022 251 249 251
-0.27606 -0.42761 -0.72733 251 249 251
-0.26972 -0.43015 -0.72444 251 249 251
-0.26338 -0.43268 -0.72155 251 249 251
-0.25704 -0.43522 -0.71866 251 249 251
-0.25071 -0.43775 -0.71578 251 249 251
-0.24437 -0.44029 -0.71289 251 250 251
-0.23805 -0.44282 -0.71001 251 250 251
-0.23172 -0.44535 -0.70712 251 250 251
-0.22540 -0.44788 -0.70424 251 250 251
-0.21908 -0.45041 -0.70136 251 250 251
-0.18123 -0.46556 -0.68412 252 250 251
-0.17493 -0.46808 -0.68125 252 251 251
-0.16864 -0.47060 -0.67838 252 251 251
-0.16235 -0.47312 -0.67551 252 251 251
0.20967 -0.62200 -0.50598 254 254 254
0.21578 -0.62445 -0.50319 254 254 254
0.22188 -0.62689 -0.50041 254 254 254
0.22799 -0.62933 -0.49763 254 254 253
0.23409 -0.63178 -0.49485 254 254 253
0.24019 -0.63422 -0.49207 254 254 253
0.24629 -0.63666 -0.48929 254 254 252
0.25238 -0.63909 -0.48651 254 254 253
0.25847 -0.64153 -0.48374 254 254 253
-0.36968 -0.39906 -0.76256 251 249 251
-0.36332 -0.40160 -0.75966 250 248 246
-0.35695 -0.40415 -0.75677 248 243 240
-0.35059 -0.40669 -0.75387 250 249 252
-0.34423 -0.40923 -0.75097 251 249 251
-0.33788 -0.41177 -0.74808 250 249 251
-0.33153 -0.41431 -0.74519 250 249 251
-0.32518 -0.41685 -0.74229 251 249 251
-0.31883 -0.41939 -0.73940 251 249 251
-0.31249 -0.42193 -0.73652 251 249 251
-0.30615 -0.42446 -0.73363 251 249 250
-0.29981 -0.42699 -0.73074 251 249 251
-0.29348 -0.42953 -0.72786 251 249 251
-0.28715 -0.43206 -0.72498 251 249 251
-0.28082 -0.43459 -0.72209 251 249 251
-0.27450 -0.43712 -0.71921 251 249 251
-0.26818 -0.43964 -0.71633 251 249 251
-0.26186 -0.44217 -0.71346 251 249 251
-0.25555 -0.44470 -0.71058 251 250 251
-0.24923 -0.44722 -0.70771 251 250 251
0.19736 -0.62580 -0.50431 254 254 253
0.20345 -0.62824 -0.50154 254 254 254
0.20954 -0.63067 -0.49876 254 254 254
0.21563 -0.63311 -0.49599 254 254 254
0.22172 -0.63554 -0.49322 254 254 253
0.22780 -0.63797 -0.49045 254 254 253
0.23388 -0.64040 -0.48768 254 254 254
0.23996 -0.64284 -0.48491 254 254 254
0.24604 -0.64526 -0.48214 254 254 254
0.25211 -0.64769 -0.47938 254 254 254
-0.37414 -0.40613 -0.75721 250 249 250
-0.36780 -0.40867 -0.75432 249 245 244
-0.36145 -0.41120 -0.75143 245 233 237
-0.35511 -0.41373 -0.74855 250 249 252
-0.34877 -0.41627 -0.74566 251 249 251
-0.34244 -0.41880 -0.74278 250 249 251
-0.33610 -0.42133 -0.73990 251 249 250
-0.32977 -0.42386 -0.73702 251 249 251
-0.32345 -0.42638 -0.73414 251 249 251
-0.31712 -0.42891 -0.73126 251 249 251
-0.31080 -0.43144 -0.72838 251 249 251
-0.30449 -0.43396 -0.72551 251 249 251
0.19120 -0.63200 -0.49989 254 254 253
0.19728 -0.63443 -0.49713 254 254 254
0.20335 -0.63686 -0.49436 254 254 253
0.20942 -0.63928 -0.49160 254 254 252
0.21549 -0.64171 -0.48884 254 254 252
0.22156 -0.64413 -0.48608 254 254 253
0.22762 -0.64655 -0.48332 254 254 254
0.23368 -0.64898 -0.48056 254 254 254
0.23974 -0.65140 -0.47780 254 254 254
-0.37857 -0.41316 -0.75189 250 249 250
-0.37225 -0.41568 -0.74901 249 245 243
-0.36592 -0.41821 -0.74614 245 238 236
-0.35960 -0.42073 -0.74326 250 250 252
-0.35328 -0.42326 -0.74039 250 249 251
-0.34696 -0.42578 -0.73751 250 249 251
-0.34065 -0.42830 -0.73464 251 249 251
-0.33434 -0.43082 -0.73177 251 249 251
-0.32803 -0.43333 -0.72890 251 249 251
-0.32173 -0.43585 -0.72604 251 249 250
-0.31543 -0.43837 -0.72317 251 249 251
-0.30913 -0.44088 -0.72031 251 249 251
0.17902 -0.63575 -0.49826 254 254 253
0.18508 -0.63817 -0.49550 254 254 253
0.19114 -0.64059 -0.49274 254 254 253
0.19720 -0.64300 -0.48999 254 254 252
0.20325 -0.64542 -0.48724 254 254 250
0.20930 -0.64784 -0.48448 254 254 251
0.21535 -0.65025 -0.48173 254 254 253
0.22139 -0.65267 -0.47898 254 254 254
0.22744 -0.65508 -0.47623 254 254 254
-0.38298 -0.42014 -0.74661 250 249 250
-0.37667 -0.42266 -0.74374 250 248 246
-0.37036 -0.42517 -0.74088 249 247 242
-0.36406 -0.42769 -0.73801 250 249 252
-0.35776 -0.43020 -0.73515 250 249 251
-0.35146 -0.43271 -0.73228 250 249 251
-0.34517 -0.43522 -0.72942 251 249 251
-0.33888 -0.43773 -0.72656 251 249 251
-0.33259 -0.44024 -0.72370 251 249 251
-0.32631 -0.44275 -0.72085 251 249 251
-0.32002 -0.44525 -0.71799 251 249 251
-0.31374 -0.44776 -0.71514 251 249 251
0.16691 -0.63947 -0.49663 254 254 253
0.17295 -0.64188 -0.49388 254 254 253
0.17900 -0.64429 -0.49114 254 254 253
0.18504 -0.64670 -0.48839 254 254 252
0.19108 -0.64911 -0.48564 254 254 251
0.19712 -0.65152 -0.48290 254 254 250
0.20315 -0.65393 -0.48016 254 254 250
0.20918 -0.65633 -0.47742 254 254 252
0.21521 -0.65874 -0.47468 254 254 253
-0.38735 -0.42708 -0.74136 250 249 250
-0.38106 -0.42959 -0.73850 251 250 250
-0.37477 -0.43209 -0.73565 251 249 249
-0.36849 -0.43460 -0.73279 250 249 251
-0.36221 -0.43710 -0.72994 250 249 251
-0.35593 -0.43960 -0.72709 250 249 251
-0.34966 -0.44210 -0.72423 251 249 251
-0.34339 -0.44460 -0.72139 251 249 251
-0.33712 -0.44710 -0.71854 251 249 251
-0.33085 -0.44960 -0.71569 251 249 251
-0.32459 -0.45209 -0.71285 251 249 251
-0.31833 -0.45459 -0.71000 251 249 251
0.16090 -0.64558 -0.49228 254 254 251
0.16693 -0.64798 -0.48954 254 254 251
0.17296 -0.65038 -0.48680 254 254 251
0.17898 -0.65278 -0.48406 254 254 250
0.18500 -0.65518 -0.48133 254 254 250
0.19102 -0.65758 -0.47859 254 254 251
0.19704 -0.65998 -0.47586 254 254 249
0.20305 -0.66238 -0.47313 254 254 250
0.20906 -0.66477 -0.47040 254 254 252
-0.39170 -0.43397 -0.73614 250 249 250
-0.38543 -0.43647 -0.73330 250 249 250
-0.37916 -0.43897 -0.73045 250 249 251
-0.37289 -0.44146 -0.72761 250 249 251
-0.36663 -0.44395 -0.72476 250 249 251
-0.36037 -0.44645 -0.72192 250 249 251
-0.35412 -0.44894 -0.71908 250 249 251
-0.34787 -0.45143 -0.71624 250 249 251
-0.34162 -0.45392 -0.71340 251 249 251
-0.33537 -0.45640 -0.71057 251 249 251
-0.32912 -0.45889 -0.70773 251 249 251
-0.32288 -0.46138 -0.70490 251 249 251
-0.31665 -0.46386 -0.70207 251 249 251
0.14891 -0.64925 -0.49068 254 254 251
0.15493 -0.65165 -0.48795 254 254 251
0.16094 -0.65404 -0.48522 254 254 251
0.16695 -0.65643 -0.48249 254 254 251
0.17296 -0.65882 -0.47976 254 254 249
0.17896 -0.66122 -0.47704 254 254 250
0.18496 -0.66361 -0.47431 254 254 251
0.19096 -0.66599 -0.47159 254 254 249
0.19696 -0.66838 -0.46886 254 254 249
-0.40227 -0.43834 -0.73380 250 249 250
-0.39602 -0.44082 -0.73096 250 249 250
-0.38977 -0.44331 -0.72812 250 249 250
-0.38352 -0.44580 -0.72529 250 249 250
-0.37727 -0.44828 -0.72245 250 249 251
-0.37103 -0.45077 -0.71962 250 249 251
-0.36479 -0.45325 -0.71679 250 249 251
-0.35855 -0.45573 -0.71396 250 249 250
-0.35232 -0.45821 -0.71113 250 249 251
-0.34609 -0.46069 -0.70830 251 249 251
-0.33986 -0.46317 -0.70548 251 249 251
-0.33363 -0.46565 -0.70265 251 249 250
-0.32741 -0.46812 -0.69983 251 249 250
-0.32119 -0.47060 -0.69701 251 249 251
0.14300 -0.65529 -0.48637 254 254 253
0.14899 -0.65768 -0.48365 254 254 252
0.15499 -0.66006 -0.48093 254 254 253
0.16098 -0.66244 -0.47821 254 254 252
0.16697 -0.66483 -0.47549 254 254 251
0.17296 -0.66721 -0.47277 254 254 251
0.17894 -0.66959 -0.47006 254 254 252
0.18493 -0.67197 -0.46734 254 254 251
0.19090 -0.67435 -0.46463 254 254 251
-0.41278 -0.44267 -0.73147 250 249 251
-0.40654 -0.44515 -0.72864 250 249 250
-0.40031 -0.44763 -0.72581 250 249 250
-0.39408 -0.45011 -0.72298 250 249 250
-0.38785 -0.45259 -0.72016 250 249 251
-0.38162 -0.45506 -0.71733 250 249 251
-0.37539 -0.45754 -0.71451 250 249 251
-0.36917 -0.46001 -0.71169 251 249 250
-0.36295 -0.46248 -0.70887 250 249 248
-0.35674 -0.46495 -0.70605 250 249 250
-0.35053 -0.46742 -0.70323 250 249 249
-0.34432 -0.46989 -0.70042 251 249 250
-0.33811 -0.47236 -0.69760 251 249 250
-0.33191 -0.47482 -0.69479 251 250 251
-0.32571 -0.47729 -0.69198 251 250 251
0.13113 -0.65891 -0.48480 254 254 254
0.13712 -0.66129 -0.48208 254 254 254
0.14310 -0.66367 -0.47937 254 254 254
0.14908 -0.66604 -0.47666 254 254 254
0.15505 -0.66842 -0.47395 254 254 254
0.16102 -0.67079 -0.47124 254 254 252
0.16699 -0.67317 -0.46853 254 254 252
0.17296 -0.67554 -0.46583 254 254 253
0.17893 -0.67791 -0.46312 254 254 253
-0.42323 -0.44698 -0.72915 251 249 251
-0.41701 -0.44945 -0.72633 250 249 251
-0.41079 -0.45193 -0.72351 250 249 251
-0.40457 -0.45439 -0.72069 250 249 251
-0.39836 -0.45686 -0.71788 250 249 251
-0.39215 -0.45933 -0.71506 250 249 251
-0.38594 -0.46180 -0.71225 250 249 250
-0.37973 -0.46426 -0.70943 250 249 250
-0.37353 -0.46673 -0.70662 250 249 250
-0.36733 -0.46919 -0.70381 250 249 250
-0.36113 -0.47165 -0.70100 250 249 249
-0.35494 -0.47411 -0.69820 250 249 249
-0.34875 -0.47657 -0.69539 251 249 250
-0.34256 -0.47903 -0.69259 251 250 251
-0.33638 -0.48149 -0.68978 251 250 251
-0.33019 -0.48394 -0.68698 251 250 250
0.12531 -0.66488 -0.48053 254 254 254
0.13128 -0.66725 -0.47782 254 254 254
0.13724 -0.66962 -0.47512 254 254 254
0.14320 -0.67199 -0.47242 254 254 254
0.14916 -0.67436 -0.46972 254 254 253
0.15511 -0.67672 -0.46702 254 254 252
0.16107 -0.67909 -0.46432 254 254 252
0.16702 -0.68145 -0.46163 254 254 252
-0.42742 -0.45373 -0.72403 251 249 251
-0.42121 -0.45619 -0.72122 250 249 251
-0.41501 -0.45866 -0.71842 250 249 251
-0.40881 -0.46112 -0.71561 250 249 251
-0.40261 -0.46358 -0.71280 250 249 251
-0.39642 -0.46603 -0.71000 251 249 250
-0.39023 -0.46849 -0.70719 250 249 249
-0.38404 -0.47095 -0.70439 250 249 250
-0.37786 -0.47340 -0.70159 250 249 250
-0.37168 -0.47585 -0.69879 250 250 251
-0.36550 -0.47831 -0.69599 250 250 250
-0.35933 -0.48076 -0.69319 250 250 250
-0.35315 -0.48321 -0.69040 251 250 251
-0.34698 -0.48566 -0.68760 251 250 252
-0.34082 -0.48810 -0.68481 251 250 251
-0.33465 -0.49055 -0.68202 251 250 250
0.11952 -0.67082 -0.47629 254 254 254
0.12547 -0.67318 -0.47359 254 254 254
0.13142 -0.67554 -0.47090 254 254 254
0.13736 -0.67790 -0.46821 254 254 254
0.14330 -0.68026 -0.46552 254 254 253
0.14924 -0.68262 -0.46283 254 254 251
0.15518 -0.68497 -0.46014 254 254 252
0.16111 -0.68733 -0.45745 254 254 250
-0.43776 -0.45798 -0.72175 251 249 251
-0.43157 -0.46044 -0.71895 251 249 251
-0.42538 -0.46289 -0.71615 250 249 251
-0.41920 -0.46534 -0.71335 250 249 251
-0.41302 -0.46780 -0.71055 250 249 251
-0.40684 -0.47025 -0.70776 251 249 252
-0.40067 -0.47269 -0.70496 251 249 251
-0.39450 -0.47514 -0.70217 250 249 250
-0.38833 -0.47759 -0.69938 250 249 250
-0.38216 -0.48003 -0.69658 250 249 249
-0.37600 -0.48248 -0.69379 251 250 251
-0.36984 -0.48492 -0.69101 250 249 250
-0.36368 -0.48736 -0.68822 250 249 249
-0.35753 -0.48980 -0.68543 251 250 251
-0.35138 -0.49224 -0.68265 251 250 252
-0.34523 -0.49468 -0.67986 251 250 251
-0.33909 -0.49712 -0.67708 251 250 251
-0.44804 -0.46221 -0.71948 251 250 251
-0.44187 -0.46466 -0.71669 251 249 251
-0.43570 -0.46710 -0.71390 251 249 251
-0.42953 -0.46955 -0.71111 251 249 251
-0.42337 -0.47199 -0.70832 251 249 251
-0.41721 -0.47443 -0.70553 251 249 251
-0.41105 -0.47687 -0.70275 251 249 251
-0.40489 -0.47931 -0.69996 250 249 250
-0.39874 -0.48175 -0.69718 250 249 250
-0.39259 -0.48419 -0.69439 250 249 251
-0.38644 -0.48662 -0.69161 250 249 250
-0.38030 -0.48906 -0.68883 250 249 250
-0.37415 -0.49149 -0.68605 250 249 249
-0.36802 -0.49393 -0.68328 250 249 249
-0.36188 -0.49636 -0.68050 251 249 250
-0.35575 -0.49879 -0.67773 251 250 250
-0.34962 -0.50122 -0.67495 251 250 251
-0.34349 -0.50365 -0.67218 251 250 252
-0.45211 -0.46885 -0.71444 251 249 250
-0.44596 -0.47129 -0.71166 251 249 251
-0.43980 -0.47373 -0.70888 251 249 251
-0.43365 -0.47616 -0.70610 251 249 251
-0.42751 -0.47860 -0.70332 251 249 251
-0.42136 -0.48103 -0.70054 251 249 251
-0.41522 -0.48346 -0.69777 250 249 250
-0.40909 -0.48589 -0.69499 250 249 249
-0.40295 -0.48832 -0.69222 250 249 250
-0.39682 -0.49075 -0.68944 251 249 251
-0.39069 -0.49317 -0.68667 251 249 250
-0.38456 -0.49560 -0.68390 251 250 250
-0.37844 -0.49802 -0.68113 251 250 250
-0.37232 -0.50045 -0.67836 251 250 250
-0.36620 -0.50287 -0.67560 251 250 250
-0.36009 -0.50529 -0.67283 251 249 249
-0.35397 -0.50771 -0.67007 251 249 251
-0.34787 -0.51013 -0.66731 251 250 252
-0.34176 -0.51255 -0.66455 251 250 252
-0.45615 -0.47545 -0.70944 250 249 249
-0.45002 -0.47788 -0.70666 250 249 250
-0.44388 -0.48031 -0.70389 250 249 251
-0.43775 -0.48273 -0.70112 250 249 251
-0.43162 -0.48516 -0.69835 251 249 251
-0.42550 -0.48758 -0.69558 250 249 251
-0.41937 -0.49001 -0.69282 250 249 249
-0.41325 -0.49243 -0.69005 250 249 248
-0.40714 -0.49485 -0.68729 250 249 249
-0.40102 -0.49727 -0.68452 250 249 250
-0.39491 -0.49968 -0.68176 251 249 250
-0.38880 -0.50210 -0.67900 251 250 250
-0.38270 -0.50452 -0.67624 251 250 251
-0.37660 -0.50693 -0.67348 251 250 251
-0.37050 -0.50934 -0.67073 251 250 251
-0.36440 -0.51176 -0.66797 251 250 251
-0.35831 -0.51417 -0.66522 251 250 251
-0.35221 -0.51658 -0.66246 251 250 251
-0.34613 -0.51899 -0.65971 251 250 251
0.63322 -0.36560 -0.65190 254 254 254
0.36434 -0.26525 -0.77707 254 254 254
0.37154 -0.26829 -0.77342 254 254 254
0.41454 -0.28641 -0.75164 254 254 254
0.42167 -0.28942 -0.74802 254 254 254
0.42879 -0.29242 -0.74441 254 254 254
0.61762 -0.37203 -0.64873 254 254 254
0.62449 -0.37493 -0.64525 254 254 254
0.63135 -0.37782 -0.64178 254 254 254
0.63820 -0.38071 -0.63831 254 254 254
0.36370 -0.27819 -0.76615 254 254 254
0.37087 -0.28121 -0.76253 254 254 254
0.37802 -0.28421 -0.75891 254 254 254
0.39943 -0.29322 -0.74808 254 254 254
0.40655 -0.29621 -0.74448 254 254 254
0.41366 -0.29920 -0.74089 254 254 254
0.42076 -0.30218 -0.73730 254 254 254
0.42785 -0.30516 -0.73371 254 254 254
0.43493 -0.30814 -0.73013 254 254 254
0.44201 -0.31111 -0.72655 254 254 254
0.44907 -0.31408 -0.72298 254 254 254
0.45612 -0.31705 -0.71942 254 254 254
0.46317 -0.32001 -0.71585 254 254 254
0.47020 -0.32296 -0.71230 254 254 254
0.47723 -0.32592 -0.70875 254 254 254
0.48424 -0.32887 -0.70520 254 254 254
0.49125 -0.33181 -0.70165 254 254 254
0.49825 -0.33475 -0.69811 254 254 254
0.50524 -0.33769 -0.69458 254 254 254
0.51222 -0.34063 -0.69105 254 254 254
0.51919 -0.34356 -0.68753 254 254 254
0.52615 -0.34648 -0.68401 254 254 254
0.53310 -0.34941 -0.68049 254 254 254
0.54004 -0.35232 -0.67698 254 254 254
0.54698 -0.35524 -0.67347 254 254 254
0.55390 -0.35815 -0.66997 254 254 254
0.56082 -0.36106 -0.66647 254 254 254
0.56773 -0.36396 -0.66298 254 254 254
0.57463 -0.36686 -0.65949 254 254 254
0.58152 -0.36976 -0.65601 254 254 254
0.58840 -0.37265 -0.65253 254 254 254
0.60899 -0.38130 -0.64212 254 254 254
0.61583 -0.38418 -0.63866 254 254 254
0.62267 -0.38706 -0.63520 254 254 254
0.62949 -0.38993 -0.63175 254 254 254
0.63631 -0.39279 -0.62830 254 254 254
0.35592 -0.28802 -0.75894 254 254 254
0.36306 -0.29101 -0.75533 254 254 254
0.37020 -0.29400 -0.75174 254 254 254
0.37732 -0.29699 -0.74814 254 254 254
0.38443 -0.29997 -0.74455 254 254 254
0.39154 -0.30295 -0.74097 254 254 254
0.39863 -0.30592 -0.73738 254 254 254
0.40572 -0.30889 -0.73381 254 254 254
0.41280 -0.31186 -0.73024 254 254 254
0.41986 -0.31482 -0.72667 254 254 254
0.42692 -0.31778 -0.72311 254 254 254
0.43397 -0.32073 -0.71955 254 254 254
0.44101 -0.32369 -0.71600 254 254 254
0.44804 -0.32663 -0.71245 254 254 254
0.45506 -0.32958 -0.70891 254 254 254
0.46207 -0.33251 -0.70537 254 254 254
0.46908 -0.33545 -0.70184 254 254 254
0.47607 -0.33838 -0.69831 254 254 254
0.48305 -0.34131 -0.69478 254 254 254
0.49003 -0.34423 -0.69126 254 254 254
0.49700 -0.34715 -0.68775 254 254 254
0.50395 -0.35007 -0.68424 254 254 254
0.51090 -0.35298 -0.68073 254 254 254
0.51784 -0.35589 -0.67723 254 254 254
0.52477 -0.35880 -0.67373 254 254 254
0.53169 -0.36170 -0.67024 254 254 254
0.53861 -0.36459 -0.66675 254 254 254
0.54551 -0.36749 -0.66327 254 254 254
0.55240 -0.37038 -0.65979 254 254 254
0.55929 -0.37326 -0.65631 254 254 254
0.56617 -0.37615 -0.65284 254 254 254
0.57303 -0.37903 -0.64937 254 254 254
0.57989 -0.38190 -0.64591 254 254 254
0.58674 -0.38477 -0.64246 254 254 254
0.60042 -0.39050 -0.63556 254 254 254
0.60724 -0.39336 -0.63211 254 254 254
0.61406 -0.39622 -0.62867 254 254 254
0.62086 -0.39907 -0.62524 254 254 254
0.62766 -0.40192 -0.62181 254 254 254
0.34821 -0.29777 -0.75178 254 254 254
0.35533 -0.30074 -0.74820 254 254 254
0.36244 -0.30371 -0.74462 254 254 254
0.36953 -0.30668 -0.74104 254 254 254
0.37663 -0.30964 -0.73747 254 254 254
0.38371 -0.31260 -0.73391 254 254 254
0.39078 -0.31556 -0.73034 254 254 254
0.39784 -0.31851 -0.72679 254 254 254
0.40489 -0.32146 -0.72323 254 254 254
0.41194 -0.32440 -0.71969 254 254 254
0.41897 -0.32735 -0.71614 254 254 254
0.42600 -0.33028 -0.71261 254 254 254
0.43302 -0.33321 -0.70907 254 254 254
0.44002 -0.33614 -0.70554 254 254 254
0.44702 -0.33907 -0.70202 254 254 254
0.45401 -0.34199 -0.69850 254 254 254
0.46099 -0.34491 -0.69498 254 254 254
0.46796 -0.34782 -0.69147 254 254 254
0.47493 -0.35073 -0.68797 254 254 254
0.48188 -0.35364 -0.68446 254 254 254
0.48882 -0.35654 -0.68097 254 254 254
0.49576 -0.35944 -0.67747 254 254 254
0.50268 -0.36233 -0.67399 254 254 254
0.50960 -0.36522 -0.67050 254 254 254
0.51651 -0.36811 -0.66702 254 254 254
0.52341 -0.37100 -0.66355 254 254 254
0.53030 -0.37388 -0.66008 254 254 254
0.53718 -0.37675 -0.65661 254 254 254
0.54405 -0.37962 -0.65315 254 254 254
0.55092 -0.38249 -0.64969 254 254 254
0.55777 -0.38536 -0.64624 254 254 254
0.56462 -0.38822 -0.64279 254 254 254
0.57146 -0.39108 -0.63935 254 254 254
0.57828 -0.39393 -0.63591 254 254 254
0.59872 -0.40247 -0.62562 254 254 254
0.60551 -0.40531 -0.62220 254 254 254
0.61230 -0.40815 -0.61878 254 254 254
0.61907 -0.41098 -0.61537 254 254 254
0.34055 -0.30744 -0.74469 254 254 254
0.34765 -0.31039 -0.74112 254 254 254
0.35474 -0.31335 -0.73756 254 254 254
0.36181 -0.31630 -0.73400 254 254 254
0.36888 -0.31924 -0.73045 254 254 254
0.37594 -0.32218 -0.72690 254 254 254
0.38299 -0.32512 -0.72336 254 254 254
0.39003 -0.32805 -0.71982 254 254 254
0.39706 -0.33098 -0.71629 254 254 254
0.40408 -0.33391 -0.71276 254 254 254
0.41109 -0.33683 -0.70923 254 254 254
0.41809 -0.33975 -0.70571 254 254 254
0.42509 -0.34267 -0.70220 254 254 254
0.43207 -0.34558 -0.69869 254 254 254
0.43905 -0.34849 -0.69518 254 254 254
0.44601 -0.35139 -0.69168 254 254 254
0.45297 -0.35429 -0.68818 254 254 254
0.45992 -0.35719 -0.68469 254 254 254
0.46686 -0.36008 -0.68120 254 254 254
0.47379 -0.36297 -0.67772 254 254 254
0.48071 -0.36585 -0.67424 254 254 254
0.48763 -0.36873 -0.67077 254 254 254
0.49453 -0.37161 -0.66730 254 254 254
0.50142 -0.37448 -0.66383 254 254 254
0.50831 -0.37735 -0.66037 254 254 254
0.51519 -0.38022 -0.65691 254 254 254
0.52206 -0.38308 -0.65346 254 254 254
0.52892 -0.38594 -0.65001 254 254 254
0.53577 -0.38880 -0.64657 254 254 254
0.54261 -0.39165 -0.64313 254 254 254
0.54944 -0.39450 -0.63969 254 254 254
0.55627 -0.39734 -0.63626 254 254 254
0.56308 -0.40018 -0.63284 254 254 254
0.56989 -0.40302 -0.62942 254 254 254
0.57669 -0.40585 -0.62600 254 254 254
0.58348 -0.40868 -0.62259 254 254 254
0.59026 -0.41151 -0.61918 254 254 254
0.59703 -0.41433 -0.61578 254 254 254
0.60380 -0.41715 -0.61238 254 254 254
0.61055 -0.41997 -0.60898 254 254 254
0.61730 -0.42278 -0.60559 254 254 254
0.32588 -0.31409 -0.74120 254 254 254
0.54798 -0.40639 -0.62979 254 254 254
0.55478 -0.40922 -0.62638 254 254 254
0.59536 -0.42608 -0.60602 254 254 254
0.60210 -0.42888 -0.60264 254 254 254
0.31131 -0.32069 -0.73773 254 254 254
0.31837 -0.32362 -0.73419 254 254 254
0.32543 -0.32654 -0.73066 254 254 254
0.33248 -0.32947 -0.72713 254 254 254
0.33952 -0.33238 -0.72361 254 254 254
0.34655 -0.33530 -0.72009 254 254 254
0.35357 -0.33821 -0.71657 254 254 254
0.36058 -0.34111 -0.71306 254 254 254
0.36758 -0.34401 -0.70956 254 254 254
0.37458 -0.34691 -0.70605 254 254 254
0.38156 -0.34981 -0.70256 254 254 254
0.38854 -0.35270 -0.69907 254 254 254
0.39551 -0.35559 -0.69558 254 254 254
0.29683 -0.32725 -0.73429 254 254 254
0.30388 -0.33017 -0.73076 254 254 254
0.31092 -0.33308 -0.72724 254 254 254
0.31796 -0.33598 -0.72373 254 254 254
0.37391 -0.35911 -0.69577 254 254 254
0.38086 -0.36198 -0.69230 254 254 254
0.28244 -0.33377 -0.73087 254 254 254
0.28948 -0.33667 -0.72736 254 254 254
0.29651 -0.33957 -0.72385 254 254 254
0.30353 -0.34246 -0.72035 254 254 254
0.31054 -0.34535 -0.71685 254 254 254
0.26816 -0.34024 -0.72747 254 254 254
0.27518 -0.34313 -0.72397 254 254 254
0.28220 -0.34602 -0.72048 254 254 254
0.28920 -0.34890 -0.71699 254 254 254
0.29620 -0.35177 -0.71351 254 254 254
0.30319 -0.35464 -0.71003 254 254 254
0.23287 -0.33803 -0.73457 254 254 254
0.23991 -0.34092 -0.73107 254 254 254
0.24694 -0.34380 -0.72758 254 254 254
0.25396 -0.34668 -0.72409 254 254 254
0.26097 -0.34955 -0.72061 254 254 254
0.26797 -0.35242 -0.71713 254 254 254
0.27497 -0.35529 -0.71366 254 254 254
0.28195 -0.35815 -0.71019 254 254 254
0.28893 -0.36101 -0.70672 254 254 254
0.29589 -0.36386 -0.70326 254 254 254
0.20474 -0.33871 -0.73815 254 254 254
0.21178 -0.34159 -0.73466 254 254 254
0.21882 -0.34446 -0.73117 254 254 254
0.22584 -0.34734 -0.72769 254 254 254
0.23285 -0.35020 -0.72421 254 254 254
0.23986 -0.35307 -0.72074 254 254 254
0.24686 -0.35593 -0.71727 254 254 254
0.25384 -0.35878 -0.71381 254 254 254
0.26082 -0.36164 -0.71035 254 254 254
0.26779 -0.36449 -0.70689 254 254 254
0.27475 -0.36733 -0.70344 254 254 254
0.28171 -0.37017 -0.69999 254 254 254
0.18376 -0.34226 -0.73824 254 254 254
0.19080 -0.34513 -0.73475 254 254 254
0.19783 -0.34799 -0.73128 254 254 254
0.20485 -0.35085 -0.72780 254 254 254
0.21186 -0.35371 -0.72433 254 254 254
0.21886 -0.35657 -0.72087 254 254 254
0.22585 -0.35942 -0.71741 254 254 254
0.23283 -0.36226 -0.71395 254 254 254
0.23981 -0.36511 -0.71050 254 254 254
0.24677 -0.36795 -0.70705 254 254 254
0.25373 -0.37078 -0.70361 254 254 254
0.26068 -0.37361 -0.70017 254 254 254
0.26761 -0.37644 -0.69674 254 254 254
0.27454 -0.37927 -0.69331 254 254 254
0.16993 -0.34865 -0.73484 254 254 254
0.17695 -0.35150 -0.73138 254 254 254
0.18397 -0.35435 -0.72791 254 254 254
0.19097 -0.35720 -0.72445 254 254 254
0.19797 -0.36005 -0.72100 254 254 254
0.20495 -0.36289 -0.71754 254 254 254
0.21193 -0.36572 -0.71410 254 254 254
0.21890 -0.36856 -0.71066 254 254 254
0.22586 -0.37139 -0.70722 254 254 254
0.23281 -0.37421 -0.70378 254 254 254
0.23975 -0.37704 -0.70035 254 254 254
0.24669 -0.37986 -0.69693 254 254 254
0.25361 -0.38267 -0.69351 254 254 254
0.26053 -0.38548 -0.69009 254 254 254
0.01412 -0.29738 -0.80152 254 254 254
0.02131 -0.30030 -0.79797 254 254 254
0.02849 -0.30321 -0.79443 254 254 254
0.03566 -0.30612 -0.79090 254 254 254
0.04283 -0.30902 -0.78736 254 254 254
0.04998 -0.31192 -0.78384 254 254 254
0.05712 -0.31482 -0.78032 254 254 254
0.06426 -0.31771 -0.77680 254 254 254
0.07138 -0.32060 -0.77329 254 254 254
0.07850 -0.32349 -0.76978 254 254 254
0.08561 -0.32637 -0.76627 254 254 254
0.09271 -0.32925 -0.76277 254 254 254
0.09980 -0.33212 -0.75928 254 254 254
0.10688 -0.33500 -0.75579 254 254 254
0.11395 -0.33786 -0.75230 254 254 254
0.12101 -0.34073 -0.74882 254 254 254
0.12806 -0.34359 -0.74534 254 254 254
0.13511 -0.34644 -0.74187 254 254 254
0.14214 -0.34930 -0.73840 254 254 254
0.14917 -0.35215 -0.73494 254 254 254
0.15618 -0.35499 -0.73148 254 254 254
0.16319 -0.35783 -0.72802 254 254 254
0.17019 -0.36067 -0.72457 254 254 254
0.17718 -0.36351 -0.72112 254 254 254
0.18416 -0.36634 -0.71768 254 254 254
0.19114 -0.36917 -0.71424 254 254 254
0.19810 -0.37199 -0.71081 254 254 254
0.20506 -0.37481 -0.70738 254 254 254
0.21200 -0.37763 -0.70396 254 254 254
0.21894 -0.38044 -0.70054 254 254 254
0.22587 -0.38325 -0.69712 254 254 254
0.23279 -0.38606 -0.69371 254 254 254
0.23970 -0.38886 -0.69030 254 254 254
0.24661 -0.39166 -0.68690 254 254 254
0.00793 -0.30686 -0.79437 254 254 254
0.01510 -0.30976 -0.79084 254 254 254
0.02226 -0.31265 -0.78732 254 254 254
0.02940 -0.31554 -0.78380 254 254 254
0.03654 -0.31843 -0.78029 254 254 254
0.04367 -0.32131 -0.77678 254 254 254
0.05079 -0.32419 -0.77328 254 254 254
0.05790 -0.32707 -0.76978 254 254 254
0.06500 -0.32994 -0.76628 254 254 254
0.07210 -0.33281 -0.76279 254 254 254
0.07918 -0.33568 -0.75930 254 254 254
0.08625 -0.33854 -0.75582 254 254 254
0.09332 -0.34139 -0.75235 254 254 254
0.10038 -0.34425 -0.74887 254 254 254
0.10742 -0.34710 -0.74541 254 254 254
0.11446 -0.34995 -0.74194 254 254 254
0.12149 -0.35279 -0.73848 254 254 254
0.12851 -0.35563 -0.73503 254 254 254
0.13553 -0.35846 -0.73158 254 254 254
0.14253 -0.36130 -0.72813 254 254 254
0.14952 -0.36413 -0.72469 254 254 254
0.15651 -0.36695 -0.72125 254 254 254
0.16349 -0.36977 -0.71782 254 254 254
0.17045 -0.37259 -0.71439 254 254 254
0.17741 -0.37540 -0.71096 254 254 254
0.18436 -0.37822 -0.70754 254 254 254
0.19130 -0.38102 -0.70413 254 254 254
0.19824 -0.38383 -0.70071 254 254 254
0.20516 -0.38663 -0.69731 254 254 254
0.21208 -0.38942 -0.69390 254 254 254
0.21898 -0.39222 -0.69050 254 254 254
0.22588 -0.39501 -0.68711 254 254 254
0.23277 -0.39779 -0.68372 254 254 254
0.00179 -0.31626 -0.78727 254 254 254
0.00893 -0.31914 -0.78376 254 254 254
0.01607 -0.32202 -0.78026 254 254 254
0.02319 -0.32489 -0.77676 254 254 254
0.03030 -0.32776 -0.77327 254 254 254
0.03741 -0.33063 -0.76978 254 254 254
0.04450 -0.33349 -0.76629 254 254 254
0.05159 -0.33635 -0.76281 254 254 254
0.05867 -0.33921 -0.75933 254 254 254
0.06574 -0.34206 -0.75586 254 254 254
0.07280 -0.34491 -0.75239 254 254 254
0.07985 -0.34775 -0.74893 254 254 254
0.08689 -0.35059 -0.74547 254 254 254
0.09393 -0.35343 -0.74201 254 254 254
0.10095 -0.35626 -0.73856 254 254 254
0.10797 -0.35909 -0.73512 254 254 254
0.11497 -0.36192 -0.73168 254 254 254
0.12197 -0.36474 -0.72824 254 254 254
0.12896 -0.36756 -0.72480 254 254 254
0.13594 -0.37038 -0.72138 254 254 254
0.14291 -0.37319 -0.71795 254 254 254
0.14988 -0.37600 -0.71453 254 254 254
0.15683 -0.37880 -0.71112 254 254 254
0.16377 -0.38160 -0.70770 254 254 254
0.17071 -0.38440 -0.70430 254 254 254
0.17764 -0.38720 -0.70089 254 254 254
0.18456 -0.38999 -0.69749 254 254 254
0.19147 -0.39278 -0.69410 254 254 254
0.19837 -0.39556 -0.69071 254 254 254
0.20526 -0.39834 -0.68732 254 254 254
0.21215 -0.40112 -0.68394 254 254 254
-0.01143 -0.32272 -0.78373 254 254 254
-0.00430 -0.32559 -0.78023 254 254 254
0.00282 -0.32846 -0.77674 254 254 254
0.00992 -0.33132 -0.77326 254 254 254
0.01702 -0.33417 -0.76978 254 254 254
0.02411 -0.33702 -0.76630 254 254 254
0.03120 -0.33987 -0.76283 254 254 254
0.03827 -0.34272 -0.75936 254 254 254
0.04533 -0.34556 -0.75590 254 254 254
0.05239 -0.34840 -0.75244 254 254 254
0.05943 -0.35123 -0.74898 254 254 254
0.06647 -0.35407 -0.74553 254 254 254
0.07350 -0.35689 -0.74209 254 254 254
0.08052 -0.35972 -0.73864 254 254 254
0.08753 -0.36254 -0.73521 254 254 254
0.09453 -0.36535 -0.73177 254 254 254
0.10152 -0.36817 -0.72835 254 254 254
0.10851 -0.37098 -0.72492 254 254 254
0.11548 -0.37378 -0.72150 254 254 254
0.12245 -0.37659 -0.71808 254 254 254
0.12940 -0.37939 -0.71467 254 254 254
0.13635 -0.38218 -0.71127 254 254 254
0.14329 -0.38497 -0.70786 254 254 254
0.15023 -0.38776 -0.70446 254 254 254
0.15715 -0.39055 -0.70107 254 254 254
0.16406 -0.39333 -0.69768 254 254 254
0.17097 -0.39611 -0.69429 254 254 254
0.17786 -0.39888 -0.69091 254 254 254
0.18475 -0.40165 -0.68754 254 254 254
-0.02456 -0.32914 -0.78020 254 254 254
-0.01745 -0.33200 -0.77672 254 254 254
-0.01035 -0.33485 -0.77325 254 254 254
-0.00325 -0.33770 -0.76978 254 254 254
0.00383 -0.34054 -0.76631 254 254 254
0.01091 -0.34338 -0.76284 254 254 254
0.01797 -0.34621 -0.75939 254 254 254
0.02503 -0.34905 -0.75593 254 254 254
0.03208 -0.35188 -0.75248 254 254 254
0.03912 -0.35470 -0.74904 254 254 254
0.04615 -0.35752 -0.74559 254 254 254
0.05318 -0.36034 -0.74216 254 254 254
0.06019 -0.36316 -0.73872 254 254 254
0.06719 -0.36597 -0.73530 254 254 254
0.07419 -0.36877 -0.73187 254 254 254
0.08118 -0.37158 -0.72845 254 254 254
0.08816 -0.37438 -0.72504 254 254 254
0.09513 -0.37717 -0.72163 254 254 254
0.10209 -0.37997 -0.71822 254 254 254
0.10904 -0.38276 -0.71482 254 254 254
0.11598 -0.38554 -0.71142 254 254 254
0.12292 -0.38833 -0.70802 254 254 254
0.12984 -0.39111 -0.70463 254 254 254
0.13676 -0.39388 -0.70125 254 254 254
0.14367 -0.39666 -0.69787 254 254 254
0.15057 -0.39942 -0.69449 254 254 254
0.15746 -0.40219 -0.69112 254 254 254
-0.03761 -0.33552 -0.77671 253 253 254
-0.03052 -0.33836 -0.77324 254 254 254
-0.02343 -0.34120 -0.76978 254 254 254
-0.01635 -0.34403 -0.76632 254 254 254
-0.00928 -0.34686 -0.76286 254 254 254
-0.00222 -0.34969 -0.75941 254 254 254
0.00484 -0.35251 -0.75597 254 254 254
0.01188 -0.35533 -0.75253 254 254 254
0.01891 -0.35815 -0.74909 254 254 254
0.02594 -0.36096 -0.74566 254 254 254
0.03296 -0.36377 -0.74223 254 254 254
0.03997 -0.36657 -0.73880 254 254 254
0.04697 -0.36938 -0.73538 254 254 254
0.05396 -0.37217 -0.73197 254 254 254
0.06094 -0.37497 -0.72856 254 254 254
0.06791 -0.37776 -0.72515 254 254 254
0.07488 -0.38055 -0.72175 254 254 254
0.08183 -0.38333 -0.71835 254 254 254
0.08878 -0.38611 -0.71496 254 254 254
0.09572 -0.38889 -0.71157 254 254 254
0.10265 -0.39166 -0.70818 254 254 254
0.10957 -0.39443 -0.70480 254 254 254
0.11648 -0.39720 -0.70142 254 254 254
0.12339 -0.39996 -0.69805 254 254 254
0.13028 -0.40272 -0.69468 254 254 254
0.13717 -0.40548 -0.69132 254 254 254
-0.05767 -0.33903 -0.77669 253 253 253
-0.05058 -0.34186 -0.77323 253 253 253
-0.04350 -0.34469 -0.76978 253 253 253
-0.03642 -0.34751 -0.76633 254 254 254
-0.02936 -0.35033 -0.76288 254 254 254
-0.02230 -0.35315 -0.75944 254 254 254
-0.01525 -0.35596 -0.75600 254 254 254
-0.00822 -0.35877 -0.75257 254 254 254
-0.00119 -0.36158 -0.74914 254 254 254
0.00583 -0.36438 -0.74572 254 254 254
0.01284 -0.36718 -0.74230 254 254 254
0.01985 -0.36998 -0.73888 254 254 254
0.02684 -0.37277 -0.73547 254 254 254
0.03383 -0.37556 -0.73207 254 254 254
0.04080 -0.37834 -0.72866 254 254 254
0.04777 -0.38113 -0.72527 254 254 254
0.05473 -0.38390 -0.72187 254 254 254
0.06168 -0.38668 -0.71848 254 254 254
0.06862 -0.38945 -0.71510 254 254 254
0.07556 -0.39222 -0.71172 254 254 254
0.08248 -0.39498 -0.70834 254 254 254
0.08940 -0.39774 -0.70497 254 254 254
0.09630 -0.40050 -0.70160 254 254 254
0.10320 -0.40325 -0.69823 254 254 254
0.11009 -0.40601 -0.69487 254 254 254
0.11697 -0.40875 -0.69152 254 254 254
0.12385 -0.41150 -0.68817 254 254 254
-0.07762 -0.34252 -0.77667 253 253 253
-0.07054 -0.34534 -0.77322 253 253 253
-0.06346 -0.34816 -0.76978 253 253 253
-0.05639 -0.35097 -0.76633 253 253 253
-0.04933 -0.35378 -0.76290 253 253 253
-0.04228 -0.35659 -0.75947 253 253 254
-0.03524 -0.35939 -0.75604 254 254 254
-0.02821 -0.36219 -0.75261 254 254 254
-0.02119 -0.36499 -0.74920 254 254 254
-0.01417 -0.36779 -0.74578 254 254 254
-0.00717 -0.37058 -0.74237 254 254 254
-0.00017 -0.37336 -0.73896 254 254 254
0.00682 -0.37614 -0.73556 254 254 254
0.01380 -0.37892 -0.73216 254 254 254
0.02077 -0.38170 -0.72877 254 254 254
0.02773 -0.38447 -0.72538 254 254 254
0.03469 -0.38724 -0.72200 254 254 254
0.04163 -0.39001 -0.71861 254 254 254
0.04857 -0.39277 -0.71524 254 254 254
0.05550 -0.39553 -0.71186 254 254 254
0.06242 -0.39828 -0.70850 254 254 254
0.06933 -0.40104 -0.70513 254 254 254
0.07623 -0.40378 -0.70177 254 254 254
0.08312 -0.40653 -0.69842 254 254 254
0.09001 -0.40927 -0.69506 254 254 254
0.09689 -0.41201 -0.69172 254 254 254
0.10375 -0.41474 -0.68837 254 254 254
0.27939 -0.48468 -0.60287 254 254 254
0.28603 -0.48733 -0.59964 254 254 254
0.29267 -0.48997 -0.59641 254 254 254
-0.10456 -0.34317 -0.78010 252 252 252
-0.09747 -0.34599 -0.77665 252 252 253
-0.09039 -0.34880 -0.77321 253 253 253
