ply
format ascii 1.0
element face 0
property list uchar int vertex_indices
element vertex 1288
property float x
property float y
property float z
property uchar diffuse_red
property uchar diffuse_green
property uchar diffuse_blue
end_header
-4.16163 -4.66863 1.90784 127 120 102
-4.16974 -4.68366 1.91344 127 122 105
-4.17787 -4.69874 1.91905 128 122 103
-4.07283 -4.51843 1.83642 126 115 94
-4.08064 -4.53294 1.84179 127 115 96
-4.08848 -4.54751 1.84719 125 117 98
-4.09635 -4.56213 1.85260 124 119 98
-4.10424 -4.57680 1.85803 124 121 99
-4.11217 -4.59152 1.86348 123 121 97
-4.12012 -4.60630 1.86895 125 121 100
-4.12810 -4.62113 1.87444 126 121 103
-4.13611 -4.63601 1.87995 127 121 102
-4.14414 -4.65094 1.88548 127 121 95
-4.04793 -4.48671 1.80916 123 114 95
-4.05568 -4.50113 1.81447 124 117 91
-4.06346 -4.51561 1.81980 126 119 88
-4.07126 -4.53013 1.82516 126 119 91
-4.07910 -4.54471 1.83053 127 118 98
-4.08696 -4.55934 1.83591 125 120 99
-4.09484 -4.57402 1.84132 125 121 98
-4.10276 -4.58876 1.84675 125 121 100
-4.11070 -4.60355 1.85220 124 120 98
-4.11868 -4.61839 1.85766 125 120 100
-4.12668 -4.63328 1.86315 127 121 102
-4.02316 -4.45514 1.78203 122 118 94
-4.03085 -4.46947 1.78728 122 118 98
-4.03856 -4.48386 1.79255 123 118 101
-4.04630 -4.49829 1.79784 126 118 99
-4.05407 -4.51278 1.80315 126 119 96
-4.06187 -4.52732 1.80848 125 120 91
-4.06969 -4.54191 1.81383 125 120 93
-4.07754 -4.55655 1.81919 125 120 96
-4.08542 -4.57124 1.82458 123 121 95
-4.09333 -4.58599 1.82998 123 121 96
-4.10127 -4.60079 1.83540 125 121 99
-4.10923 -4.61564 1.84085 124 121 100
-3.99091 -4.40952 1.74986 120 114 96
-3.99850 -4.42372 1.75503 121 116 100
-4.00613 -4.43796 1.76022 123 116 101
-4.01378 -4.45226 1.76543 124 119 98
-4.02146 -4.46660 1.77066 124 121 96
-4.02917 -4.48100 1.77591 124 121 98
-4.03690 -4.49544 1.78118 125 120 100
-4.04466 -4.50994 1.78646 127 119 97
-4.05245 -4.52449 1.79177 127 119 93
-4.06027 -4.53909 1.79709 125 120 90
-4.06811 -4.55375 1.80243 123 119 92
-4.07598 -4.56845 1.80779 124 119 90
-4.08388 -4.58321 1.81317 124 120 90
-4.09181 -4.59802 1.81857 124 120 94
-4.09977 -4.61289 1.82399 125 120 98
-4.00438 -4.44937 1.74880 124 118 100
-4.01205 -4.46373 1.75401 123 120 105
-4.01975 -4.47813 1.75923 124 121 101
-4.02748 -4.49259 1.76447 125 121 96
-4.03523 -4.50710 1.76974 125 119 96
-4.04301 -4.52166 1.77502 125 118 97
-4.05082 -4.53628 1.78031 125 118 100
-4.05865 -4.55094 1.78563 124 119 99
-4.06652 -4.56566 1.79097 123 119 94
-4.07441 -4.58043 1.79633 124 119 92
-3.93462 -4.33333 1.69132 122 113 86
-3.94207 -4.34731 1.69636 120 114 88
-3.94954 -4.36132 1.70142 119 114 93
-3.95705 -4.37539 1.70649 120 116 94
-3.96458 -4.38951 1.71158 122 116 93
-3.97213 -4.40368 1.71669 122 117 94
-3.97972 -4.41789 1.72182 122 119 93
-3.98732 -4.43216 1.72697 123 120 89
-3.99496 -4.44648 1.73213 125 119 87
-4.00262 -4.46084 1.73731 125 119 94
-4.01031 -4.47526 1.74251 123 120 101
-4.01803 -4.48973 1.74773 124 121 98
-4.02578 -4.50425 1.75297 126 121 92
-4.03355 -4.51883 1.75823 126 119 92
-4.04135 -4.53345 1.76350 126 117 96
-4.04918 -4.54813 1.76880 124 118 102
-4.05703 -4.56286 1.77411 123 118 102
-4.06492 -4.57764 1.77944 124 119 96
-3.90306 -4.28870 1.65986 121 110 81
-3.91043 -4.30253 1.66482 120 113 86
-3.91782 -4.31642 1.66980 121 113 87
-3.92524 -4.33035 1.67480 123 116 89
-3.93268 -4.34433 1.67982 123 117 86
-3.94015 -4.35836 1.68485 122 116 86
-3.94764 -4.37244 1.68990 121 114 90
-3.95517 -4.38657 1.69497 122 115 90
-3.96271 -4.40074 1.70005 124 116 91
-3.97029 -4.41497 1.70516 124 116 90
-3.97789 -4.42925 1.71028 123 118 86
-3.98552 -4.44358 1.71542 124 120 90
-3.99317 -4.45796 1.72058 125 120 95
-4.00086 -4.47238 1.72576 125 120 101
-4.00857 -4.48687 1.73095 124 121 104
-4.01630 -4.50140 1.73617 124 121 97
-4.02407 -4.51598 1.74140 125 120 92
-3.87177 -4.24443 1.62865 116 113 84
-3.87905 -4.25813 1.63354 120 114 79
-3.88636 -4.27188 1.63844 121 114 86
-3.89369 -4.28568 1.64337 122 115 86
-3.90105 -4.29952 1.64831 122 115 87
-3.90843 -4.31342 1.65327 121 116 94
-3.91584 -4.32736 1.65824 120 116 90
-3.92327 -4.34135 1.66323 123 117 89
-3.93073 -4.35539 1.66824 125 116 90
-3.93822 -4.36948 1.67327 124 116 89
-3.94573 -4.38362 1.67832 123 115 92
-3.95327 -4.39780 1.68338 122 116 93
-3.96084 -4.41204 1.68846 123 116 94
-3.96843 -4.42633 1.69356 124 116 93
-3.97605 -4.44067 1.69867 122 119 90
-3.98370 -4.45506 1.70381 124 120 93
-3.99138 -4.46950 1.70896 125 120 97
-3.99908 -4.48399 1.71413 125 120 102
-4.00681 -4.49854 1.71932 125 120 104
-3.84792 -4.21408 1.60251 120 109 81
-3.85515 -4.22770 1.60734 123 111 79
-3.86967 -4.25508 1.61706 121 115 99
-3.87697 -4.26884 1.62194 121 117 94
-3.88429 -4.28265 1.62684 120 116 95
-3.89164 -4.29650 1.63176 121 117 92
-3.89902 -4.31040 1.63669 124 117 90
-3.90642 -4.32436 1.64165 123 117 88
-3.91384 -4.33836 1.64661 122 118 88
-3.92130 -4.35241 1.65160 123 118 91
-3.92878 -4.36651 1.65660 124 116 96
-3.93628 -4.38066 1.66163 124 116 94
-3.94381 -4.39486 1.66667 122 116 94
-3.95137 -4.40911 1.67172 120 115 100
-3.95896 -4.42341 1.67680 122 116 98
-3.96657 -4.43776 1.68189 123 118 95
-3.97421 -4.45216 1.68700 122 119 93
-3.98187 -4.46661 1.69213 123 119 90
-3.98957 -4.48111 1.69728 123 120 93
-3.83136 -4.19742 1.58127 120 114 86
-3.83855 -4.21100 1.58606 122 115 89
-3.84576 -4.22462 1.59087 122 114 88
-3.85300 -4.23830 1.59570 122 116 86
-3.86027 -4.25202 1.60054 122 115 91
-3.86756 -4.26579 1.60540 122 116 98
-3.87488 -4.27961 1.61028 122 117 96
-3.88222 -4.29347 1.61517 123 115 94
-3.88958 -4.30739 1.62008 122 116 93
-3.89698 -4.32135 1.62501 124 116 96
-3.90439 -4.33536 1.62996 123 117 91
-3.91184 -4.34942 1.63492 121 118 89
-3.91931 -4.36353 1.63990 122 118 91
-3.92681 -4.37769 1.64490 125 117 94
-3.93433 -4.39190 1.64991 125 116 89
-3.94188 -4.40617 1.65495 123 115 84
-3.94946 -4.42048 1.66000 122 115 92
-3.95706 -4.43484 1.66507 123 117 93
-3.96469 -4.44925 1.67015 124 120 92
-3.97235 -4.46371 1.67526 122 121 92
-3.78643 -4.12706 1.54120 110 108 83
-3.79349 -4.14042 1.54589 114 111 81
-3.80057 -4.15382 1.55060 119 112 83
-3.80768 -4.16727 1.55532 120 112 87
-3.81481 -4.18077 1.56006 122 111 84
-3.82197 -4.19431 1.56481 122 114 85
-3.82915 -4.20790 1.56958 122 116 90
-3.83636 -4.22154 1.57437 124 116 98
-3.84359 -4.23523 1.57917 123 116 92
-3.85085 -4.24896 1.58399 124 116 91
-3.85813 -4.26274 1.58883 122 115 94
-3.86544 -4.27657 1.59368 121 117 101
-3.87277 -4.29044 1.59855 122 116 97
-3.88013 -4.30437 1.60344 125 116 92
-3.88751 -4.31834 1.60834 122 115 92
-3.89492 -4.33236 1.61326 122 115 95
-3.90236 -4.34643 1.61820 122 115 91
-3.90982 -4.36055 1.62316 123 116 90
-3.91731 -4.37472 1.62813 124 117 92
-3.92483 -4.38895 1.63312 127 118 93
-3.93237 -4.40322 1.63813 127 119 90
-3.93994 -4.41754 1.64316 125 118 87
-3.94753 -4.43191 1.64821 124 117 90
-3.95515 -4.44633 1.65327 125 118 92
-3.76303 -4.09730 1.51554 115 108 81
-3.77003 -4.11058 1.52017 116 110 81
-3.77706 -4.12390 1.52482 118 112 85
-3.78411 -4.13727 1.52949 122 113 83
-3.79119 -4.15068 1.53417 119 114 87
-3.79829 -4.16414 1.53887 120 114 94
-3.80541 -4.17765 1.54358 121 114 84
-3.81256 -4.19120 1.54831 123 114 79
-3.81973 -4.20480 1.55306 123 114 88
-3.82693 -4.21845 1.55782 122 116 93
-3.83416 -4.23215 1.56260 122 115 96
-3.84140 -4.24589 1.56740 122 117 90
-3.84868 -4.25968 1.57221 124 117 89
-3.85598 -4.27352 1.57704 122 116 92
-3.86330 -4.28740 1.58189 118 118 95
-3.87065 -4.30134 1.58675 120 118 90
-3.87803 -4.31532 1.59163 123 118 86
-3.88543 -4.32935 1.59653 123 116 85
-3.89286 -4.34343 1.60145 125 116 90
-3.90031 -4.35757 1.60638 124 116 91
-3.90779 -4.37175 1.61133 125 116 92
-3.91530 -4.38598 1.61630 124 116 94
-3.92283 -4.40026 1.62128 125 117 95
-3.93039 -4.41459 1.62628 125 118 94
-4.17885 -4.88561 1.79068 127 126 100
-3.73974 -4.06768 1.48999 116 108 82
-3.74669 -4.08088 1.49457 117 110 81
-3.75366 -4.09412 1.49917 118 111 82
-3.76065 -4.10741 1.50378 120 112 87
-3.76767 -4.12074 1.50841 119 112 84
-3.77471 -4.13412 1.51305 119 112 82
-3.78178 -4.14754 1.51771 119 114 84
-3.78887 -4.16101 1.52238 120 115 87
-3.79599 -4.17452 1.52707 120 114 90
-3.80313 -4.18809 1.53178 119 113 87
-3.81030 -4.20170 1.53650 123 114 86
-3.81749 -4.21535 1.54124 121 115 86
-3.82470 -4.22906 1.54600 122 115 88
-3.83194 -4.24281 1.55077 123 115 89
-3.83921 -4.25661 1.55556 121 117 83
-3.84650 -4.27046 1.56037 123 116 86
-3.85381 -4.28435 1.56519 123 116 85
-3.86116 -4.29830 1.57003 123 116 89
-3.86852 -4.31229 1.57489 123 116 87
-3.87592 -4.32634 1.57976 124 117 86
-3.88334 -4.34043 1.58465 124 118 87
-3.89078 -4.35457 1.58956 124 118 91
-3.89826 -4.36876 1.59449 124 118 91
-3.90575 -4.38301 1.59943 124 115 87
-3.91328 -4.39730 1.60439 126 117 94
-4.14375 -4.83504 1.75632 130 125 95
-4.15214 -4.85099 1.76185 128 125 97
-4.16057 -4.86699 1.76741 128 127 94
-4.16902 -4.88305 1.77298 131 127 91
-4.17751 -4.89918 1.77858 129 126 97
-4.18603 -4.91536 1.78420 132 126 97
-3.73036 -4.06448 1.47363 120 112 85
-3.73730 -4.07768 1.47819 122 113 80
-3.74426 -4.09093 1.48276 121 112 80
-3.75125 -4.10423 1.48735 122 112 88
-3.75826 -4.11757 1.49195 123 112 90
-3.76530 -4.13095 1.49657 118 112 81
-3.77236 -4.14439 1.50121 119 114 75
-3.77944 -4.15787 1.50586 117 116 84
-3.78655 -4.17139 1.51053 119 116 89
-3.79368 -4.18496 1.51521 120 115 86
-3.80084 -4.19858 1.51991 121 113 85
-3.80802 -4.21225 1.52463 125 114 95
-3.81522 -4.22596 1.52936 120 114 87
-3.82246 -4.23973 1.53411 121 115 83
-3.82971 -4.25354 1.53888 124 115 88
-3.83700 -4.26739 1.54366 123 118 85
-3.84430 -4.28130 1.54846 123 117 86
-3.85164 -4.29526 1.55327 123 115 88
-3.85900 -4.30926 1.55811 124 115 94
-3.86638 -4.32331 1.56296 123 116 92
-3.87379 -4.33742 1.56782 124 117 93
-3.88123 -4.35157 1.57271 124 118 96
-3.88869 -4.36577 1.57761 126 119 97
-4.13393 -4.83244 1.73866 130 126 98
-4.14231 -4.84840 1.74416 130 125 98
-4.15073 -4.86441 1.74969 129 125 97
-4.15918 -4.88049 1.75524 130 126 96
-4.16766 -4.89663 1.76081 132 127 93
-4.17617 -4.91283 1.76640 132 127 99
-4.18472 -4.92909 1.77201 132 127 99
-3.64626 -3.91883 1.40836 121 126 105
-3.65294 -3.93156 1.41273 112 113 94
-3.65964 -3.94433 1.41711 108 104 89
-3.66636 -3.95715 1.42151 107 101 80
-3.67311 -3.97001 1.42592 108 102 70
-3.67987 -3.98292 1.43035 110 105 69
-3.68666 -3.99586 1.43479 114 107 76
-3.69348 -4.00885 1.43925 118 108 80
-3.70032 -4.02189 1.44372 119 111 84
-3.70718 -4.03497 1.44821 118 112 85
-3.71406 -4.04809 1.45272 118 113 85
-3.72097 -4.06126 1.45723 117 115 84
-3.72790 -4.07448 1.46177 117 116 86
-3.73485 -4.08773 1.46632 120 117 80
-3.74183 -4.10104 1.47088 121 114 79
-3.74883 -4.11439 1.47546 120 111 88
-3.75586 -4.12779 1.48006 118 112 89
-3.76291 -4.14123 1.48467 119 114 82
-3.76998 -4.15472 1.48930 121 117 79
-3.77708 -4.16825 1.49394 121 116 87
-3.78421 -4.18183 1.49860 122 117 97
-3.79136 -4.19546 1.50328 120 118 91
-3.79853 -4.20914 1.50797 121 115 89
-3.80573 -4.22286 1.51268 121 115 92
-3.81295 -4.23663 1.51741 122 115 88
-3.82020 -4.25045 1.52215 123 118 85
-3.82747 -4.26432 1.52691 126 117 88
-3.83477 -4.27824 1.53168 123 117 84
-3.84210 -4.29221 1.53648 123 117 76
-3.84945 -4.30622 1.54129 124 117 87
-3.85683 -4.32028 1.54611 126 118 92
-3.86423 -4.33440 1.55095 125 118 91
-3.87166 -4.34856 1.55581 125 119 97
-3.87911 -4.36278 1.56069 126 122 99
-4.12408 -4.82983 1.72095 131 126 94
-4.13246 -4.84580 1.72643 131 126 100
-4.14087 -4.86183 1.73193 131 125 98
-4.14931 -4.87792 1.73745 130 127 95
-4.15778 -4.89408 1.74299 133 127 105
-4.16629 -4.91029 1.74856 132 128 102
-4.17482 -4.92657 1.75414 131 128 105
-4.18339 -4.94290 1.75975 131 129 104
-3.65030 -3.94104 1.40088 112 105 72
-3.65701 -3.95386 1.40526 114 107 80
-3.66375 -3.96673 1.40965 116 109 78
-3.67051 -3.97964 1.41406 119 112 75
-3.67729 -3.99260 1.41848 119 113 79
-3.68410 -4.00560 1.42291 120 112 87
-3.69092 -4.01864 1.42736 121 111 88
-3.69778 -4.03173 1.43182 120 110 86
-3.70465 -4.04486 1.43631 119 112 85
-3.71155 -4.05804 1.44080 117 114 80
-3.71847 -4.07126 1.44531 117 114 79
-3.72542 -4.08453 1.44984 119 116 84
-3.73239 -4.09785 1.45438 121 116 84
-3.73938 -4.11120 1.45894 122 114 86
-3.74640 -4.12461 1.46351 120 113 90
-3.75344 -4.13806 1.46810 117 115 91
-3.76051 -4.15156 1.47270 119 116 84
-3.76760 -4.16510 1.47732 122 116 78
-3.77471 -4.17870 1.48196 122 114 79
-3.78185 -4.19233 1.48661 123 114 94
-3.78902 -4.20602 1.49128 120 116 93
-3.79621 -4.21975 1.49597 120 115 89
-3.80342 -4.23354 1.50067 122 114 88
-3.81066 -4.24737 1.50539 124 116 90
-3.81793 -4.26124 1.51012 123 117 87
-3.82522 -4.27517 1.51487 123 118 85
-3.83254 -4.28915 1.51964 122 117 89
-3.83988 -4.30317 1.52443 125 117 91
-3.84725 -4.31725 1.52923 127 120 99
-3.85464 -4.33137 1.53405 128 123 102
-4.12258 -4.84320 1.70865 131 126 102
-4.13098 -4.85924 1.71413 132 125 99
-4.13942 -4.87535 1.71962 133 124 97
-4.14788 -4.89152 1.72514 130 126 98
-4.15638 -4.90775 1.73067 133 128 109
-4.16490 -4.92404 1.73623 132 128 103
-4.17346 -4.94039 1.74181 131 128 103
-3.63425 -3.92494 1.38028 113 108 79
-3.64094 -3.93773 1.38462 115 110 76
-3.64764 -3.95056 1.38897 116 111 78
-3.65437 -3.96344 1.39334 117 111 80
-3.66112 -3.97636 1.39772 118 112 83
-3.66790 -3.98933 1.40212 116 113 83
-3.67469 -4.00233 1.40653 115 114 85
-3.68151 -4.01539 1.41096 116 114 89
-3.68836 -4.02848 1.41540 118 112 88
-3.69522 -4.04163 1.41986 120 111 87
-3.70211 -4.05481 1.42433 121 112 88
-3.70903 -4.06804 1.42882 119 114 85
-3.71596 -4.08132 1.43332 118 115 83
-3.72292 -4.09464 1.43784 120 115 85
-3.72991 -4.10801 1.44237 121 114 86
-3.73692 -4.12143 1.44692 121 113 91
-3.74395 -4.13489 1.45149 121 114 95
-3.75101 -4.14840 1.45607 121 115 99
-3.75809 -4.16195 1.46067 123 114 90
-3.76520 -4.17555 1.46528 122 116 87
-3.77233 -4.18920 1.46991 120 114 85
-3.77949 -4.20290 1.47456 124 114 95
-3.78667 -4.21664 1.47922 124 115 100
-3.79387 -4.23043 1.48389 121 113 92
-3.80111 -4.24427 1.48859 122 116 93
-3.80836 -4.25816 1.49330 125 118 94
-3.81565 -4.27210 1.49803 123 120 93
-3.82295 -4.28608 1.50277 126 123 89
-3.83029 -4.30012 1.50753 127 123 97
-3.83765 -4.31421 1.51231 131 126 108
-4.08770 -4.79277 1.67461 129 125 97
-4.09600 -4.80865 1.68000 128 125 98
-4.10432 -4.82459 1.68541 128 127 100
-4.11268 -4.84059 1.69083 126 128 103
-4.12108 -4.85665 1.69628 131 127 107
-4.12950 -4.87277 1.70175 132 126 99
-4.13795 -4.88895 1.70724 134 125 100
-4.14644 -4.90520 1.71275 130 126 102
-3.60499 -3.88348 1.35115 115 108 81
-3.61160 -3.89615 1.35542 115 106 77
-3.61823 -3.90886 1.35971 115 110 81
-3.62488 -3.92162 1.36401 115 112 83
-3.63156 -3.93442 1.36832 115 111 87
-3.63825 -3.94726 1.37265 118 112 88
-3.64497 -3.96014 1.37700 119 112 83
-3.65172 -3.97307 1.38136 118 112 79
-3.65848 -3.98605 1.38573 119 112 77
-3.66527 -3.99906 1.39012 118 112 81
-3.67208 -4.01212 1.39452 118 112 88
-3.67892 -4.02523 1.39894 117 112 89
-3.68577 -4.03838 1.40338 119 114 85
-3.69265 -4.05158 1.40783 120 113 85
-3.69956 -4.06482 1.41229 119 113 87
-3.70649 -4.07810 1.41677 117 115 85
-3.71344 -4.09144 1.42127 120 117 84
-3.72042 -4.10481 1.42578 121 116 84
-3.72742 -4.11824 1.43030 122 113 80
-3.73444 -4.13171 1.43484 121 114 85
-3.74149 -4.14522 1.43940 122 116 84
-3.74857 -4.15879 1.44397 122 116 91
-3.75566 -4.17240 1.44856 125 113 88
-3.76279 -4.18606 1.45317 123 115 91
-3.76993 -4.19976 1.45779 119 114 92
-3.77711 -4.21352 1.46243 124 114 95
-3.78430 -4.22732 1.46708 124 118 91
-3.79153 -4.24117 1.47175 123 118 81
-3.79878 -4.25507 1.47644 125 122 95
-3.80605 -4.26902 1.48114 128 123 103
-3.81335 -4.28301 1.48586 127 125 97
-4.05312 -4.74278 1.64088 127 123 97
-4.06132 -4.75850 1.64618 130 124 100
-4.06954 -4.77428 1.65149 129 125 101
-4.07780 -4.79011 1.65683 133 125 105
-4.08609 -4.80601 1.66219 131 125 101
-4.09441 -4.82196 1.66757 128 126 101
-4.10276 -4.83798 1.67297 128 127 102
-4.11114 -4.85405 1.67839 127 129 100
-4.11956 -4.87019 1.68383 130 127 103
-4.12801 -4.88638 1.68929 131 126 98
-4.13648 -4.90264 1.69477 133 126 99
-3.60222 -3.89280 1.33916 119 112 89
-3.60885 -3.90553 1.34342 118 109 84
-3.61549 -3.91829 1.34770 116 111 83
-3.62215 -3.93110 1.35199 117 112 84
-3.62884 -3.94395 1.35630 115 113 84
-3.63555 -3.95684 1.36062 116 113 79
-3.64229 -3.96978 1.36496 118 114 78
-3.64905 -3.98276 1.36931 118 115 79
-3.65582 -3.99579 1.37367 119 113 81
-3.66263 -4.00886 1.37805 120 113 84
-3.66945 -4.02197 1.38245 121 112 89
-3.67630 -4.03513 1.38686 121 111 92
-3.68318 -4.04833 1.39128 121 112 90
-3.69007 -4.06158 1.39573 120 113 87
-3.69699 -4.07488 1.40018 120 114 84
-3.70394 -4.08822 1.40465 120 114 79
-3.71090 -4.10161 1.40914 122 116 80
-3.71790 -4.11504 1.41364 123 115 85
-3.72491 -4.12852 1.41816 122 113 84
-3.73195 -4.14205 1.42269 122 114 87
-3.73902 -4.15562 1.42724 121 116 86
-3.74611 -4.16924 1.43181 123 117 90
-3.75322 -4.18291 1.43639 124 118 89
-3.76036 -4.19662 1.44099 128 118 91
-3.76752 -4.21039 1.44560 126 119 98
-3.77471 -4.22420 1.45023 130 120 107
-3.78193 -4.23806 1.45487 128 123 94
-3.78917 -4.25197 1.45954 130 123 86
-3.79643 -4.26593 1.46421 127 121 92
-4.05141 -4.75581 1.62840 129 123 102
-4.05963 -4.77160 1.63370 131 124 98
-4.06788 -4.78745 1.63901 130 124 101
-4.07616 -4.80336 1.64434 134 124 105
-4.08447 -4.81932 1.64969 131 124 100
-4.09281 -4.83535 1.65507 128 126 103
-4.10119 -4.85144 1.66046 128 127 107
-4.10959 -4.86759 1.66587 129 128 96
-3.59944 -3.90218 1.32710 119 111 96
-3.60608 -3.91495 1.33135 119 109 89
-3.61273 -3.92777 1.33562 119 109 85
-3.61941 -3.94063 1.33991 118 110 86
-3.62612 -3.95353 1.34420 118 111 85
-3.63284 -3.96648 1.34852 119 113 83
-3.63959 -3.97947 1.35285 120 113 84
-3.64636 -3.99250 1.35719 121 114 87
-3.65315 -4.00558 1.36155 121 115 89
-3.65997 -4.01870 1.36592 121 115 82
-3.66681 -4.03187 1.37030 121 114 83
-3.67368 -4.04508 1.37471 123 114 96
-3.68056 -4.05834 1.37912 123 114 97
-3.68748 -4.07165 1.38356 122 115 89
-3.69441 -4.08500 1.38800 121 116 86
-3.70137 -4.09839 1.39247 120 116 82
-3.70835 -4.11184 1.39695 120 116 82
-3.71536 -4.12533 1.40144 123 116 86
-3.72239 -4.13886 1.40595 123 114 87
-3.72945 -4.15244 1.41047 123 115 87
-3.73653 -4.16608 1.41502 125 118 89
-3.74363 -4.17975 1.41957 125 121 93
-3.75076 -4.19348 1.42415 128 124 93
-3.75792 -4.20725 1.42873 135 124 93
-3.76510 -4.22107 1.43334 129 123 91
-3.77230 -4.23494 1.43796 127 120 98
-3.77954 -4.24886 1.44260 123 121 92
-3.78679 -4.26283 1.44725 124 121 85
-4.01704 -4.70605 1.59491 129 125 97
-4.02515 -4.72168 1.60012 129 125 98
-4.03330 -4.73737 1.60535 129 125 95
-4.04148 -4.75311 1.61059 128 124 97
-4.04969 -4.76891 1.61586 129 124 96
-4.05793 -4.78478 1.62114 131 124 97
-4.06620 -4.80070 1.62645 130 123 101
-4.07451 -4.81668 1.63177 134 123 103
-4.08284 -4.83273 1.63712 131 124 100
-4.09121 -4.84883 1.64248 128 126 104
-4.09960 -4.86500 1.64787 129 126 110
-3.59664 -3.91161 1.31497 117 115 91
-3.60329 -3.92443 1.31922 119 112 90
-3.60996 -3.93730 1.32348 119 110 88
-3.61666 -3.95021 1.32775 119 111 86
-3.62337 -3.96317 1.33204 120 114 84
-3.63011 -3.97617 1.33635 121 115 84
-3.63687 -3.98921 1.34067 121 113 87
-3.64366 -4.00230 1.34500 122 113 88
-3.65047 -4.01543 1.34935 121 115 88
-3.65730 -4.02860 1.35371 120 115 84
-3.66416 -4.04183 1.35809 120 114 85
-3.67103 -4.05510 1.36249 120 114 93
-3.67794 -4.06841 1.36689 121 114 96
-3.68486 -4.08177 1.37132 121 115 93
-3.69181 -4.09517 1.37576 121 114 89
-3.69879 -4.10863 1.38021 121 113 83
-3.70579 -4.12212 1.38468 120 117 81
-3.71281 -4.13567 1.38917 124 119 89
-3.71986 -4.14926 1.39367 124 120 91
-3.72693 -4.16290 1.39819 125 122 94
-3.73403 -4.17659 1.40272 130 123 95
-3.74115 -4.19033 1.40727 126 122 90
-3.74829 -4.20411 1.41183 124 119 91
-3.75546 -4.21794 1.41641 126 118 87
-3.99098 -4.67220 1.56684 127 124 99
-3.99903 -4.68772 1.57198 128 126 96
-4.00711 -4.70331 1.57714 129 125 97
-4.01522 -4.71895 1.58232 130 125 100
-4.02336 -4.73465 1.58752 128 127 99
-4.03153 -4.75041 1.59274 128 126 94
-4.03973 -4.76622 1.59797 127 124 95
-4.04796 -4.78210 1.60323 129 124 92
-4.05622 -4.79804 1.60851 131 124 95
-4.06452 -4.81403 1.61381 129 123 96
-4.07284 -4.83009 1.61912 132 124 101
-4.08120 -4.84621 1.62446 131 125 103
-3.59383 -3.92109 1.30278 117 115 89
-3.60049 -3.93397 1.30702 115 115 85
-3.60718 -3.94689 1.31127 116 113 84
-3.61388 -3.95985 1.31553 118 114 87
-3.62062 -3.97286 1.31982 120 114 87
-3.62737 -3.98591 1.32411 121 113 90
-3.63415 -3.99901 1.32842 122 112 91
-3.64094 -4.01215 1.33275 122 113 88
-3.64777 -4.02533 1.33709 120 114 86
-3.65461 -4.03856 1.34144 119 115 85
-3.66148 -4.05184 1.34581 120 115 85
-3.66838 -4.06516 1.35020 120 115 84
-3.67530 -4.07853 1.35460 121 116 87
-3.68224 -4.09195 1.35901 122 117 93
-3.68920 -4.10541 1.36344 122 117 98
-3.69619 -4.11892 1.36789 124 120 98
-3.70321 -4.13247 1.37235 127 124 92
-3.71024 -4.14607 1.37683 130 124 97
-3.71731 -4.15972 1.38132 126 119 93
-3.72440 -4.17342 1.38583 124 119 93
-3.73151 -4.18717 1.39035 124 117 92
-3.73865 -4.20096 1.39489 123 117 86
-3.98909 -4.68496 1.55419 128 123 95
-3.99716 -4.70055 1.55932 129 125 97
-4.00526 -4.71621 1.56447 129 125 97
-4.01339 -4.73192 1.56965 129 125 100
-4.02155 -4.74769 1.57484 128 126 101
-4.02975 -4.76353 1.58005 126 126 96
-4.03797 -4.77942 1.58528 127 126 95
-4.04622 -4.79537 1.59053 129 125 93
-4.05451 -4.81138 1.59580 130 125 96
-4.06282 -4.82745 1.60109 129 125 92
-4.07117 -4.84359 1.60640 131 126 97
-3.59100 -3.93063 1.29052 117 114 93
-3.59768 -3.94355 1.29475 118 113 90
-3.60437 -3.95653 1.29899 117 113 89
-3.61110 -3.96954 1.30325 116 115 94
-3.61784 -3.98260 1.30752 116 115 94
-3.62461 -3.99571 1.31181 118 114 97
-3.63140 -4.00886 1.31611 119 113 92
-3.63821 -4.02205 1.32042 121 114 82
-3.64505 -4.03529 1.32475 121 114 84
-3.65191 -4.04858 1.32910 121 115 90
-3.65880 -4.06191 1.33346 123 117 90
-3.66571 -4.07529 1.33784 124 120 91
-3.67264 -4.08871 1.34223 124 122 91
-3.67960 -4.10218 1.34663 125 121 89
-3.68658 -4.11570 1.35106 126 119 93
-3.69358 -4.12926 1.35549 124 119 95
-3.70061 -4.14288 1.35994 123 120 94
-3.70767 -4.15654 1.36441 123 118 94
-3.71474 -4.17024 1.36890 122 115 92
-3.72185 -4.18400 1.37340 122 115 94
-3.98719 -4.69779 1.54146 128 123 97
-3.99528 -4.71346 1.54659 128 125 99
-4.00340 -4.72919 1.55173 128 125 93
-4.01155 -4.74498 1.55689 129 125 100
-4.01974 -4.76082 1.56208 128 126 103
-4.02795 -4.77673 1.56728 128 126 97
-4.03619 -4.79269 1.57250 128 127 95
-4.04447 -4.80872 1.57775 128 126 94
-4.05278 -4.82480 1.58301 129 126 99
-4.06112 -4.84095 1.58829 129 126 95
-4.06949 -4.85716 1.59359 132 126 99
-3.59484 -3.95320 1.28241 121 113 90
-3.60156 -3.96622 1.28664 118 113 88
-3.60829 -3.97929 1.29089 113 115 90
-3.61505 -3.99240 1.29515 115 114 85
-3.62183 -4.00556 1.29943 120 114 91
-3.62864 -4.01876 1.30372 120 116 96
-3.63547 -4.03201 1.30803 123 118 99
-3.64232 -4.04531 1.31235 125 121 96
-3.64920 -4.05865 1.31669 125 123 91
-3.65610 -4.07204 1.32104 127 122 89
-3.66302 -4.08547 1.32541 127 119 91
-3.66997 -4.09895 1.32979 124 118 91
-3.67694 -4.11248 1.33419 121 117 85
-3.68394 -4.12605 1.33860 120 116 83
-3.69096 -4.13967 1.34303 121 117 84
-3.69800 -4.15334 1.34747 121 117 88
-3.98527 -4.71071 1.52866 128 123 98
-3.99338 -4.72645 1.53377 128 125 99
-4.00153 -4.74225 1.53891 128 125 92
-4.00970 -4.75811 1.54407 129 124 98
-4.01791 -4.77403 1.54924 130 124 101
-4.02614 -4.79001 1.55443 130 126 97
-4.03441 -4.80605 1.55965 130 127 97
-4.04271 -4.82215 1.56488 128 126 99
-4.05104 -4.83831 1.57014 130 126 100
-4.05940 -4.85454 1.57541 130 126 94
-4.06780 -4.87082 1.58071 133 126 96
-3.61904 -4.01547 1.28698 124 122 98
-3.62586 -4.02873 1.29127 124 121 98
-3.63271 -4.04203 1.29557 123 120 97
-3.63957 -4.05538 1.29988 122 119 95
-3.64646 -4.06878 1.30421 122 118 90
-3.65338 -4.08222 1.30855 123 117 87
-3.66032 -4.09571 1.31291 123 115 87
-3.66728 -4.10925 1.31728 122 114 88
-3.67427 -4.12283 1.32167 121 113 86
-3.68128 -4.13646 1.32607 118 114 88
-3.68832 -4.15014 1.33049 119 117 90
-3.97524 -4.70795 1.51068 128 124 98
-3.98335 -4.72371 1.51577 130 123 96
-3.99148 -4.73952 1.52088 129 124 96
-3.99964 -4.75539 1.52601 129 124 95
-4.00784 -4.77133 1.53116 130 123 98
-4.01607 -4.78732 1.53632 131 124 99
-4.02433 -4.80338 1.54151 129 125 99
-4.03262 -4.81949 1.54671 131 127 100
-4.04094 -4.83567 1.55194 130 127 103
-4.04929 -4.85191 1.55719 130 127 100
-4.05767 -4.86821 1.56245 130 127 94
-4.06609 -4.88457 1.56774 132 127 91
-3.67861 -4.14693 1.31347 120 115 88
-3.68566 -4.16067 1.31788 121 116 89
-3.93311 -4.64270 1.47261 127 121 91
-3.94108 -4.65823 1.47759 127 123 92
-3.94909 -4.67383 1.48260 127 125 94
-3.95712 -4.68948 1.48762 127 125 96
-3.96519 -4.70519 1.49267 127 124 97
-3.97328 -4.72095 1.49773 128 124 99
-3.98141 -4.73678 1.50281 132 124 94
-3.98956 -4.75267 1.50791 130 124 95
-3.99775 -4.76862 1.51303 130 125 97
-4.00597 -4.78463 1.51817 130 123 100
-4.01422 -4.80070 1.52332 131 125 101
-4.02250 -4.81683 1.52850 128 126 101
-4.03081 -4.83302 1.53370 131 127 99
-4.03915 -4.84927 1.53892 130 128 99
-4.04753 -4.86559 1.54415 129 128 100
-4.05594 -4.88197 1.54941 130 127 99
-3.90722 -4.60895 1.44480 126 123 97
-3.91513 -4.62438 1.44972 128 122 95
-3.92307 -4.63987 1.45466 128 122 97
-3.93103 -4.65542 1.45962 127 122 95
-3.93903 -4.67103 1.46459 127 123 94
-3.94705 -4.68669 1.46959 127 125 91
-3.95511 -4.70241 1.47461 127 125 96
-3.96319 -4.71820 1.47964 128 125 97
-3.97131 -4.73404 1.48469 129 125 95
-3.97946 -4.74994 1.48976 132 125 90
-3.98763 -4.76590 1.49486 130 125 96
-3.99584 -4.78192 1.49997 129 125 101
-4.00408 -4.79801 1.50510 130 125 103
-4.01235 -4.81415 1.51024 130 127 103
-4.02066 -4.83036 1.51541 128 128 98
-4.02899 -4.84663 1.52060 130 128 95
-4.03736 -4.86296 1.52581 130 128 96
-3.88931 -4.59070 1.42198 125 123 88
-3.89718 -4.60609 1.42686 125 124 93
-3.90507 -4.62154 1.43175 126 124 92
-3.91300 -4.63704 1.43667 128 124 91
-3.92096 -4.65260 1.44160 128 123 91
-3.92894 -4.66822 1.44655 128 123 92
-3.93696 -4.68390 1.45152 128 124 97
-3.94500 -4.69963 1.45650 127 124 94
-3.95308 -4.71543 1.46151 128 124 97
-3.96119 -4.73129 1.46653 129 125 97
-3.96932 -4.74720 1.47158 130 125 94
-3.97749 -4.76318 1.47664 130 125 91
-3.98569 -4.77922 1.48172 129 125 95
-3.99392 -4.79531 1.48682 128 126 99
-4.00219 -4.81147 1.49194 130 126 102
-4.01048 -4.82769 1.49708 129 127 103
-3.87925 -4.58782 1.40403 126 122 91
-3.88711 -4.60323 1.40888 126 123 90
-3.89499 -4.61868 1.41375 126 124 92
-3.90291 -4.63420 1.41863 127 124 94
-3.91086 -4.64977 1.42353 128 125 94
-3.91883 -4.66541 1.42846 128 124 92
-3.92684 -4.68110 1.43340 128 123 93
-3.93488 -4.69685 1.43835 129 124 101
-3.94294 -4.71266 1.44333 128 125 100
-3.95104 -4.72853 1.44833 128 125 96
-3.95917 -4.74446 1.45334 129 125 95
-3.96733 -4.76045 1.45838 129 126 97
-3.97552 -4.77650 1.46343 129 126 93
-3.98374 -4.79261 1.46850 129 126 94
-3.99199 -4.80879 1.47360 128 126 95
-3.83806 -4.52385 1.36693 124 122 91
-3.84579 -4.53904 1.37168 125 122 97
-3.85355 -4.55428 1.37645 127 122 96
-3.86134 -4.56958 1.38123 127 120 98
-3.86916 -4.58494 1.38603 126 119 100
-3.87701 -4.60035 1.39086 127 121 96
-3.88489 -4.61582 1.39569 128 122 91
-3.89280 -4.63135 1.40055 127 123 91
-3.90073 -4.64694 1.40543 126 124 99
-3.90870 -4.66259 1.41032 127 124 103
-3.91670 -4.67829 1.41523 129 124 101
-3.92472 -4.69406 1.42016 128 124 96
-3.93278 -4.70988 1.42511 129 125 98
-3.94087 -4.72576 1.43008 130 126 99
-3.94899 -4.74171 1.43507 127 125 95
-3.95714 -4.75771 1.44007 130 125 94
-3.96532 -4.77378 1.44510 130 126 97
-3.97353 -4.78991 1.45014 129 126 94
-3.80498 -4.47565 1.33494 123 122 92
-3.81262 -4.49068 1.33961 123 122 97
-3.82029 -4.50577 1.34430 123 121 93
-3.82798 -4.52091 1.34900 124 122 89
-3.83571 -4.53611 1.35372 124 122 89
-3.84346 -4.55136 1.35846 125 122 96
-3.85124 -4.56668 1.36322 128 122 97
-3.85905 -4.58205 1.36800 127 120 99
-3.86689 -4.59747 1.37279 127 120 101
-3.87476 -4.61296 1.37760 129 121 99
-3.88266 -4.62850 1.38243 129 122 94
-3.89058 -4.64410 1.38728 126 123 94
-3.89854 -4.65976 1.39214 127 123 101
-3.90653 -4.67548 1.39703 129 122 102
-3.91455 -4.69126 1.40193 130 123 100
-3.92260 -4.70710 1.40685 128 125 95
-3.93067 -4.72299 1.41179 129 125 93
-3.93878 -4.73895 1.41675 129 125 96
-3.94692 -4.75497 1.42172 127 125 97
-3.95509 -4.77105 1.42672 130 125 95
-3.77974 -4.44274 1.30782 124 120 95
-3.78732 -4.45767 1.31243 125 120 93
-3.79492 -4.47266 1.31705 127 121 92
-3.80255 -4.48770 1.32169 126 121 93
-3.81020 -4.50280 1.32635 123 122 96
-3.81789 -4.51796 1.33103 122 122 96
-3.82560 -4.53317 1.33573 124 122 91
-3.83334 -4.54844 1.34044 125 122 89
-3.84112 -4.56376 1.34517 126 121 94
-3.84892 -4.57914 1.34991 127 121 96
-3.85675 -4.59459 1.35468 126 121 96
-3.86460 -4.61008 1.35946 127 121 97
-3.87249 -4.62564 1.36426 129 122 98
-3.88041 -4.64125 1.36908 127 123 97
-3.88836 -4.65693 1.37392 125 124 97
-3.89634 -4.67266 1.37877 127 124 100
-3.90435 -4.68845 1.38365 130 123 100
-3.91238 -4.70430 1.38854 130 124 98
-3.92045 -4.72022 1.39345 128 125 93
-3.92855 -4.73619 1.39838 128 126 90
-3.74715 -4.39521 1.27630 125 119 86
-3.75463 -4.40999 1.28083 127 118 90
-3.76213 -4.42483 1.28538 126 117 86
-3.76967 -4.43972 1.28994 125 119 91
-3.77723 -4.45466 1.29452 124 119 97
-3.78482 -4.46966 1.29912 125 121 93
-3.79244 -4.48472 1.30374 126 121 91
-3.80009 -4.49983 1.30837 125 120 92
-3.80777 -4.51500 1.31302 123 121 94
-3.81547 -4.53022 1.31769 123 122 96
-3.82320 -4.54550 1.32237 125 122 91
-3.83097 -4.56084 1.32707 124 122 87
-3.83876 -4.57624 1.33179 127 121 89
-3.84658 -4.59169 1.33653 129 121 93
-3.85443 -4.60720 1.34128 127 121 96
-3.86231 -4.62277 1.34605 128 122 94
-3.87021 -4.63840 1.35084 129 122 92
-3.87815 -4.65409 1.35565 127 123 94
-3.88612 -4.66983 1.36048 126 124 97
-3.89412 -4.68564 1.36532 127 124 98
-3.90215 -4.70150 1.37019 129 125 100
-3.91021 -4.71743 1.37507 128 125 96
-3.91830 -4.73342 1.37997 126 125 89
-3.71483 -4.34809 1.24505 123 118 93
-3.72222 -4.36272 1.24951 123 117 89
-3.72964 -4.37740 1.25398 123 117 91
-3.73708 -4.39214 1.25847 124 119 87
-3.74455 -4.40694 1.26297 124 119 90
-3.75205 -4.42179 1.26749 125 118 93
-3.75957 -4.43669 1.27203 125 118 87
-3.76713 -4.45165 1.27658 125 119 89
-3.77471 -4.46666 1.28115 124 119 92
-3.78232 -4.48173 1.28574 124 120 90
-3.78996 -4.49685 1.29034 125 120 90
-3.79762 -4.51203 1.29496 125 120 90
-3.80532 -4.52727 1.29960 124 120 88
-3.81304 -4.54257 1.30426 125 121 89
-3.82079 -4.55792 1.30893 125 122 88
-3.82857 -4.57332 1.31362 124 123 85
-3.83638 -4.58879 1.31833 126 123 86
-3.84422 -4.60432 1.32306 128 122 91
-3.85209 -4.61990 1.32780 127 122 99
-3.85999 -4.63554 1.33256 129 122 97
-3.86792 -4.65124 1.33734 130 122 90
-3.87588 -4.66700 1.34214 130 123 92
-3.88387 -4.68282 1.34695 129 124 96
-3.89189 -4.69870 1.35179 128 124 96
-3.89994 -4.71464 1.35664 129 124 97
-3.69741 -4.33039 1.22285 120 118 91
-3.70477 -4.34498 1.22726 122 118 91
-3.71215 -4.35963 1.23169 123 119 90
-3.71955 -4.37432 1.23613 123 119 80
-3.72699 -4.38908 1.24059 123 118 88
-3.73445 -4.40388 1.24507 124 120 89
-3.74194 -4.41874 1.24956 123 119 91
-3.74945 -4.43366 1.25407 123 119 94
-3.75700 -4.44863 1.25859 125 120 90
-3.76457 -4.46365 1.26314 124 120 91
-3.77217 -4.47873 1.26769 123 120 92
-3.77980 -4.49387 1.27227 125 119 90
-3.78745 -4.50906 1.27686 126 120 91
-3.79514 -4.52431 1.28147 126 121 92
-3.80285 -4.53962 1.28610 126 121 91
-3.81059 -4.55498 1.29075 126 122 89
-3.81837 -4.57040 1.29541 126 123 85
-3.82617 -4.58588 1.30009 126 124 85
-3.83400 -4.60142 1.30479 127 123 86
-3.84186 -4.61702 1.30950 128 123 91
-3.84975 -4.63267 1.31423 127 123 99
-3.85766 -4.64839 1.31899 127 123 98
-3.86561 -4.66416 1.32375 128 122 94
-3.87359 -4.67999 1.32854 130 123 94
-3.65102 -4.25505 1.18336 123 114 87
-3.68734 -4.32727 1.20504 121 118 93
-3.69468 -4.34187 1.20942 121 118 94
-3.70205 -4.35653 1.21382 123 119 92
-3.70945 -4.37123 1.21824 123 120 86
-3.71687 -4.38600 1.22267 124 121 77
-3.72432 -4.40082 1.22712 126 119 84
-3.73180 -4.41569 1.23158 125 120 87
-3.73931 -4.43061 1.23607 123 120 87
-3.74684 -4.44560 1.24056 124 120 86
-3.75441 -4.46063 1.24508 128 119 89
-3.76200 -4.47573 1.24961 126 119 93
-3.76961 -4.49088 1.25416 124 121 95
-3.77726 -4.50608 1.25872 125 120 94
-3.78494 -4.52134 1.26330 126 120 93
-3.79264 -4.53666 1.26790 126 122 95
-3.80037 -4.55204 1.27252 126 122 94
-3.80813 -4.56748 1.27715 126 122 91
-3.81592 -4.58297 1.28180 126 123 88
-3.82374 -4.59852 1.28647 126 123 87
-3.83159 -4.61413 1.29116 128 122 86
-3.83947 -4.62980 1.29586 129 122 88
-3.84738 -4.64552 1.30059 128 123 93
-3.85532 -4.66131 1.30533 126 123 97
-3.86329 -4.67716 1.31008 127 123 96
-3.54967 -4.06991 1.11140 122 113 89
-3.64097 -4.25186 1.16564 122 115 83
-3.64817 -4.26621 1.16992 122 115 81
-3.65540 -4.28061 1.17421 121 117 81
-3.68457 -4.33875 1.19154 123 118 91
-3.69193 -4.35342 1.19592 123 116 94
-3.69932 -4.36814 1.20030 123 117 94
-3.70673 -4.38291 1.20471 124 119 87
-3.71418 -4.39774 1.20913 125 120 83
-3.72164 -4.41263 1.21357 126 120 84
-3.72914 -4.42757 1.21802 125 121 85
-3.73667 -4.44256 1.22249 124 121 84
-3.74422 -4.45761 1.22698 125 121 81
-3.75180 -4.47272 1.23148 127 120 86
-3.75941 -4.48788 1.23600 126 120 91
-3.76704 -4.50310 1.24054 124 121 93
-3.77471 -4.51837 1.24509 124 120 91
-3.78240 -4.53370 1.24966 126 121 90
-3.79012 -4.54909 1.25425 126 122 93
-3.79788 -4.56454 1.25885 128 122 93
-3.80566 -4.58005 1.26348 128 121 92
-3.81347 -4.59561 1.26812 126 121 93
-3.82131 -4.61123 1.27277 126 121 93
-3.82918 -4.62692 1.27745 128 121 87
-3.83708 -4.64266 1.28214 128 122 86
-3.84501 -4.65846 1.28685 128 123 92
-3.53972 -4.06659 1.09399 129 120 89
-3.54659 -4.08030 1.09805 124 111 81
-3.55348 -4.09405 1.10212 125 111 80
-3.56039 -4.10786 1.10621 123 113 81
-3.56733 -4.12172 1.11031 120 114 81
-3.57429 -4.13562 1.11443 119 113 81
-3.58128 -4.14957 1.11856 119 113 83
-3.58829 -4.16358 1.12270 119 115 86
-3.59533 -4.17763 1.12686 121 117 83
-3.60239 -4.19174 1.13104 120 117 81
-3.60948 -4.20589 1.13523 118 117 83
-3.61659 -4.22010 1.13943 119 116 89
-3.62373 -4.23436 1.14365 121 115 92
-3.63090 -4.24867 1.14789 122 116 88
-3.63809 -4.26303 1.15214 123 117 83
-3.64531 -4.27744 1.15640 122 117 80
-3.65255 -4.29191 1.16069 121 118 81
-3.68179 -4.35030 1.17797 123 117 97
-3.68917 -4.36504 1.18233 124 116 95
-3.69657 -4.37982 1.18671 124 117 97
-3.70400 -4.39466 1.19110 126 119 88
-3.71146 -4.40956 1.19551 125 120 87
-3.71895 -4.42451 1.19993 124 120 87
-3.72646 -4.43952 1.20437 125 121 89
-3.73401 -4.45458 1.20883 122 121 89
-3.74158 -4.46970 1.21331 125 121 89
-3.74917 -4.48487 1.21780 126 121 87
-3.75680 -4.50010 1.22231 126 121 89
-3.76446 -4.51539 1.22683 124 121 91
-3.77214 -4.53074 1.23137 124 120 92
-3.77985 -4.54614 1.23593 126 121 90
-3.78759 -4.56160 1.24051 126 122 92
-3.79537 -4.57712 1.24510 127 121 96
-3.80317 -4.59269 1.24971 128 121 95
-3.81100 -4.60833 1.25434 126 121 94
-3.81885 -4.62403 1.25899 127 121 96
-3.54349 -4.09074 1.08462 126 109 80
-3.55039 -4.10456 1.08868 125 111 81
-3.55732 -4.11842 1.09276 123 114 84
-3.56427 -4.13234 1.09684 121 115 86
-3.57125 -4.14630 1.10095 119 114 83
-3.57825 -4.16032 1.10507 117 114 82
-3.58528 -4.17438 1.10920 117 116 81
-3.59233 -4.18850 1.11335 119 116 82
-3.59941 -4.20266 1.11751 120 116 84
-3.60652 -4.21688 1.12169 119 116 87
-3.61365 -4.23115 1.12588 121 116 92
-3.62080 -4.24547 1.13009 121 116 93
-3.62798 -4.25984 1.13431 122 117 87
-3.63519 -4.27427 1.13855 123 118 83
-3.64242 -4.28874 1.14281 123 118 83
-3.64968 -4.30327 1.14708 120 118 84
-3.67899 -4.36193 1.16431 123 117 97
-3.68639 -4.37672 1.16866 124 118 93
-3.69381 -4.39158 1.17303 123 118 93
-3.70126 -4.40648 1.17741 125 120 82
-3.70873 -4.42145 1.18180 126 121 86
-3.71624 -4.43647 1.18622 125 119 88
-3.72377 -4.45154 1.19065 126 121 94
-3.73133 -4.46667 1.19509 123 121 91
-3.73892 -4.48186 1.19956 125 121 94
-3.74653 -4.49710 1.20403 126 121 91
-3.75418 -4.51240 1.20853 126 121 92
-3.76185 -4.52776 1.21304 126 120 93
-3.76956 -4.54318 1.21757 125 120 96
-3.77729 -4.55865 1.22212 127 121 93
-3.78505 -4.57418 1.22669 126 121 93
-3.79284 -4.58977 1.23127 125 121 97
-3.80066 -4.60542 1.23587 126 121 96
-3.54037 -4.10124 1.07111 123 111 83
-3.54729 -4.11512 1.07516 122 113 84
-3.55423 -4.12904 1.07922 122 114 87
-3.56120 -4.14302 1.08330 121 114 89
-3.56819 -4.15704 1.08739 119 113 85
-3.57521 -4.17112 1.09150 117 114 82
-3.58225 -4.18525 1.09562 118 115 83
-3.58932 -4.19942 1.09975 120 116 85
-3.59642 -4.21365 1.10390 121 116 85
-3.60353 -4.22793 1.10807 121 117 85
-3.61068 -4.24226 1.11225 122 116 90
-3.61785 -4.25664 1.11645 121 116 93
-3.62505 -4.27108 1.12066 120 117 91
-3.63227 -4.28557 1.12489 122 117 87
-3.63952 -4.30011 1.12913 123 117 89
-3.64680 -4.31470 1.13338 121 118 86
-3.67617 -4.37362 1.15057 123 119 90
-3.68359 -4.38848 1.15491 122 120 91
-3.69103 -4.40340 1.15926 121 121 88
-3.69849 -4.41838 1.16363 124 121 81
-3.70599 -4.43341 1.16801 125 121 85
-3.71351 -4.44849 1.17242 125 119 88
-3.72106 -4.46364 1.17683 125 121 95
-3.72864 -4.47884 1.18127 125 121 90
-3.73624 -4.49409 1.18572 125 120 94
-3.74388 -4.50941 1.19019 126 121 94
-3.75154 -4.52478 1.19467 126 121 96
-3.75923 -4.54021 1.19917 126 120 95
-3.76696 -4.55569 1.20369 126 119 94
-3.77471 -4.57124 1.20822 127 120 91
-3.78249 -4.58684 1.21278 126 121 91
-3.79030 -4.60251 1.21734 125 122 95
-3.53724 -4.11181 1.05753 122 114 84
-3.54417 -4.12574 1.06156 121 114 87
-3.55113 -4.13973 1.06561 121 114 89
-3.55811 -4.15376 1.06968 120 115 88
-3.56512 -4.16785 1.07375 119 113 87
-3.57215 -4.18199 1.07785 119 113 87
-3.57921 -4.19617 1.08196 119 113 88
-3.58629 -4.21041 1.08608 122 114 89
-3.59340 -4.22470 1.09022 122 116 85
-3.60054 -4.23904 1.09437 121 117 84
-3.60770 -4.25344 1.09854 122 116 91
-3.61489 -4.26789 1.10272 121 115 93
-3.62210 -4.28238 1.10692 120 116 93
-3.62934 -4.29694 1.11114 121 117 92
-3.63661 -4.31154 1.11537 123 117 91
-3.64390 -4.32620 1.11961 122 118 85
-3.67334 -4.38538 1.13675 123 121 88
-3.68077 -4.40031 1.14107 121 121 89
-3.68823 -4.41530 1.14541 121 121 88
-3.69571 -4.43034 1.14977 122 120 87
-3.70322 -4.44544 1.15414 124 119 88
-3.71076 -4.46060 1.15853 124 120 88
-3.71833 -4.47581 1.16294 124 121 91
-3.72593 -4.49108 1.16736 125 121 91
-3.73355 -4.50640 1.17180 125 121 97
-3.74121 -4.52179 1.17625 126 120 94
-3.54103 -4.13643 1.04788 122 113 88
-3.54800 -4.15048 1.05192 122 115 91
-3.55500 -4.16457 1.05597 121 116 94
-3.56202 -4.17872 1.06004 118 113 93
-3.56907 -4.19292 1.06412 118 111 92
-3.57614 -4.20717 1.06821 119 111 94
-3.58324 -4.22147 1.07232 121 113 91
-3.59037 -4.23582 1.07645 121 115 86
-3.59752 -4.25023 1.08059 119 115 87
-3.60470 -4.26468 1.08475 119 115 91
-3.61190 -4.27919 1.08892 121 115 92
-3.61913 -4.29376 1.09310 121 116 91
-3.62639 -4.30838 1.09731 122 118 92
-3.63367 -4.32305 1.10152 122 118 89
-3.64098 -4.33777 1.10575 121 118 84
-3.67049 -4.39722 1.12284 122 121 89
-3.67794 -4.41222 1.12715 122 122 89
-3.68541 -4.42727 1.13148 122 121 90
-3.69291 -4.44238 1.13582 123 119 92
-3.70044 -4.45755 1.14018 124 120 91
-3.70800 -4.47277 1.14456 124 120 86
-3.71559 -4.48806 1.14895 124 121 87
-3.72320 -4.50339 1.15336 125 120 89
-3.73084 -4.51879 1.15779 124 122 97
-3.53787 -4.14718 1.03412 122 112 88
-3.54486 -4.16129 1.03815 123 115 91
-3.55187 -4.17545 1.04218 123 116 97
-3.55891 -4.18966 1.04624 119 113 95
-3.56597 -4.20392 1.05031 118 112 93
-3.57306 -4.21823 1.05439 118 112 93
-3.58018 -4.23259 1.05849 118 113 90
-3.58732 -4.24701 1.06260 118 113 85
-3.59449 -4.26148 1.06673 116 113 86
-3.60168 -4.27600 1.07087 117 114 90
-3.60890 -4.29057 1.07503 120 114 92
-3.61615 -4.30520 1.07920 121 116 93
-3.62342 -4.31988 1.08339 122 117 96
-3.63072 -4.33462 1.08759 122 118 93
-3.63804 -4.34941 1.09181 121 118 88
-3.66762 -4.40912 1.10885 123 120 90
-3.67509 -4.42419 1.11315 124 121 92
-3.68258 -4.43931 1.11746 124 120 94
-3.69010 -4.45449 1.12179 124 119 92
-3.69764 -4.46973 1.12614 125 119 91
-3.70522 -4.48503 1.13050 126 120 86
-3.71283 -4.50038 1.13488 125 121 89
-3.72046 -4.51579 1.13928 125 120 88
-3.53470 -4.15800 1.02028 122 111 89
-3.54170 -4.17217 1.02429 123 113 89
-3.54873 -4.18639 1.02832 123 116 91
-3.55578 -4.20066 1.03236 120 115 90
-3.56286 -4.21498 1.03641 118 113 85
-3.56996 -4.22935 1.04048 115 111 81
-3.57709 -4.24378 1.04457 115 111 81
-3.58425 -4.25826 1.04867 117 112 83
-3.59143 -4.27279 1.05278 118 113 86
-3.59864 -4.28738 1.05691 119 114 89
-3.60588 -4.30202 1.06106 120 115 91
-3.61314 -4.31671 1.06522 120 116 94
-3.62043 -4.33146 1.06939 121 117 96
-3.62775 -4.34626 1.07358 122 118 94
-3.63509 -4.36112 1.07779 123 118 90
-3.67222 -4.43624 1.09906 128 120 92
-3.67973 -4.45143 1.10336 126 120 94
-3.68726 -4.46668 1.10768 123 120 87
-3.69483 -4.48199 1.11201 125 120 87
-3.70242 -4.49735 1.11636 123 119 90
-3.53150 -4.16888 1.00636 123 110 84
-3.53852 -4.18311 1.01035 122 112 87
-3.54556 -4.19739 1.01437 123 115 88
-3.55263 -4.21172 1.01839 120 114 87
-3.55972 -4.22611 1.02243 117 112 82
-3.56684 -4.24055 1.02649 114 109 73
-3.57399 -4.25504 1.03056 115 109 76
-3.58116 -4.26958 1.03465 118 112 85
-3.58836 -4.28418 1.03875 121 114 90
-3.59559 -4.29883 1.04287 123 116 91
-3.60284 -4.31353 1.04700 122 117 90
-3.61012 -4.32829 1.05114 120 118 92
-3.61742 -4.34311 1.05531 121 118 91
-3.62476 -4.35798 1.05948 123 118 89
-3.63212 -4.37290 1.06368 124 118 90
-3.52829 -4.17982 0.99235 123 110 79
-3.53532 -4.19411 0.99633 122 111 88
-3.54238 -4.20846 1.00033 123 114 92
-3.54946 -4.22285 1.00434 120 114 88
-3.55657 -4.23730 1.00837 116 111 82
-3.56371 -4.25181 1.01242 114 110 77
-3.57087 -4.26636 1.01647 116 112 79
-3.57806 -4.28097 1.02055 119 115 86
-3.58527 -4.29563 1.02463 122 116 89
-3.59251 -4.31035 1.02874 123 117 87
-3.59978 -4.32512 1.03286 123 117 86
-3.60708 -4.33995 1.03699 122 118 88
-3.61440 -4.35483 1.04114 122 118 89
-3.62175 -4.36976 1.04530 123 118 89
-3.62913 -4.38475 1.04948 123 119 92
-3.52505 -4.19083 0.97826 122 112 83
-3.53210 -4.20519 0.98223 121 112 90
-3.53917 -4.21959 0.98621 123 115 94
-3.54627 -4.23405 0.99021 121 116 87
-3.55340 -4.24857 0.99423 116 114 80
-3.56055 -4.26313 0.99826 115 113 77
-3.56773 -4.27775 1.00230 117 115 80
-3.57493 -4.29243 1.00636 119 118 84
-3.58216 -4.30716 1.01043 121 118 85
-3.58942 -4.32194 1.01452 123 118 85
-3.59671 -4.33678 1.01863 123 118 86
-3.60402 -4.35167 1.02275 121 118 87
-3.61136 -4.36662 1.02688 122 118 88
-3.61872 -4.38162 1.03103 123 118 91
-3.62612 -4.39668 1.03520 121 120 93
-3.52180 -4.20191 0.96408 120 113 85
-3.52886 -4.21633 0.96804 120 114 88
-3.53595 -4.23080 0.97201 123 117 90
-3.54307 -4.24532 0.97600 122 116 85
-3.55021 -4.25990 0.98000 119 114 83
-3.55738 -4.27453 0.98401 118 113 82
-3.56457 -4.28921 0.98804 119 114 80
-3.57179 -4.30395 0.99209 120 117 80
-3.57904 -4.31875 0.99615 122 117 83
-3.58631 -4.33360 1.00022 124 117 89
-3.59361 -4.34850 1.00431 124 117 91
-3.60094 -4.36346 1.00842 121 118 88
-3.60830 -4.37848 1.01254 122 118 89
-3.61568 -4.39355 1.01667 124 118 93
-3.62309 -4.40868 1.02082 123 120 95
-3.51853 -4.21305 0.94982 119 113 86
-3.52561 -4.22753 0.95376 120 114 87
-3.53271 -4.24207 0.95772 124 117 88
-3.53984 -4.25666 0.96169 124 117 86
-3.54700 -4.27130 0.96568 121 115 87
-3.55418 -4.28599 0.96968 120 115 83
-3.56139 -4.30075 0.97369 120 115 82
-3.56863 -4.31555 0.97772 121 116 85
-3.57589 -4.33041 0.98177 122 115 85
-3.58318 -4.34533 0.98583 122 116 86
-3.59050 -4.36030 0.98991 122 116 89
-3.59784 -4.37533 0.99400 121 117 88
-3.60522 -4.39041 0.99810 122 118 85
-3.61262 -4.40556 1.00223 123 118 85
-3.52233 -4.23880 0.93940 120 114 90
-3.52945 -4.25340 0.94334 124 118 93
-3.53660 -4.26806 0.94730 123 118 88
-3.54377 -4.28277 0.95127 120 116 88
-3.55097 -4.29753 0.95526 120 116 87
-3.55819 -4.31235 0.95926 119 116 87
-3.56545 -4.32722 0.96328 120 116 92
-3.57273 -4.34215 0.96731 121 115 87
-3.58003 -4.35713 0.97135 121 116 81
-3.58737 -4.37217 0.97541 122 116 86
-3.59473 -4.38727 0.97949 123 116 86
-3.60212 -4.40242 0.98358 122 118 82
-3.60954 -4.41763 0.98769 123 119 76
-3.51903 -4.25015 0.92495 119 113 91
-3.52617 -4.26481 0.92888 123 117 92
-3.53333 -4.27953 0.93282 124 119 88
-3.54052 -4.29431 0.93678 120 117 87
-3.54773 -4.30914 0.94075 120 116 89
-3.55498 -4.32402 0.94474 120 116 89
-3.56224 -4.33896 0.94874 120 116 91
-3.56954 -4.35396 0.95276 121 115 90
-3.57686 -4.36901 0.95679 121 115 88
-3.58421 -4.38412 0.96083 122 116 90
-3.59159 -4.39928 0.96489 123 117 90
-3.59900 -4.41451 0.96897 122 118 88
-3.60643 -4.42979 0.97306 121 120 82
-3.51572 -4.26156 0.91042 122 113 93
-3.52287 -4.27629 0.91433 123 117 94
-3.53004 -4.29107 0.91826 123 119 92
-3.53725 -4.30592 0.92220 121 118 87
-3.54448 -4.32081 0.92616 121 116 86
-3.55174 -4.33576 0.93013 121 115 90
-3.55902 -4.35077 0.93411 121 115 94
-3.56634 -4.36584 0.93811 122 115 95
-3.57368 -4.38096 0.94213 122 116 93
-3.58104 -4.39614 0.94616 121 117 90
-3.58844 -4.41137 0.95021 122 117 88
-3.59586 -4.42666 0.95427 122 118 87
-3.60331 -4.44202 0.95835 121 119 87
-3.51238 -4.27304 0.89579 122 113 92
-3.51955 -4.28784 0.89969 124 117 96
-3.52674 -4.30269 0.90360 123 119 98
-3.53396 -4.31760 0.90753 119 116 87
-3.54121 -4.33256 0.91147 117 115 85
-3.54848 -4.34758 0.91543 117 116 89
-3.55578 -4.36266 0.91940 120 115 92
-3.56311 -4.37779 0.92338 121 116 93
-3.57047 -4.39298 0.92738 122 117 92
-3.57785 -4.40823 0.93140 122 118 89
-3.58526 -4.42354 0.93543 123 117 88
-3.59271 -4.43890 0.93948 123 117 88
-3.60017 -4.45432 0.94354 123 118 88
-3.50902 -4.28459 0.88108 122 109 89
-3.51620 -4.29945 0.88496 122 114 92
-3.52341 -4.31437 0.88886 121 117 94
-3.53065 -4.32935 0.89277 119 115 90
-3.53791 -4.34438 0.89669 118 115 90
-3.54520 -4.35947 0.90063 119 116 90
-3.55252 -4.37462 0.90459 119 117 88
-3.55987 -4.38982 0.90856 121 116 91
-3.56724 -4.40508 0.91254 123 116 93
-3.57464 -4.42040 0.91654 123 117 91
-3.58207 -4.43577 0.92056 122 118 90
-3.58953 -4.45121 0.92459 120 118 88
-3.59702 -4.46670 0.92864 121 117 89
-3.52007 -4.32613 0.87402 121 118 91
-3.52732 -4.34118 0.87792 120 117 88
-3.53460 -4.35628 0.88183 119 116 88
-3.54191 -4.37143 0.88575 119 115 88
-3.54924 -4.38665 0.88969 119 114 90
-3.55660 -4.40192 0.89364 121 115 95
-3.56399 -4.41725 0.89761 124 115 96
-3.57141 -4.43264 0.90160 122 115 95
-3.57886 -4.44809 0.90560 124 117 93
-3.58633 -4.46360 0.90961 124 118 86
-3.59384 -4.47916 0.91364 121 118 87
-3.51670 -4.33796 0.85909 124 117 86
-3.52397 -4.35307 0.86297 122 116 82
-3.53126 -4.36824 0.86687 118 115 85
-3.53859 -4.38347 0.87077 118 114 87
-3.54594 -4.39876 0.87470 119 113 84
-3.55332 -4.41410 0.87864 121 115 85
-3.56072 -4.42950 0.88259 121 117 89
-3.56816 -4.44496 0.88656 120 116 88
-3.57562 -4.46048 0.89054 123 115 85
-3.58312 -4.47606 0.89454 124 116 80
-3.59064 -4.49170 0.89855 120 118 80
-3.51331 -4.34986 0.84407 123 118 91
-3.52060 -4.36505 0.84794 120 117 90
-3.52791 -4.38029 0.85181 117 114 92
-3.53525 -4.39558 0.85570 117 115 91
-3.54262 -4.41094 0.85961 117 115 88
-3.55001 -4.42635 0.86353 119 116 86
-3.55744 -4.44183 0.86747 122 117 82
-3.56489 -4.45736 0.87142 124 117 77
-3.57237 -4.47295 0.87539 123 117 78
-3.57988 -4.48861 0.87937 124 116 87
-3.58742 -4.50432 0.88337 123 118 92
-3.59499 -4.52009 0.88738 123 119 99
-3.50990 -4.36184 0.82896 123 116 89
-3.51720 -4.37709 0.83281 122 115 91
-3.52453 -4.39240 0.83667 120 114 91
-3.53189 -4.40777 0.84054 120 114 90
-3.53927 -4.42320 0.84443 119 115 89
-3.54669 -4.43869 0.84834 119 115 88
-3.55413 -4.45423 0.85226 121 116 85
-3.56160 -4.46984 0.85619 122 116 84
-3.56909 -4.48550 0.86014 121 116 86
-3.57662 -4.50123 0.86411 122 116 89
-3.58418 -4.51702 0.86809 123 116 84
-3.59176 -4.53286 0.87208 124 118 93
-3.50647 -4.37389 0.81375 121 117 93
-3.51379 -4.38921 0.81758 121 116 94
-3.52114 -4.40460 0.82142 121 114 92
-3.52851 -4.42004 0.82528 122 114 89
-3.53591 -4.43554 0.82916 120 115 88
-3.54334 -4.45110 0.83304 119 115 88
-3.55080 -4.46671 0.83695 121 116 84
-3.55828 -4.48239 0.84086 121 116 80
-3.56580 -4.49813 0.84480 119 116 81
-3.57334 -4.51393 0.84875 122 115 86
-3.58092 -4.52979 0.85271 124 116 85
-3.58852 -4.54572 0.85669 124 117 91
-3.51035 -4.40141 0.80226 123 118 90
