ply
format ascii 1.0
element face 0
property list uchar int vertex_indices
element vertex 1267
property float x
property float y
property float z
property uchar diffuse_red
property uchar diffuse_green
property uchar diffuse_blue
end_header
0.14447 -4.89871 0.96159 164 165 151
0.11965 -4.90333 0.96142 164 162 150
0.09487 -4.90793 0.96125 160 157 150
0.07015 -4.91252 0.96108 153 155 149
0.04548 -4.91711 0.96091 157 156 144
0.02086 -4.92168 0.96074 156 152 141
-0.00371 -4.92625 0.96057 156 155 140
-0.02823 -4.93080 0.96040 153 152 140
-0.27068 -4.97585 0.95873 137 138 129
-0.36629 -4.99362 0.95807 133 135 128
-0.39007 -4.99804 0.95791 132 133 121
-0.41380 -5.00245 0.95775 126 124 125
-0.43749 -5.00685 0.95758 127 122 121
-0.46113 -5.01124 0.95742 129 129 115
-0.48472 -5.01562 0.95726 130 131 129
-0.50826 -5.02000 0.95709 135 136 131
-0.53175 -5.02436 0.95693 132 131 127
-0.55520 -5.02872 0.95677 132 131 123
-0.57860 -5.03307 0.95661 134 134 130
-0.60195 -5.03741 0.95645 132 132 118
-0.62526 -5.04174 0.95629 126 129 127
-0.64852 -5.04606 0.95613 126 129 127
-0.67173 -5.05037 0.95597 130 130 130
-0.69490 -5.05468 0.95581 124 119 128
-0.71802 -5.05898 0.95565 125 124 129
-0.74110 -5.06326 0.95549 130 131 128
-0.76413 -5.06754 0.95533 132 135 124
-0.78711 -5.07181 0.95517 129 134 125
-0.81005 -5.07607 0.95501 125 129 128
-0.83294 -5.08033 0.95486 125 127 127
-0.85579 -5.08457 0.95470 125 127 126
-0.87859 -5.08881 0.95454 125 127 125
-0.90134 -5.09304 0.95438 125 127 121
-0.92406 -5.09726 0.95423 121 125 117
-0.94672 -5.10147 0.95407 120 124 118
-0.96934 -5.10567 0.95392 124 126 123
-0.99192 -5.10987 0.95376 127 129 126
-1.01445 -5.11406 0.95360 125 128 124
-1.03694 -5.11823 0.95345 121 124 116
-1.05939 -5.12240 0.95329 118 122 118
-1.08179 -5.12657 0.95314 123 128 114
-1.10414 -5.13072 0.95299 118 119 112
-1.12645 -5.13487 0.95283 109 112 115
-1.14872 -5.13900 0.95268 120 118 117
-1.17095 -5.14313 0.95253 121 121 118
-1.19313 -5.14726 0.95237 125 128 120
-1.21527 -5.15137 0.95222 121 118 104
-1.23736 -5.15547 0.95207 120 116 105
-1.25942 -5.15957 0.95192 116 117 114
-1.28143 -5.16366 0.95176 117 121 115
0.76103 -4.75770 0.94337 154 161 154
0.73502 -4.76256 0.94321 160 159 156
0.70906 -4.76741 0.94306 159 164 166
0.68316 -4.77226 0.94290 159 160 157
0.65732 -4.77709 0.94275 164 163 162
0.63153 -4.78191 0.94260 165 163 167
0.60579 -4.78672 0.94244 170 166 161
0.58010 -4.79151 0.94229 167 163 162
0.55447 -4.79631 0.94213 172 167 165
0.52890 -4.80108 0.94198 168 167 159
0.40182 -4.82483 0.94122 167 159 155
0.37656 -4.82955 0.94107 165 161 153
0.35135 -4.83427 0.94092 162 162 152
0.32620 -4.83897 0.94077 160 160 154
0.30110 -4.84366 0.94062 164 161 151
0.27605 -4.84834 0.94047 159 158 156
0.25106 -4.85301 0.94032 158 161 161
0.22611 -4.85767 0.94017 158 156 156
0.20122 -4.86232 0.94002 159 155 149
0.17637 -4.86697 0.93987 160 156 152
0.15158 -4.87160 0.93972 161 159 155
0.12684 -4.87622 0.93958 166 171 151
0.10215 -4.88084 0.93943 167 165 150
0.07752 -4.88544 0.93928 163 155 145
0.05293 -4.89004 0.93913 157 155 146
0.02839 -4.89462 0.93899 163 159 150
0.00390 -4.89920 0.93884 162 155 148
-0.02053 -4.90377 0.93869 157 153 142
-0.04492 -4.90832 0.93855 154 149 142
-0.06926 -4.91287 0.93840 152 148 142
-0.21424 -4.93997 0.93754 135 136 138
-0.23824 -4.94445 0.93739 136 139 140
-0.26218 -4.94893 0.93725 137 142 139
-0.28608 -4.95339 0.93711 135 138 134
-0.30992 -4.95785 0.93696 130 135 129
-0.33372 -4.96230 0.93682 127 126 124
-0.35747 -4.96673 0.93668 131 133 131
-0.38118 -4.97116 0.93654 134 138 126
-0.40483 -4.97559 0.93640 136 139 122
-0.42844 -4.98000 0.93625 136 133 129
-0.45200 -4.98440 0.93611 139 136 125
-0.47552 -4.98880 0.93597 136 136 119
-0.49898 -4.99318 0.93583 132 132 131
-0.52240 -4.99756 0.93569 132 134 128
-0.54577 -5.00192 0.93555 129 127 125
-0.56910 -5.00628 0.93541 130 133 120
-0.59238 -5.01063 0.93527 133 135 130
-0.61561 -5.01498 0.93513 132 132 112
-0.63880 -5.01931 0.93500 127 130 124
-0.66194 -5.02363 0.93486 125 129 125
-0.68503 -5.02795 0.93472 127 132 126
-0.70808 -5.03226 0.93458 126 126 125
-0.73108 -5.03656 0.93444 129 132 129
-0.75404 -5.04085 0.93431 129 134 128
-0.77695 -5.04513 0.93417 129 131 126
-0.79982 -5.04940 0.93403 127 127 127
-0.82264 -5.05367 0.93390 122 125 127
-0.84541 -5.05792 0.93376 122 126 127
-0.86814 -5.06217 0.93362 125 129 126
-0.89083 -5.06641 0.93349 126 129 120
-0.91347 -5.07064 0.93335 121 125 115
-0.93607 -5.07486 0.93322 118 123 117
-0.95862 -5.07908 0.93308 121 125 121
-0.98113 -5.08329 0.93295 124 125 122
-1.00359 -5.08748 0.93281 126 126 121
-1.02601 -5.09167 0.93268 126 124 118
-1.04839 -5.09586 0.93255 127 125 117
-1.07072 -5.10003 0.93241 123 127 117
-1.09301 -5.10419 0.93228 124 127 113
-1.11525 -5.10835 0.93215 121 121 109
-1.13745 -5.11250 0.93201 113 112 110
-1.15961 -5.11664 0.93188 119 118 117
-1.18173 -5.12078 0.93175 123 125 121
-1.20380 -5.12490 0.93162 120 125 119
-1.22583 -5.12902 0.93148 121 122 108
-1.24781 -5.13313 0.93135 121 120 106
-1.26976 -5.13723 0.93122 116 117 116
-1.29166 -5.14132 0.93109 120 122 112
0.71418 -4.74027 0.92084 163 158 152
0.68837 -4.74512 0.92071 167 165 168
0.66262 -4.74996 0.92057 163 161 165
0.63692 -4.75479 0.92044 165 165 169
0.61127 -4.75961 0.92031 158 161 167
0.58568 -4.76442 0.92018 165 161 162
0.56014 -4.76922 0.92005 168 169 164
0.53465 -4.77401 0.91992 173 169 167
0.50922 -4.77879 0.91980 164 163 150
0.48384 -4.78357 0.91967 169 171 149
0.40802 -4.79782 0.91928 164 161 160
0.38285 -4.80255 0.91915 175 169 157
0.35773 -4.80727 0.91903 169 167 157
0.33266 -4.81198 0.91890 165 162 151
0.30765 -4.81668 0.91877 164 159 153
0.28269 -4.82137 0.91865 169 163 149
0.25778 -4.82605 0.91852 163 160 154
0.23292 -4.83073 0.91839 158 157 158
0.20811 -4.83539 0.91827 160 154 153
0.18335 -4.84004 0.91814 159 147 145
0.15864 -4.84469 0.91802 163 152 148
0.13399 -4.84932 0.91789 163 163 149
0.10938 -4.85394 0.91777 161 163 151
0.08483 -4.85856 0.91764 166 160 155
0.06032 -4.86316 0.91752 165 159 156
0.03587 -4.86776 0.91739 161 156 156
0.01146 -4.87235 0.91727 164 159 157
-0.01289 -4.87693 0.91714 164 161 151
-0.03720 -4.88149 0.91702 158 154 143
-0.06145 -4.88605 0.91690 156 155 144
-0.08566 -4.89060 0.91678 159 161 147
-0.10982 -4.89514 0.91665 157 156 141
-0.22987 -4.91771 0.91604 137 139 138
-0.25374 -4.92219 0.91592 138 142 141
-0.27756 -4.92667 0.91580 135 142 139
-0.30132 -4.93114 0.91568 130 133 132
-0.32505 -4.93560 0.91556 132 134 130
-0.34872 -4.94004 0.91544 134 135 128
-0.37235 -4.94449 0.91532 134 137 131
-0.39593 -4.94892 0.91520 135 137 129
-0.41946 -4.95334 0.91508 137 141 130
-0.44294 -4.95775 0.91496 140 142 136
-0.46638 -4.96216 0.91484 143 143 139
-0.48977 -4.96656 0.91472 139 143 133
-0.51312 -4.97094 0.91460 133 131 135
-0.53641 -4.97532 0.91449 130 135 130
-0.55967 -4.97969 0.91437 130 128 129
-0.58287 -4.98405 0.91425 130 134 118
-0.60603 -4.98841 0.91413 132 133 121
-0.62914 -4.99275 0.91402 132 131 110
-0.65221 -4.99709 0.91390 134 131 123
-0.67523 -5.00141 0.91378 128 132 127
-0.69821 -5.00573 0.91367 128 134 126
-0.72114 -5.01004 0.91355 131 134 121
-0.74402 -5.01434 0.91343 130 133 124
-0.76686 -5.01863 0.91332 126 128 122
-0.78966 -5.02292 0.91320 126 126 126
-0.81241 -5.02719 0.91309 128 126 130
-0.83511 -5.03146 0.91297 123 123 126
-0.85777 -5.03572 0.91285 123 125 127
-0.88039 -5.03997 0.91274 128 130 127
-0.90296 -5.04421 0.91263 127 131 119
-0.92549 -5.04845 0.91251 122 124 114
-0.94797 -5.05267 0.91240 119 123 120
-0.97041 -5.05689 0.91228 122 128 122
-0.99280 -5.06110 0.91217 126 127 118
-1.01515 -5.06530 0.91206 127 128 118
-1.03746 -5.06949 0.91194 126 125 113
-1.05973 -5.07368 0.91183 128 128 118
-1.08195 -5.07785 0.91172 123 125 114
-1.10413 -5.08202 0.91160 124 124 118
-1.12626 -5.08618 0.91149 128 125 117
-1.14835 -5.09034 0.91138 124 123 113
-1.17040 -5.09448 0.91127 125 126 120
-1.19241 -5.09862 0.91116 126 128 124
-1.21437 -5.10274 0.91104 119 122 113
-1.23629 -5.10686 0.91093 120 121 109
-1.25817 -5.11098 0.91082 124 121 106
-1.28001 -5.11508 0.91071 121 120 117
-1.30180 -5.11918 0.91060 123 120 112
0.77085 -4.70358 0.89900 174 161 158
0.69354 -4.71820 0.89867 167 163 157
0.66788 -4.72305 0.89857 168 167 171
0.64227 -4.72789 0.89846 173 166 166
0.61671 -4.73272 0.89835 169 169 168
0.59121 -4.73754 0.89825 166 168 165
0.56576 -4.74235 0.89814 170 168 167
0.54037 -4.74715 0.89803 168 170 164
0.51502 -4.75194 0.89793 174 169 164
0.48973 -4.75672 0.89782 169 167 152
0.46449 -4.76149 0.89772 174 175 158
0.43931 -4.76625 0.89761 165 165 161
0.41417 -4.77100 0.89751 165 161 152
0.38909 -4.77574 0.89740 168 169 163
0.36406 -4.78047 0.89730 170 168 163
0.33908 -4.78519 0.89719 165 165 163
0.31415 -4.78990 0.89709 165 166 156
0.28927 -4.79460 0.89698 167 160 158
0.26445 -4.79930 0.89688 163 156 156
0.23967 -4.80398 0.89678 160 158 157
0.21495 -4.80865 0.89667 161 160 157
0.19028 -4.81332 0.89657 165 162 157
0.16565 -4.81797 0.89647 162 153 153
0.14108 -4.82261 0.89636 164 153 151
0.11656 -4.82725 0.89626 160 157 147
0.09209 -4.83187 0.89616 157 153 146
0.06766 -4.83649 0.89606 162 156 153
0.04329 -4.84110 0.89596 162 160 157
0.01897 -4.84569 0.89585 160 156 154
-0.00530 -4.85028 0.89575 161 156 156
-0.02953 -4.85486 0.89565 161 160 157
-0.05370 -4.85943 0.89555 160 158 151
-0.07783 -4.86399 0.89545 159 161 150
-0.10191 -4.86854 0.89535 160 161 152
-0.12594 -4.87308 0.89525 157 154 149
-0.14992 -4.87761 0.89515 153 151 143
-0.17385 -4.88214 0.89505 153 153 139
-0.24536 -4.89565 0.89475 135 137 136
-0.26910 -4.90014 0.89465 136 139 139
-0.29279 -4.90462 0.89455 135 138 133
-0.31643 -4.90909 0.89445 133 133 121
-0.34003 -4.91355 0.89435 136 137 128
-0.36358 -4.91800 0.89425 136 137 128
-0.38708 -4.92244 0.89416 132 134 130
-0.41054 -4.92687 0.89406 134 136 132
-0.43395 -4.93130 0.89396 138 139 135
-0.45731 -4.93571 0.89386 139 136 141
-0.48063 -4.94012 0.89377 136 132 144
-0.50390 -4.94452 0.89367 136 137 137
-0.52712 -4.94891 0.89357 133 132 132
-0.55030 -4.95329 0.89347 126 133 127
-0.57343 -4.95766 0.89338 134 135 126
-0.59652 -4.96202 0.89328 133 133 116
-0.61956 -4.96638 0.89319 136 133 127
-0.64255 -4.97073 0.89309 136 133 129
-0.66550 -4.97506 0.89299 136 130 128
-0.68840 -4.97939 0.89290 130 134 128
-0.71126 -4.98371 0.89280 127 132 125
-0.73408 -4.98802 0.89271 129 134 117
-0.75685 -4.99233 0.89261 129 132 124
-0.77957 -4.99662 0.89252 129 130 127
-0.80225 -5.00091 0.89242 130 132 128
-0.82488 -5.00519 0.89233 133 135 127
-0.84747 -5.00946 0.89223 126 129 122
-0.87002 -5.01372 0.89214 126 127 126
-0.89252 -5.01797 0.89204 131 131 125
-0.91498 -5.02222 0.89195 129 130 121
-0.93739 -5.02645 0.89186 125 128 122
-0.95977 -5.03068 0.89176 124 129 126
-0.98209 -5.03490 0.89167 124 128 123
-1.00438 -5.03911 0.89158 126 127 113
-1.02662 -5.04332 0.89148 127 131 117
-1.04881 -5.04751 0.89139 126 127 113
-1.07097 -5.05170 0.89130 129 130 124
-1.09308 -5.05588 0.89121 124 124 121
-1.11515 -5.06005 0.89111 125 124 126
-1.13717 -5.06421 0.89102 130 126 123
-1.15916 -5.06837 0.89093 128 124 115
-1.18110 -5.07251 0.89084 128 127 121
-1.20299 -5.07665 0.89075 127 121 126
-1.22485 -5.08078 0.89066 121 117 109
-1.24666 -5.08491 0.89056 122 121 113
-1.26844 -5.08902 0.89047 125 123 114
-1.29017 -5.09313 0.89038 123 123 116
-1.31185 -5.09723 0.89029 123 118 114
0.80149 -4.67193 0.87715 164 162 148
0.77571 -4.67683 0.87706 167 166 163
0.67310 -4.69633 0.87672 172 167 156
0.64758 -4.70118 0.87664 166 167 163
0.62212 -4.70602 0.87656 167 164 160
0.59670 -4.71085 0.87647 166 170 168
0.57134 -4.71567 0.87639 168 169 162
0.54604 -4.72048 0.87630 173 169 163
0.52078 -4.72528 0.87622 169 163 162
0.49558 -4.73007 0.87614 170 162 161
0.47043 -4.73485 0.87606 170 162 155
0.44533 -4.73962 0.87597 175 172 168
0.42028 -4.74438 0.87589 170 171 169
0.39528 -4.74913 0.87581 166 160 152
0.37034 -4.75387 0.87573 169 168 162
0.34544 -4.75860 0.87565 164 163 165
0.32060 -4.76332 0.87556 158 163 164
0.29581 -4.76804 0.87548 162 168 159
0.27107 -4.77274 0.87540 164 162 156
0.24638 -4.77743 0.87532 160 154 156
0.22174 -4.78211 0.87524 160 157 160
0.19715 -4.78679 0.87516 162 160 159
0.17261 -4.79145 0.87508 165 163 161
0.14812 -4.79610 0.87500 162 159 160
0.12368 -4.80075 0.87492 162 157 153
0.09929 -4.80538 0.87484 160 155 147
0.07495 -4.81001 0.87476 160 153 145
0.05066 -4.81463 0.87468 161 155 149
0.02642 -4.81923 0.87460 161 160 155
0.00223 -4.82383 0.87452 163 160 157
-0.02192 -4.82842 0.87444 160 156 159
-0.04601 -4.83300 0.87436 160 155 160
-0.07006 -4.83757 0.87428 161 158 155
-0.09406 -4.84213 0.87420 159 156 152
-0.11801 -4.84668 0.87412 156 152 150
-0.14191 -4.85123 0.87404 154 146 142
-0.16576 -4.85576 0.87396 155 149 139
-0.18957 -4.86028 0.87389 157 156 143
-0.21333 -4.86480 0.87381 156 153 141
-0.23704 -4.86930 0.87373 147 146 136
-0.26070 -4.87380 0.87365 139 136 138
-0.28431 -4.87829 0.87357 137 136 142
-0.30788 -4.88277 0.87350 138 139 132
-0.33140 -4.88724 0.87342 138 135 120
-0.35488 -4.89170 0.87334 139 141 133
-0.37830 -4.89615 0.87326 134 136 131
-0.40169 -4.90060 0.87319 129 131 124
-0.42502 -4.90503 0.87311 133 136 126
-0.44831 -4.90946 0.87303 138 139 134
-0.47155 -4.91388 0.87296 138 135 133
-0.49475 -4.91828 0.87288 133 125 130
-0.51790 -4.92268 0.87281 136 136 135
-0.54100 -4.92707 0.87273 135 134 132
-0.56406 -4.93146 0.87265 126 131 124
-0.58707 -4.93583 0.87258 135 133 123
-0.61004 -4.94020 0.87250 131 131 119
-0.63296 -4.94455 0.87243 142 136 133
-0.65584 -4.94890 0.87235 139 137 140
-0.67867 -4.95324 0.87228 134 133 130
-0.70146 -4.95757 0.87220 130 131 125
-0.72420 -4.96189 0.87213 127 129 126
-0.74690 -4.96621 0.87205 130 138 126
-0.76955 -4.97051 0.87198 129 135 126
-0.79216 -4.97481 0.87190 129 133 124
-0.81473 -4.97910 0.87183 130 133 123
-0.83725 -4.98338 0.87175 132 132 119
-0.85973 -4.98765 0.87168 127 130 116
-0.88216 -4.99191 0.87161 130 132 126
-0.90455 -4.99617 0.87153 134 132 125
-0.92689 -5.00042 0.87146 129 130 123
-0.94920 -5.00465 0.87139 127 130 127
-0.97146 -5.00888 0.87131 127 129 126
-0.99367 -5.01311 0.87124 125 127 122
-1.01585 -5.01732 0.87117 126 125 112
-1.03798 -5.02153 0.87109 129 131 116
-1.06006 -5.02572 0.87102 130 131 117
-1.08211 -5.02991 0.87095 129 129 120
-1.10411 -5.03410 0.87088 119 120 118
-1.12607 -5.03827 0.87080 123 125 123
-1.14799 -5.04243 0.87073 125 125 119
-1.16986 -5.04659 0.87066 126 126 112
-1.19170 -5.05074 0.87059 129 127 113
-1.21349 -5.05488 0.87052 123 115 120
-1.23524 -5.05902 0.87045 120 117 117
-1.25694 -5.06314 0.87037 125 124 119
-1.27861 -5.06726 0.87030 125 125 120
-1.30023 -5.07137 0.87023 125 125 117
-1.32182 -5.07547 0.87016 126 125 115
0.80622 -4.64536 0.85535 164 165 159
0.78053 -4.65027 0.85529 168 165 163
0.67828 -4.66981 0.85504 166 167 162
0.65285 -4.67467 0.85498 164 165 145
0.62748 -4.67952 0.85492 167 167 154
0.60215 -4.68436 0.85486 165 161 153
0.57688 -4.68919 0.85480 162 168 163
0.55166 -4.69401 0.85474 161 165 159
0.52650 -4.69882 0.85468 163 153 158
0.50138 -4.70362 0.85462 165 154 160
0.47632 -4.70841 0.85456 166 161 160
0.45130 -4.71319 0.85450 165 156 157
0.42634 -4.71796 0.85444 171 166 169
0.40143 -4.72272 0.85438 168 172 176
0.37657 -4.72747 0.85432 164 159 154
0.35176 -4.73221 0.85426 163 164 158
0.32701 -4.73694 0.85420 162 163 164
0.30230 -4.74166 0.85414 164 165 168
0.27764 -4.74637 0.85408 166 169 161
0.25304 -4.75108 0.85402 165 165 156
0.22848 -4.75577 0.85396 165 164 156
0.20397 -4.76045 0.85390 164 165 164
0.17952 -4.76512 0.85384 160 155 162
0.15511 -4.76979 0.85378 161 157 158
0.13075 -4.77444 0.85373 160 162 155
0.10644 -4.77909 0.85367 159 158 153
0.08219 -4.78372 0.85361 160 154 154
0.05798 -4.78835 0.85355 164 156 158
0.03381 -4.79297 0.85349 163 156 153
0.00970 -4.79757 0.85343 165 161 153
-0.01436 -4.80217 0.85338 168 166 155
-0.03838 -4.80676 0.85332 159 160 150
-0.06234 -4.81134 0.85326 158 156 150
-0.08626 -4.81591 0.85320 164 160 152
-0.11013 -4.82047 0.85315 161 157 151
-0.13396 -4.82503 0.85309 156 151 146
-0.15773 -4.82957 0.85303 153 147 136
-0.18146 -4.83410 0.85297 156 152 136
-0.20514 -4.83863 0.85292 158 157 142
-0.22877 -4.84315 0.85286 151 150 139
-0.25236 -4.84765 0.85280 146 143 137
-0.27590 -4.85215 0.85275 145 140 138
-0.29939 -4.85664 0.85269 143 140 140
-0.32284 -4.86112 0.85263 143 142 134
-0.34624 -4.86559 0.85258 144 138 131
-0.36959 -4.87005 0.85252 141 143 135
-0.39289 -4.87451 0.85247 134 137 131
-0.41615 -4.87895 0.85241 132 133 125
-0.43937 -4.88339 0.85235 137 137 126
-0.46254 -4.88782 0.85230 139 137 130
-0.48566 -4.89223 0.85224 138 139 126
-0.50874 -4.89665 0.85219 138 133 122
-0.53177 -4.90105 0.85213 139 140 133
-0.55475 -4.90544 0.85208 136 136 133
-0.57769 -4.90982 0.85202 131 132 125
-0.60059 -4.91420 0.85197 133 133 127
-0.62344 -4.91856 0.85191 128 131 126
-0.64625 -4.92292 0.85186 137 136 127
-0.66901 -4.92727 0.85180 137 136 129
-0.69172 -4.93161 0.85175 134 134 129
-0.71440 -4.93595 0.85169 131 131 123
-0.73702 -4.94027 0.85164 126 127 124
-0.75961 -4.94458 0.85158 130 134 130
-0.78215 -4.94889 0.85153 130 132 128
-0.80464 -4.95319 0.85147 127 132 126
-0.82709 -4.95748 0.85142 124 129 122
-0.84950 -4.96176 0.85137 125 127 120
-0.87187 -4.96604 0.85131 127 129 122
-0.89419 -4.97030 0.85126 133 132 128
-0.91647 -4.97456 0.85121 132 129 127
-0.93870 -4.97881 0.85115 125 127 124
-0.96089 -4.98305 0.85110 126 127 124
-0.98304 -4.98728 0.85105 128 128 127
-1.00515 -4.99151 0.85099 125 124 122
-1.02721 -4.99572 0.85094 124 122 113
-1.04923 -4.99993 0.85089 129 129 120
-1.07121 -5.00413 0.85083 129 131 123
-1.09315 -5.00832 0.85078 125 127 121
-1.11504 -5.01251 0.85073 117 120 111
-1.13690 -5.01668 0.85068 120 124 122
-1.15871 -5.02085 0.85062 123 126 125
-1.18047 -5.02501 0.85057 124 125 113
-1.20220 -5.02916 0.85052 126 127 112
-1.22389 -5.03331 0.85047 120 119 120
-1.24553 -5.03744 0.85041 122 126 120
-1.26713 -5.04157 0.85036 129 127 121
-1.28870 -5.04569 0.85031 126 126 120
-1.31022 -5.04980 0.85026 127 124 120
-1.33169 -5.05391 0.85021 123 119 115
-1.35313 -5.05800 0.85016 122 124 113
0.78531 -4.62392 0.83368 168 164 170
0.68343 -4.64349 0.83352 164 164 162
0.65809 -4.64836 0.83348 165 165 171
0.63280 -4.65322 0.83345 166 168 157
0.60757 -4.65807 0.83341 174 172 163
0.58238 -4.66291 0.83337 166 163 152
0.55725 -4.66774 0.83333 163 160 161
0.53217 -4.67255 0.83329 162 164 161
0.50714 -4.67736 0.83325 163 156 156
0.48216 -4.68216 0.83321 164 156 158
0.45724 -4.68695 0.83318 163 161 157
0.43236 -4.69173 0.83314 162 158 153
0.40754 -4.69650 0.83310 167 166 166
0.38276 -4.70126 0.83306 162 162 178
0.35804 -4.70601 0.83303 161 154 154
0.33336 -4.71075 0.83299 162 164 151
0.30874 -4.71548 0.83295 163 161 158
0.28417 -4.72020 0.83291 168 165 166
0.25965 -4.72491 0.83287 167 163 163
0.23517 -4.72961 0.83284 166 164 158
0.21075 -4.73431 0.83280 167 167 157
0.18637 -4.73899 0.83276 165 168 166
0.16205 -4.74366 0.83273 161 159 164
0.13777 -4.74833 0.83269 161 164 157
0.11355 -4.75298 0.83265 160 163 148
0.08937 -4.75763 0.83261 156 156 151
0.06524 -4.76226 0.83258 156 155 157
0.04116 -4.76689 0.83254 162 157 163
0.01712 -4.77151 0.83250 162 158 155
-0.00686 -4.77611 0.83247 164 160 149
-0.03080 -4.78071 0.83243 166 161 144
-0.05468 -4.78530 0.83239 159 157 138
-0.07853 -4.78988 0.83236 158 158 141
-0.10232 -4.79446 0.83232 162 161 149
-0.12606 -4.79902 0.83228 161 160 148
-0.14976 -4.80357 0.83225 154 154 138
-0.17341 -4.80811 0.83221 149 151 134
-0.19702 -4.81265 0.83218 155 156 139
-0.22057 -4.81717 0.83214 158 156 139
-0.24408 -4.82169 0.83210 150 148 133
-0.26755 -4.82620 0.83207 144 143 135
-0.29096 -4.83070 0.83203 148 145 139
-0.31433 -4.83519 0.83200 147 147 137
-0.33766 -4.83967 0.83196 146 145 133
-0.36093 -4.84414 0.83193 146 144 131
-0.38417 -4.84860 0.83189 142 143 128
-0.40735 -4.85306 0.83185 137 133 125
-0.43049 -4.85751 0.83182 139 138 135
-0.45359 -4.86194 0.83178 137 138 139
-0.47664 -4.86637 0.83175 141 136 132
-0.49964 -4.87079 0.83171 142 141 133
-0.52260 -4.87520 0.83168 144 146 130
-0.54551 -4.87960 0.83164 140 136 128
-0.56838 -4.88400 0.83161 136 139 132
-0.59121 -4.88838 0.83157 133 135 130
-0.61399 -4.89276 0.83154 136 137 129
-0.63672 -4.89713 0.83150 135 138 128
-0.65941 -4.90149 0.83147 128 130 124
-0.68206 -4.90584 0.83143 132 131 120
-0.70466 -4.91018 0.83140 136 132 125
-0.72722 -4.91451 0.83137 133 131 122
-0.74973 -4.91884 0.83133 126 128 119
-0.77220 -4.92316 0.83130 130 128 125
-0.79463 -4.92747 0.83126 129 132 122
-0.81701 -4.93177 0.83123 125 128 119
-0.83935 -4.93606 0.83119 120 121 114
-0.86165 -4.94034 0.83116 121 126 116
-0.88390 -4.94462 0.83113 125 128 121
-0.90611 -4.94888 0.83109 131 130 124
-0.92828 -4.95314 0.83106 128 127 124
-0.95041 -4.95739 0.83102 122 123 121
-0.97249 -4.96164 0.83099 123 123 121
-0.99453 -4.96587 0.83096 125 121 126
-1.01653 -4.97010 0.83092 121 117 122
-1.03848 -4.97431 0.83089 118 118 117
-1.06039 -4.97853 0.83086 124 126 126
-1.08226 -4.98273 0.83082 130 133 132
-1.10409 -4.98692 0.83079 130 134 132
-1.12588 -4.99111 0.83076 126 126 119
-1.14763 -4.99529 0.83072 126 122 126
-1.16933 -4.99945 0.83069 123 128 136
-1.19099 -5.00362 0.83066 122 125 118
-1.21262 -5.00777 0.83062 121 120 111
-1.23420 -5.01192 0.83059 116 119 121
-1.25574 -5.01606 0.83056 121 123 126
-1.27723 -5.02019 0.83052 129 130 126
-1.29869 -5.02431 0.83049 123 124 124
-1.32011 -5.02842 0.83046 125 124 127
-1.34149 -5.03253 0.83043 122 117 118
-1.36282 -5.03663 0.83039 117 119 118
0.79006 -4.59776 0.81223 162 165 148
0.76460 -4.60268 0.81221 172 172 163
0.66328 -4.62225 0.81215 170 164 162
0.63808 -4.62711 0.81213 170 167 170
0.61294 -4.63197 0.81211 166 165 162
0.58784 -4.63682 0.81210 167 167 163
0.56279 -4.64165 0.81208 160 154 153
0.53780 -4.64648 0.81206 167 158 157
0.51286 -4.65130 0.81205 167 162 159
0.48797 -4.65611 0.81203 163 162 154
0.46313 -4.66091 0.81201 163 165 154
0.43833 -4.66569 0.81200 161 164 155
0.41360 -4.67047 0.81198 169 169 152
0.38891 -4.67524 0.81197 171 168 159
0.36427 -4.68000 0.81195 159 144 160
0.33968 -4.68475 0.81193 160 155 157
0.31514 -4.68949 0.81192 164 165 155
0.29065 -4.69422 0.81190 162 159 158
0.26621 -4.69894 0.81188 167 165 162
0.24182 -4.70365 0.81187 164 161 157
0.21747 -4.70835 0.81185 164 160 151
0.19318 -4.71305 0.81184 169 167 153
0.16894 -4.71773 0.81182 168 166 162
0.14474 -4.72240 0.81180 163 165 162
0.12060 -4.72707 0.81179 161 168 159
0.09650 -4.73172 0.81177 160 160 150
0.07245 -4.73636 0.81176 160 158 150
0.04845 -4.74100 0.81174 159 159 153
0.02449 -4.74563 0.81172 160 158 157
0.00059 -4.75024 0.81171 159 159 155
-0.02327 -4.75485 0.81169 160 160 153
-0.04708 -4.75945 0.81168 162 158 146
-0.07084 -4.76404 0.81166 160 157 142
-0.09456 -4.76862 0.81165 156 157 143
-0.11823 -4.77319 0.81163 155 155 148
-0.14185 -4.77776 0.81162 157 155 144
-0.16542 -4.78231 0.81160 153 154 129
-0.18895 -4.78685 0.81158 149 152 129
-0.21243 -4.79139 0.81157 155 156 136
-0.23586 -4.79591 0.81155 158 155 133
-0.25925 -4.80043 0.81154 148 144 131
-0.28259 -4.80494 0.81152 144 143 136
-0.30589 -4.80944 0.81151 149 148 143
-0.32914 -4.81393 0.81149 150 149 139
-0.35234 -4.81841 0.81148 145 146 134
-0.37550 -4.82289 0.81146 144 146 133
-0.39861 -4.82735 0.81145 144 145 133
-0.42168 -4.83180 0.81143 143 134 132
-0.44470 -4.83625 0.81142 138 137 132
-0.46768 -4.84069 0.81140 128 133 138
-0.49061 -4.84512 0.81139 137 135 140
-0.51350 -4.84954 0.81137 142 141 140
-0.53634 -4.85395 0.81136 140 143 130
-0.55914 -4.85835 0.81134 136 133 123
-0.58189 -4.86275 0.81133 138 139 137
-0.60460 -4.86714 0.81131 138 144 142
-0.62726 -4.87151 0.81130 139 143 132
-0.64988 -4.87588 0.81128 139 138 133
-0.67246 -4.88024 0.81127 131 127 123
-0.69499 -4.88459 0.81125 133 133 122
-0.71748 -4.88894 0.81124 137 133 127
-0.73992 -4.89327 0.81122 133 132 126
-0.76233 -4.89760 0.81121 131 130 123
-0.78468 -4.90192 0.81119 130 132 126
-0.80700 -4.90623 0.81118 127 134 119
-0.82927 -4.91053 0.81116 126 130 115
-0.85150 -4.91482 0.81115 122 123 109
-0.87369 -4.91911 0.81113 123 125 115
-0.89583 -4.92339 0.81112 126 127 120
-0.91793 -4.92766 0.81110 133 130 125
-0.93999 -4.93192 0.81109 130 131 128
-0.96201 -4.93617 0.81107 124 128 125
-0.98398 -4.94041 0.81106 127 128 125
-1.00591 -4.94465 0.81105 129 130 124
-1.02780 -4.94888 0.81103 122 126 118
-1.04965 -4.95310 0.81102 118 121 116
-1.07145 -4.95731 0.81100 125 129 125
-1.09322 -4.96151 0.81099 132 133 127
-1.11494 -4.96571 0.81097 130 131 125
-1.13662 -4.96990 0.81096 129 129 120
-1.15827 -4.97407 0.81095 128 127 122
-1.17986 -4.97825 0.81093 123 127 124
-1.20142 -4.98241 0.81092 121 125 114
-1.22294 -4.98657 0.81090 120 121 102
-1.24442 -4.99072 0.81089 121 121 117
-1.26585 -4.99486 0.81087 120 121 127
-1.28725 -4.99899 0.81086 128 133 133
-1.30860 -5.00311 0.81085 120 120 125
-1.32992 -5.00723 0.81083 120 123 123
-1.35119 -5.01134 0.81082 118 118 115
-1.37243 -5.01544 0.81080 112 115 109
0.76940 -4.57672 0.79094 171 171 158
0.74408 -4.58163 0.79095 175 179 157
0.64333 -4.60120 0.79097 175 163 159
0.61827 -4.60606 0.79098 173 163 164
0.59326 -4.61092 0.79098 168 162 160
0.56830 -4.61577 0.79099 165 168 161
0.54339 -4.62060 0.79099 162 158 149
0.51853 -4.62543 0.79100 160 149 151
0.49373 -4.63024 0.79100 163 155 158
0.46897 -4.63505 0.79101 162 161 154
0.44427 -4.63985 0.79101 162 165 153
0.41961 -4.64464 0.79102 161 162 151
0.39500 -4.64941 0.79102 167 171 153
0.37045 -4.65418 0.79103 161 165 148
0.34594 -4.65894 0.79103 155 145 145
0.32149 -4.66369 0.79104 161 159 159
0.29708 -4.66843 0.79104 162 167 162
0.27272 -4.67316 0.79105 160 158 159
0.24841 -4.67788 0.79105 165 167 165
0.22415 -4.68259 0.79106 159 161 155
0.19994 -4.68729 0.79106 160 162 149
0.17577 -4.69198 0.79107 168 169 152
0.15166 -4.69666 0.79107 170 166 158
0.12759 -4.70133 0.79108 162 160 157
0.10358 -4.70600 0.79108 157 158 157
0.07961 -4.71065 0.79109 159 161 154
0.05568 -4.71530 0.79109 165 165 153
0.03181 -4.71993 0.79110 164 161 152
0.00798 -4.72456 0.79110 159 157 151
-0.01580 -4.72918 0.79110 158 157 152
-0.03953 -4.73378 0.79111 160 160 153
-0.06322 -4.73838 0.79111 163 162 149
-0.08685 -4.74297 0.79112 162 163 145
-0.11044 -4.74755 0.79112 154 154 147
-0.13399 -4.75213 0.79113 151 150 147
-0.15749 -4.75669 0.79113 156 154 145
-0.18094 -4.76124 0.79114 157 156 139
-0.20434 -4.76579 0.79114 154 157 137
-0.22770 -4.77032 0.79115 154 159 137
-0.25102 -4.77485 0.79115 154 156 133
-0.27428 -4.77936 0.79116 147 148 135
-0.29750 -4.78387 0.79116 143 146 139
-0.32068 -4.78837 0.79117 147 147 144
-0.34381 -4.79286 0.79117 148 147 143
-0.36689 -4.79735 0.79118 144 144 136
-0.38993 -4.80182 0.79118 144 147 137
-0.41293 -4.80628 0.79119 145 145 141
-0.43588 -4.81074 0.79119 147 141 142
-0.45878 -4.81519 0.79119 138 135 131
-0.48164 -4.81963 0.79120 131 131 130
-0.50446 -4.82406 0.79120 136 134 143
-0.52723 -4.82848 0.79121 140 140 143
-0.54995 -4.83289 0.79121 140 141 134
-0.57264 -4.83729 0.79122 138 142 132
-0.59527 -4.84169 0.79122 143 143 138
-0.61787 -4.84608 0.79123 141 143 141
-0.64042 -4.85046 0.79123 138 142 136
-0.66293 -4.85483 0.79124 141 140 136
-0.68539 -4.85919 0.79124 137 131 116
-0.70781 -4.86354 0.79125 135 135 124
-0.73018 -4.86788 0.79125 135 132 130
-0.75252 -4.87222 0.79125 132 133 126
-0.77481 -4.87655 0.79126 133 133 121
-0.79706 -4.88087 0.79126 133 136 127
-0.81926 -4.88518 0.79127 127 130 120
-0.84142 -4.88948 0.79127 127 129 119
-0.86354 -4.89378 0.79128 130 135 120
-0.88562 -4.89806 0.79128 130 138 118
-0.90765 -4.90234 0.79129 128 129 116
-0.92964 -4.90661 0.79129 132 129 127
-0.95159 -4.91087 0.79130 129 132 130
-0.97350 -4.91513 0.79130 125 131 125
-0.99537 -4.91937 0.79130 130 135 125
-1.01719 -4.92361 0.79131 130 135 123
-1.03898 -4.92784 0.79131 123 128 121
-1.06072 -4.93206 0.79132 122 126 118
-1.08242 -4.93628 0.79132 126 127 119
-1.10408 -4.94048 0.79133 131 130 119
-1.12570 -4.94468 0.79133 130 126 118
-1.14727 -4.94887 0.79134 130 130 115
-1.16881 -4.95305 0.79134 124 123 107
-1.19031 -4.95722 0.79134 119 119 101
-1.21176 -4.96139 0.79135 118 123 115
-1.23317 -4.96555 0.79135 121 126 109
-1.25455 -4.96970 0.79136 126 120 110
-1.27588 -4.97384 0.79136 119 119 106
-1.29717 -4.97797 0.79137 122 120 108
-1.31843 -4.98210 0.79137 122 120 120
-1.33964 -4.98622 0.79137 123 122 125
-1.36081 -4.99033 0.79138 120 121 119
-1.38195 -4.99443 0.79138 118 119 110
0.77417 -4.55095 0.76983 168 168 167
0.74894 -4.55588 0.76986 175 171 165
0.72376 -4.56079 0.76989 175 176 158
0.62356 -4.58035 0.76999 172 157 165
0.59864 -4.58521 0.77002 172 164 169
0.57376 -4.59007 0.77005 173 164 163
0.54894 -4.59491 0.77007 171 169 161
0.52417 -4.59975 0.77010 167 167 150
0.49945 -4.60457 0.77012 156 153 152
0.47478 -4.60939 0.77015 162 160 163
0.45015 -4.61419 0.77018 162 157 160
0.42558 -4.61899 0.77020 162 157 158
0.40106 -4.62377 0.77023 163 160 153
0.37659 -4.62855 0.77026 164 162 156
0.35216 -4.63332 0.77028 152 149 140
0.32779 -4.63807 0.77031 155 154 145
0.30346 -4.64282 0.77033 166 163 155
0.27919 -4.64756 0.77036 165 168 157
0.25496 -4.65229 0.77038 159 158 154
0.23078 -4.65701 0.77041 161 166 163
0.20665 -4.66172 0.77044 158 157 154
0.18256 -4.66642 0.77046 159 163 153
0.15853 -4.67111 0.77049 166 166 153
0.13454 -4.67579 0.77051 168 165 153
0.11060 -4.68046 0.77054 162 160 151
0.08671 -4.68512 0.77056 155 155 150
0.06287 -4.68978 0.77059 155 160 152
0.03907 -4.69442 0.77061 162 166 153
0.01532 -4.69906 0.77064 163 163 150
-0.00838 -4.70368 0.77066 155 156 150
-0.03203 -4.70830 0.77069 154 157 152
-0.05564 -4.71291 0.77071 164 165 151
-0.07920 -4.71751 0.77074 168 167 149
-0.10272 -4.72210 0.77076 161 160 145
-0.12619 -4.72668 0.77079 151 151 145
-0.14961 -4.73125 0.77081 150 152 145
-0.17299 -4.73581 0.77084 156 155 149
-0.19632 -4.74036 0.77086 157 153 149
-0.21960 -4.74491 0.77089 153 152 142
-0.24284 -4.74944 0.77091 147 151 139
-0.26603 -4.75397 0.77094 145 148 138
-0.28918 -4.75849 0.77096 149 149 140
-0.31228 -4.76300 0.77099 149 154 137
-0.33534 -4.76750 0.77101 147 147 140
-0.35835 -4.77199 0.77103 148 146 140
-0.38132 -4.77647 0.77106 146 143 134
-0.40424 -4.78094 0.77108 145 144 133
-0.42711 -4.78541 0.77111 140 143 142
-0.44995 -4.78987 0.77113 142 143 144
-0.47274 -4.79431 0.77116 143 140 137
-0.49548 -4.79875 0.77118 141 142 135
-0.51818 -4.80318 0.77120 140 136 142
-0.54084 -4.80760 0.77123 138 140 141
-0.56345 -4.81202 0.77125 139 140 142
-0.58602 -4.81642 0.77128 141 143 141
-0.60854 -4.82082 0.77130 146 143 135
-0.63102 -4.82521 0.77132 142 143 139
-0.65346 -4.82959 0.77135 134 136 132
-0.67585 -4.83396 0.77137 137 141 127
-0.69820 -4.83832 0.77139 138 140 125
-0.72051 -4.84267 0.77142 140 141 129
-0.74278 -4.84702 0.77144 136 135 125
-0.76500 -4.85135 0.77146 130 132 124
-0.78718 -4.85568 0.77149 134 132 120
-0.80932 -4.86000 0.77151 134 135 125
-0.83141 -4.86432 0.77154 131 132 125
-0.85347 -4.86862 0.77156 132 134 126
-0.87548 -4.87292 0.77158 134 139 130
-0.89744 -4.87720 0.77161 130 138 125
-0.91937 -4.88148 0.77163 129 127 120
-0.94126 -4.88576 0.77165 133 129 125
-0.96310 -4.89002 0.77167 135 136 127
-0.98490 -4.89427 0.77170 132 136 128
-1.00666 -4.89852 0.77172 130 134 129
-1.02838 -4.90276 0.77174 126 130 127
-1.05006 -4.90699 0.77177 121 125 124
-1.07169 -4.91121 0.77179 122 123 116
-1.09329 -4.91543 0.77181 125 124 110
-1.11484 -4.91963 0.77184 126 131 113
-1.13636 -4.92383 0.77186 128 129 117
-1.15783 -4.92802 0.77188 131 131 122
-1.17926 -4.93221 0.77190 125 122 105
-1.20066 -4.93638 0.77193 120 120 105
-1.22201 -4.94055 0.77195 115 119 117
-1.24332 -4.94471 0.77197 121 125 119
-1.26459 -4.94886 0.77199 131 130 114
-1.28582 -4.95300 0.77202 123 125 104
-1.30702 -4.95714 0.77204 121 116 106
-1.32817 -4.96127 0.77206 123 118 117
-1.34928 -4.96539 0.77208 125 126 126
-1.37035 -4.96950 0.77211 117 118 122
-1.39139 -4.97361 0.77213 119 117 118
0.75376 -4.53031 0.74893 170 171 160
0.72867 -4.53523 0.74897 168 169 162
0.70363 -4.54014 0.74902 172 173 154
0.60397 -4.55969 0.74921 166 156 163
0.57919 -4.56455 0.74926 171 163 170
0.55445 -4.56941 0.74931 173 163 163
0.52976 -4.57425 0.74935 170 163 159
0.50512 -4.57908 0.74940 169 168 151
0.48054 -4.58391 0.74945 166 166 153
0.45600 -4.58872 0.74949 167 166 163
0.43151 -4.59352 0.74954 170 162 163
0.40707 -4.59832 0.74959 170 166 169
0.38268 -4.60310 0.74963 166 163 158
0.35834 -4.60788 0.74968 169 158 158
0.33404 -4.61264 0.74973 160 153 143
0.30980 -4.61740 0.74977 161 161 148
0.28560 -4.62215 0.74982 166 165 151
0.26146 -4.62688 0.74987 164 164 151
0.23736 -4.63161 0.74991 161 162 154
0.21331 -4.63633 0.74996 160 162 157
0.18930 -4.64104 0.75000 162 157 151
0.16535 -4.64574 0.75005 163 161 154
0.14144 -4.65043 0.75009 169 165 159
0.11758 -4.65511 0.75014 169 167 156
0.09377 -4.65978 0.75019 164 165 151
0.07000 -4.66444 0.75023 156 154 146
0.04628 -4.66909 0.75028 154 155 148
0.02261 -4.67374 0.75032 158 159 150
-0.00101 -4.67837 0.75037 160 161 144
-0.02459 -4.68300 0.75041 153 156 147
-0.04812 -4.68761 0.75046 153 157 149
-0.07161 -4.69222 0.75050 163 167 152
-0.09505 -4.69682 0.75055 166 169 151
-0.11844 -4.70141 0.75059 157 158 142
-0.14179 -4.70599 0.75064 150 153 141
-0.16509 -4.71056 0.75068 152 156 145
-0.18834 -4.71512 0.75072 155 155 151
-0.21155 -4.71967 0.75077 152 150 149
-0.23472 -4.72422 0.75081 149 144 139
-0.25784 -4.72875 0.75086 150 145 136
-0.28091 -4.73328 0.75090 151 150 139
-0.30394 -4.73780 0.75095 153 151 143
-0.32692 -4.74231 0.75099 150 149 138
-0.34986 -4.74681 0.75103 147 146 139
-0.37276 -4.75130 0.75108 151 154 142
-0.39561 -4.75578 0.75112 152 151 137
-0.41841 -4.76025 0.75116 149 146 135
-0.44118 -4.76472 0.75121 141 145 141
-0.46389 -4.76918 0.75125 139 144 141
-0.48657 -4.77362 0.75129 140 141 143
-0.50920 -4.77806 0.75134 143 143 139
-0.53178 -4.78249 0.75138 141 141 139
-0.55432 -4.78692 0.75142 134 136 139
-0.57682 -4.79133 0.75147 137 137 142
-0.59928 -4.79573 0.75151 138 143 134
-0.62169 -4.80013 0.75155 135 138 126
-0.64406 -4.80452 0.75159 137 139 134
-0.66638 -4.80890 0.75164 133 135 127
-0.68867 -4.81327 0.75168 136 135 116
-0.71091 -4.81763 0.75172 136 137 133
-0.73311 -4.82199 0.75176 144 148 140
-0.75526 -4.82633 0.75181 139 139 128
-0.77737 -4.83067 0.75185 128 124 123
-0.79944 -4.83500 0.75189 125 122 117
-0.82147 -4.83932 0.75193 129 126 123
-0.84346 -4.84364 0.75198 130 129 128
-0.86540 -4.84794 0.75202 132 132 127
-0.88731 -4.85224 0.75206 134 136 131
-0.90917 -4.85653 0.75210 129 134 129
-0.93099 -4.86081 0.75214 128 132 124
-0.95277 -4.86508 0.75218 128 132 126
-0.97450 -4.86934 0.75223 130 135 128
-0.99620 -4.87360 0.75227 132 135 126
-1.01785 -4.87785 0.75231 131 129 126
-1.03947 -4.88209 0.75235 130 127 128
-1.06104 -4.88632 0.75239 126 127 127
-1.08257 -4.89054 0.75243 127 129 126
-1.10406 -4.89476 0.75247 127 127 125
-1.12551 -4.89897 0.75251 123 126 120
-1.14693 -4.90317 0.75255 124 130 121
-1.16830 -4.90736 0.75260 126 130 122
-1.18963 -4.91154 0.75264 126 130 116
-1.21092 -4.91572 0.75268 123 124 115
-1.23217 -4.91989 0.75272 113 116 115
-1.25338 -4.92405 0.75276 120 126 123
-1.27455 -4.92820 0.75280 123 128 125
-1.29568 -4.93235 0.75284 119 123 114
-1.31677 -4.93649 0.75288 121 123 109
-1.33782 -4.94062 0.75292 127 118 107
-1.35884 -4.94474 0.75296 124 126 111
-1.37981 -4.94885 0.75300 117 117 111
-1.40075 -4.95296 0.75304 119 124 112
0.73354 -4.50986 0.72821 169 169 155
0.70859 -4.51478 0.72828 166 167 157
0.68368 -4.51969 0.72835 171 173 150
0.65883 -4.52459 0.72842 159 162 149
0.58457 -4.53923 0.72862 165 160 160
0.55992 -4.54409 0.72869 172 166 165
0.53531 -4.54894 0.72876 174 163 159
0.51076 -4.55378 0.72883 169 164 162
0.48626 -4.55861 0.72889 170 169 157
0.46180 -4.56343 0.72896 179 173 154
0.43739 -4.56824 0.72903 174 169 164
0.41304 -4.57305 0.72909 177 170 171
0.38873 -4.57784 0.72916 175 170 167
0.36447 -4.58262 0.72923 163 161 150
0.34026 -4.58740 0.72930 168 161 154
0.31609 -4.59216 0.72936 165 163 143
0.29198 -4.59692 0.72943 165 167 149
0.26791 -4.60166 0.72949 160 164 151
0.24389 -4.60640 0.72956 159 161 153
0.21992 -4.61112 0.72963 163 165 159
0.19600 -4.61584 0.72969 162 165 161
0.17212 -4.62055 0.72976 164 165 156
0.14829 -4.62525 0.72982 165 163 157
0.12451 -4.62993 0.72989 170 166 165
0.10077 -4.63461 0.72995 170 166 160
0.07709 -4.63928 0.73002 168 162 155
0.05344 -4.64395 0.73008 161 152 148
0.02985 -4.64860 0.73015 158 155 148
0.00630 -4.65324 0.73021 160 159 150
-0.01720 -4.65787 0.73028 160 157 144
-0.04066 -4.66250 0.73034 158 156 145
-0.06407 -4.66711 0.73041 157 157 144
-0.08743 -4.67172 0.73047 159 157 148
-0.11075 -4.67632 0.73054 160 158 153
-0.13402 -4.68091 0.73060 156 158 148
-0.15725 -4.68549 0.73066 155 158 145
-0.18043 -4.69006 0.73073 156 156 147
-0.20356 -4.69462 0.73079 156 156 154
-0.22666 -4.69917 0.73086 151 152 149
-0.24970 -4.70372 0.73092 148 149 135
-0.27270 -4.70825 0.73098 153 152 138
-0.29566 -4.71278 0.73105 157 153 144
-0.31857 -4.71729 0.73111 154 153 145
-0.34144 -4.72180 0.73117 152 149 139
-0.36426 -4.72630 0.73123 150 147 140
-0.38704 -4.73079 0.73130 154 155 146
-0.40977 -4.73528 0.73136 155 153 137
-0.43246 -4.73975 0.73142 153 151 133
-0.45511 -4.74421 0.73148 152 154 135
-0.47771 -4.74867 0.73155 143 145 132
-0.50027 -4.75312 0.73161 138 141 143
-0.52279 -4.75756 0.73167 144 145 144
-0.54526 -4.76199 0.73173 142 148 142
-0.56769 -4.76641 0.73179 135 139 136
-0.59008 -4.77082 0.73186 139 143 139
-0.61242 -4.77523 0.73192 140 147 134
-0.63472 -4.77963 0.73198 134 139 130
-0.65698 -4.78402 0.73204 136 138 133
-0.67920 -4.78840 0.73210 142 148 134
-0.70137 -4.79277 0.73216 141 138 127
-0.72350 -4.79713 0.73222 136 134 133
-0.74559 -4.80149 0.73228 143 145 137
-0.76763 -4.80583 0.73234 139 133 130
-0.78964 -4.81017 0.73241 129 128 124
-0.81160 -4.81450 0.73247 127 126 119
-0.83352 -4.81882 0.73253 132 133 124
-0.85540 -4.82314 0.73259 128 129 131
-0.87724 -4.82744 0.73265 130 125 124
-0.89903 -4.83174 0.73271 136 135 128
-0.92079 -4.83603 0.73277 137 136 129
-0.94250 -4.84031 0.73283 134 131 123
-0.96418 -4.84458 0.73289 132 129 125
-0.98581 -4.84885 0.73295 132 130 128
-1.00740 -4.85311 0.73300 132 128 123
-1.02895 -4.85735 0.73306 133 127 120
-1.05046 -4.86160 0.73312 133 129 124
-1.07193 -4.86583 0.73318 129 131 125
-1.09336 -4.87005 0.73324 131 135 126
-1.11475 -4.87427 0.73330 131 134 125
-1.13609 -4.87848 0.73336 124 127 123
-1.15740 -4.88268 0.73342 128 130 120
-1.17867 -4.88687 0.73348 129 132 114
-1.19990 -4.89106 0.73353 127 136 123
-1.22109 -4.89524 0.73359 129 132 124
-1.24224 -4.89941 0.73365 124 126 119
-1.26335 -4.90357 0.73371 127 128 124
-1.28442 -4.90772 0.73377 125 126 123
-1.30545 -4.91187 0.73383 116 114 123
-1.32644 -4.91601 0.73388 121 125 118
-1.34740 -4.92014 0.73394 131 129 115
-1.36831 -4.92426 0.73400 127 128 116
-1.38919 -4.92838 0.73406 128 124 114
-1.41003 -4.93249 0.73411 124 121 114
0.81328 -4.46982 0.70733 171 168 166
0.78826 -4.47478 0.70742 168 160 160
0.76329 -4.47973 0.70751 170 165 157
0.73838 -4.48467 0.70760 166 166 149
0.71351 -4.48959 0.70769 168 169 155
0.68869 -4.49451 0.70778 167 169 159
0.66392 -4.49942 0.70787 163 164 154
0.63920 -4.50432 0.70796 170 171 164
0.61454 -4.50920 0.70805 169 165 164
0.58992 -4.51408 0.70814 171 166 166
0.56535 -4.51895 0.70822 174 170 163
0.54083 -4.52381 0.70831 176 175 165
0.51636 -4.52866 0.70840 172 168 158
0.49193 -4.53350 0.70849 165 169 169
0.46756 -4.53833 0.70857 171 173 173
0.44324 -4.54315 0.70866 180 177 162
0.41896 -4.54796 0.70875 175 172 168
0.39473 -4.55276 0.70884 172 163 170
0.37055 -4.55755 0.70892 168 161 157
0.34642 -4.56233 0.70901 161 162 147
0.32234 -4.56710 0.70910 168 164 152
0.29831 -4.57187 0.70918 169 164 146
0.27432 -4.57662 0.70927 170 166 148
0.25038 -4.58136 0.70935 160 161 147
0.22649 -4.58610 0.70944 159 159 155
0.20264 -4.59082 0.70953 163 162 163
0.17884 -4.59554 0.70961 165 168 166
0.15509 -4.60024 0.70970 166 167 160
0.13139 -4.60494 0.70978 164 163 155
0.10773 -4.60963 0.70987 167 165 161
0.08412 -4.61431 0.70995 167 164 162
0.06055 -4.61898 0.71004 168 161 157
0.03704 -4.62364 0.71012 161 155 152
0.01356 -4.62829 0.71020 165 164 151
-0.00986 -4.63293 0.71029 170 169 158
-0.03324 -4.63756 0.71037 165 163 156
-0.05658 -4.64218 0.71046 159 160 154
-0.07987 -4.64680 0.71054 158 162 156
-0.10311 -4.65140 0.71062 161 159 157
-0.12631 -4.65600 0.71071 160 157 159
-0.14946 -4.66059 0.71079 157 158 155
-0.17257 -4.66517 0.71087 161 159 153
-0.19563 -4.66974 0.71096 162 159 151
-0.21865 -4.67430 0.71104 157 154 145
-0.24162 -4.67885 0.71112 152 147 138
-0.26455 -4.68339 0.71120 148 150 134
-0.28743 -4.68793 0.71128 151 152 145
-0.31027 -4.69245 0.71137 156 151 152
-0.33307 -4.69697 0.71145 156 157 152
-0.35582 -4.70148 0.71153 156 155 149
-0.37853 -4.70598 0.71161 158 155 149
-0.40119 -4.71047 0.71169 157 154 149
-0.42381 -4.71495 0.71177 156 153 147
-0.44639 -4.71943 0.71186 154 153 144
-0.46892 -4.72389 0.71194 156 154 140
-0.49141 -4.72835 0.71202 150 149 138
-0.51386 -4.73279 0.71210 143 144 140
-0.53626 -4.73723 0.71218 147 143 142
-0.55862 -4.74166 0.71226 143 140 143
-0.58094 -4.74609 0.71234 144 145 138
-0.60322 -4.75050 0.71242 143 147 137
-0.62545 -4.75491 0.71250 141 145 134
-0.64764 -4.75930 0.71258 132 130 137
-0.66979 -4.76369 0.71266 136 132 134
-0.69190 -4.76807 0.71274 146 146 141
-0.71396 -4.77244 0.71282 144 145 144
-0.73598 -4.77681 0.71289 140 136 141
-0.75796 -4.78116 0.71297 138 137 141
-0.77990 -4.78551 0.71305 135 131 130
-0.80180 -4.78985 0.71313 132 130 123
-0.82365 -4.79418 0.71321 132 131 125
-0.84547 -4.79850 0.71329 132 137 124
-0.86724 -4.80282 0.71337 127 130 131
-0.88897 -4.80712 0.71344 129 131 130
-0.91066 -4.81142 0.71352 136 136 128
-0.93231 -4.81571 0.71360 137 134 122
-0.95392 -4.81999 0.71368 134 130 115
-0.97549 -4.82426 0.71375 133 128 120
-0.99701 -4.82853 0.71383 127 127 126
-1.01850 -4.83279 0.71391 125 128 123
-1.03995 -4.83704 0.71399 130 128 121
-1.06136 -4.84128 0.71406 130 127 122
-1.08272 -4.84551 0.71414 126 128 122
-1.10405 -4.84974 0.71422 125 134 124
-1.12534 -4.85396 0.71429 132 138 128
-1.14658 -4.85817 0.71437 133 137 129
-1.16779 -4.86237 0.71444 135 139 130
-1.18896 -4.86656 0.71452 130 133 119
-1.21009 -4.87075 0.71460 123 126 124
-1.23117 -4.87493 0.71467 127 126 120
-1.25222 -4.87910 0.71475 124 126 111
-1.27324 -4.88326 0.71482 123 124 121
-1.29421 -4.88742 0.71490 124 123 122
-1.31514 -4.89157 0.71497 131 129 128
-1.33603 -4.89571 0.71505 129 134 128
-1.35689 -4.89984 0.71512 121 124 120
-1.37771 -4.90396 0.71520 120 121 122
-1.39849 -4.90808 0.71527 121 121 124
-1.41923 -4.91219 0.71535 125 128 127
0.79289 -4.44976 0.68692 167 163 165
0.76801 -4.45471 0.68703 170 164 166
0.74318 -4.45966 0.68714 177 175 162
0.71839 -4.46459 0.68725 173 175 159
0.69366 -4.46952 0.68736 168 167 152
0.66898 -4.47443 0.68747 165 157 157
0.64434 -4.47934 0.68758 157 154 151
0.61976 -4.48423 0.68769 165 164 160
0.59522 -4.48912 0.68780 173 176 171
0.57074 -4.49400 0.68790 182 181 176
0.54630 -4.49886 0.68801 190 186 177
0.52191 -4.50372 0.68812 184 186 172
0.49757 -4.50856 0.68823 174 179 166
0.47328 -4.51340 0.68834 168 172 163
0.44904 -4.51823 0.68844 169 171 167
0.42484 -4.52305 0.68855 174 172 167
0.40070 -4.52786 0.68866 172 171 169
0.37660 -4.53265 0.68876 169 160 163
0.35255 -4.53744 0.68887 167 163 160
0.32854 -4.54222 0.68897 165 166 158
0.30459 -4.54699 0.68908 169 166 158
0.28068 -4.55175 0.68919 174 173 162
0.25682 -4.55651 0.68929 171 169 153
0.23300 -4.56125 0.68940 162 158 146
0.20924 -4.56598 0.68950 162 157 157
0.18552 -4.57070 0.68961 161 157 162
0.16184 -4.57542 0.68971 164 162 162
0.13822 -4.58012 0.68982 166 161 160
0.11464 -4.58482 0.68992 163 162 154
0.09110 -4.58950 0.69002 165 164 159
0.06761 -4.59418 0.69013 166 165 158
0.04417 -4.59885 0.69023 166 161 155
0.02077 -4.60351 0.69034 158 158 153
-0.00258 -4.60816 0.69044 168 170 154
-0.02588 -4.61280 0.69054 174 174 166
-0.04914 -4.61743 0.69064 168 169 166
-0.07236 -4.62205 0.69075 163 165 160
-0.09553 -4.62667 0.69085 160 160 161
-0.11865 -4.63127 0.69095 158 156 161
-0.14173 -4.63587 0.69105 155 155 163
-0.16476 -4.64045 0.69116 154 156 158
-0.18775 -4.64503 0.69126 162 160 155
-0.21070 -4.64960 0.69136 165 161 154
-0.23360 -4.65416 0.69146 158 155 142
-0.25646 -4.65871 0.69156 152 147 131
-0.27927 -4.66325 0.69166 146 145 133
-0.30204 -4.66779 0.69176 148 149 149
-0.32476 -4.67231 0.69186 160 155 155
-0.34744 -4.67683 0.69196 160 158 153
-0.37008 -4.68134 0.69206 152 150 151
-0.39267 -4.68583 0.69216 153 148 154
-0.41522 -4.69033 0.69226 155 148 154
-0.43773 -4.69481 0.69236 152 151 155
-0.46019 -4.69928 0.69246 146 150 150
-0.48261 -4.70374 0.69256 144 147 141
-0.50499 -4.70820 0.69266 149 152 148
-0.52733 -4.71265 0.69276 142 145 132
-0.54962 -4.71709 0.69286 144 144 140
-0.57187 -4.72152 0.69295 141 140 142
-0.59408 -4.72594 0.69305 149 149 144
-0.61624 -4.73035 0.69315 141 143 138
-0.63837 -4.73476 0.69325 140 138 140
-0.66045 -4.73916 0.69335 144 144 142
-0.68249 -4.74354 0.69344 144 143 146
-0.70448 -4.74792 0.69354 150 150 143
-0.72644 -4.75230 0.69364 140 140 143
-0.74835 -4.75666 0.69373 138 136 137
-0.77023 -4.76102 0.69383 134 133 130
-0.79206 -4.76536 0.69393 129 129 124
-0.81385 -4.76970 0.69402 132 130 119
-0.83560 -4.77403 0.69412 134 134 134
-0.85731 -4.77836 0.69422 134 137 130
-0.87897 -4.78267 0.69431 138 140 130
-0.90060 -4.78698 0.69441 137 141 134
-0.92219 -4.79127 0.69450 130 133 129
-0.94373 -4.79556 0.69460 128 126 126
-0.96524 -4.79985 0.69469 130 128 125
-0.98670 -4.80412 0.69479 133 130 124
-1.00812 -4.80839 0.69488 125 126 123
-1.02951 -4.81265 0.69498 122 125 121
-1.05085 -4.81690 0.69507 133 130 124
-1.07216 -4.82114 0.69517 135 130 126
-1.09342 -4.82537 0.69526 125 123 120
-1.11465 -4.82960 0.69535 122 126 123
-1.13583 -4.83382 0.69545 132 138 132
-1.15698 -4.83803 0.69554 131 136 124
-1.17809 -4.84223 0.69563 128 128 127
-1.19916 -4.84643 0.69573 125 120 125
-1.22018 -4.85061 0.69582 120 117 125
-1.24117 -4.85479 0.69591 130 124 124
-1.26213 -4.85896 0.69601 129 127 124
-1.28304 -4.86313 0.69610 127 119 121
-1.30391 -4.86729 0.69619 122 119 117
-1.32475 -4.87143 0.69628 125 124 116
-1.34554 -4.87558 0.69637 123 122 114
-1.36630 -4.87971 0.69647 113 115 105
-1.38702 -4.88384 0.69656 120 120 115
-1.40770 -4.88795 0.69665 122 118 114
-1.42835 -4.89206 0.69674 126 121 120
0.79749 -4.42492 0.66657 158 149 151
0.77269 -4.42988 0.66670 173 170 169
0.74794 -4.43483 0.66683 176 171 172
0.72324 -4.43977 0.66696 179 172 160
0.69860 -4.44471 0.66709 175 172 164
0.67400 -4.44963 0.66722 168 162 152
0.64945 -4.45454 0.66735 172 160 154
0.62495 -4.45944 0.66747 167 157 150
0.60049 -4.46434 0.66760 159 163 155
0.57609 -4.46922 0.66773 171 175 157
0.55173 -4.47409 0.66786 173 173 173
0.52743 -4.47896 0.66799 180 179 178
0.50317 -4.48381 0.66811 178 180 171
0.47896 -4.48865 0.66824 172 175 166
0.45480 -4.49349 0.66837 170 168 158
0.43068 -4.49831 0.66849 166 165 153
0.40662 -4.50313 0.66862 172 167 164
0.38260 -4.50794 0.66875 170 170 165
0.35863 -4.51273 0.66887 171 169 161
0.33470 -4.51752 0.66900 168 168 162
0.31083 -4.52230 0.66912 167 168 166
0.28700 -4.52707 0.66925 164 163 158
0.26321 -4.53182 0.66937 167 170 165
0.23948 -4.53657 0.66950 166 170 158
0.21579 -4.54131 0.66962 163 160 155
0.19215 -4.54604 0.66974 167 162 158
0.16855 -4.55077 0.66987 161 159 160
0.14500 -4.55548 0.66999 158 158 160
0.12149 -4.56018 0.67011 163 161 162
0.09804 -4.56488 0.67024 162 162 158
0.07462 -4.56956 0.67036 162 162 158
0.05126 -4.57424 0.67048 163 164 153
0.02793 -4.57890 0.67061 164 160 153
0.00466 -4.58356 0.67073 157 158 151
-0.01857 -4.58821 0.67085 163 167 154
-0.04176 -4.59285 0.67097 165 164 161
-0.06490 -4.59748 0.67109 163 164 161
-0.08799 -4.60210 0.67121 166 164 160
-0.11104 -4.60671 0.67133 166 157 162
-0.13405 -4.61131 0.67145 160 154 157
-0.15701 -4.61591 0.67158 156 154 158
-0.17993 -4.62050 0.67170 157 156 160
-0.20280 -4.62507 0.67182 163 160 154
-0.22563 -4.62964 0.67193 163 162 149
-0.24842 -4.63420 0.67205 158 159 143
-0.27116 -4.63875 0.67217 154 155 135
-0.29386 -4.64329 0.67229 150 150 138
-0.31651 -4.64782 0.67241 152 152 152
-0.33912 -4.65235 0.67253 162 156 150
