ply
format ascii 1.0
element face 0
property list uchar int vertex_indices
element vertex 1245
property float x
property float y
property float z
property uchar diffuse_red
property uchar diffuse_green
property uchar diffuse_blue
end_header
-0.00654 -0.39185 -0.69336 254 254 254
0.00011 -0.39459 -0.68988 254 254 254
0.00675 -0.39732 -0.68640 254 254 254
0.01338 -0.40005 -0.68293 254 254 254
0.02000 -0.40277 -0.67947 254 254 254
0.02661 -0.40549 -0.67601 254 254 254
0.03321 -0.40821 -0.67255 254 254 254
0.03980 -0.41092 -0.66910 254 254 254
0.04638 -0.41363 -0.66566 254 254 254
0.05296 -0.41633 -0.66222 254 254 254
0.05952 -0.41903 -0.65878 254 254 254
0.06607 -0.42173 -0.65535 254 254 254
0.07262 -0.42442 -0.65193 254 254 254
0.07915 -0.42711 -0.64851 254 254 254
0.08568 -0.42979 -0.64509 254 254 254
0.09219 -0.43248 -0.64168 254 254 254
-0.14704 -0.34499 -0.75686 252 251 252
-0.14022 -0.34779 -0.75330 252 252 252
-0.13341 -0.35058 -0.74974 252 252 252
-0.12660 -0.35337 -0.74619 252 252 252
-0.11981 -0.35616 -0.74264 252 252 252
-0.11303 -0.35894 -0.73910 252 252 252
-0.10626 -0.36172 -0.73556 252 252 252
-0.09949 -0.36449 -0.73203 252 252 252
-0.09274 -0.36726 -0.72850 252 252 252
-0.08600 -0.37003 -0.72498 252 252 253
-0.07926 -0.37279 -0.72146 253 253 253
-0.07254 -0.37555 -0.71795 253 253 253
-0.06583 -0.37831 -0.71444 253 253 253
-0.05912 -0.38106 -0.71094 253 253 253
-0.05243 -0.38380 -0.70744 253 253 254
-0.04574 -0.38655 -0.70395 254 254 254
-0.03907 -0.38929 -0.70046 254 254 254
-0.03240 -0.39202 -0.69698 254 254 254
-0.02575 -0.39475 -0.69351 254 254 254
-0.01910 -0.39748 -0.69003 254 254 254
-0.01246 -0.40020 -0.68657 254 254 254
-0.00583 -0.40292 -0.68311 254 254 254
0.00078 -0.40564 -0.67965 254 254 254
0.00739 -0.40835 -0.67620 254 254 254
0.01399 -0.41106 -0.67275 254 254 254
0.02058 -0.41376 -0.66931 254 254 254
0.23913 -0.50343 -0.55515 254 254 254
0.24540 -0.50600 -0.55188 254 254 254
0.25167 -0.50857 -0.54861 254 254 254
0.25792 -0.51114 -0.54534 254 254 254
-0.15928 -0.35082 -0.75330 252 251 251
-0.15248 -0.35361 -0.74975 252 251 251
-0.14568 -0.35639 -0.74621 252 251 251
-0.13889 -0.35917 -0.74267 252 252 252
-0.13211 -0.36194 -0.73913 252 252 252
-0.12534 -0.36471 -0.73560 252 252 252
-0.11858 -0.36748 -0.73208 252 252 252
-0.11183 -0.37024 -0.72856 252 252 252
-0.10509 -0.37300 -0.72505 252 252 252
-0.09836 -0.37575 -0.72154 252 252 252
-0.09163 -0.37850 -0.71804 252 252 253
-0.08492 -0.38125 -0.71454 253 253 253
-0.07822 -0.38399 -0.71105 253 253 253
-0.07153 -0.38673 -0.70756 253 253 253
-0.06485 -0.38946 -0.70407 253 253 253
-0.05817 -0.39219 -0.70060 253 253 254
-0.05151 -0.39492 -0.69712 254 254 254
-0.04486 -0.39764 -0.69365 254 254 254
-0.03821 -0.40036 -0.69019 254 254 254
0.22621 -0.50854 -0.55236 254 254 254
0.23247 -0.51111 -0.54909 254 254 254
0.23873 -0.51366 -0.54583 254 254 254
0.24497 -0.51622 -0.54258 254 254 254
0.25120 -0.51877 -0.53933 254 254 254
0.25743 -0.52132 -0.53608 254 254 254
-0.22618 -0.33430 -0.77823 251 250 251
-0.21931 -0.33710 -0.77466 251 250 251
-0.21244 -0.33990 -0.77108 251 250 251
-0.20558 -0.34270 -0.76752 251 250 251
-0.19874 -0.34549 -0.76396 251 250 251
-0.19190 -0.34828 -0.76040 251 250 251
-0.18508 -0.35107 -0.75685 251 250 251
-0.17826 -0.35385 -0.75330 251 250 251
-0.17145 -0.35662 -0.74976 252 250 251
-0.16466 -0.35940 -0.74623 252 251 251
-0.15787 -0.36217 -0.74270 252 251 251
-0.15109 -0.36493 -0.73917 252 251 251
-0.14433 -0.36769 -0.73565 252 251 252
-0.13757 -0.37045 -0.73214 252 252 252
-0.13082 -0.37320 -0.72863 252 252 252
-0.12408 -0.37595 -0.72512 252 252 252
-0.11735 -0.37870 -0.72162 252 252 252
-0.11064 -0.38144 -0.71813 252 252 252
-0.10393 -0.38417 -0.71464 252 252 252
-0.09723 -0.38691 -0.71115 252 252 252
-0.09054 -0.38964 -0.70767 253 252 253
-0.08386 -0.39236 -0.70420 253 253 253
-0.07719 -0.39508 -0.70073 253 253 253
-0.07053 -0.39780 -0.69726 253 253 253
-0.06388 -0.40051 -0.69380 253 253 253
-0.05724 -0.40322 -0.69035 253 253 254
-0.05060 -0.40593 -0.68690 254 254 254
0.21337 -0.51363 -0.54957 254 254 254
0.21962 -0.51618 -0.54632 254 254 254
0.22586 -0.51872 -0.54308 254 254 254
0.23210 -0.52127 -0.53983 254 254 254
0.23832 -0.52381 -0.53659 254 254 254
-0.31432 -0.30918 -0.81414 251 249 251
-0.30735 -0.31202 -0.81052 251 249 251
-0.30039 -0.31485 -0.80691 251 249 251
-0.29343 -0.31768 -0.80330 251 249 251
-0.28649 -0.32051 -0.79969 251 249 251
-0.27956 -0.32333 -0.79609 251 249 251
-0.27263 -0.32614 -0.79250 251 249 251
-0.26572 -0.32896 -0.78891 251 249 251
-0.25882 -0.33176 -0.78533 251 250 251
-0.25192 -0.33457 -0.78175 251 250 251
-0.24504 -0.33737 -0.77817 251 250 251
-0.23817 -0.34016 -0.77461 251 250 251
-0.23131 -0.34296 -0.77104 251 250 251
-0.22445 -0.34574 -0.76748 251 250 251
-0.21761 -0.34853 -0.76393 251 250 251
-0.21078 -0.35131 -0.76038 251 250 251
-0.20395 -0.35408 -0.75684 251 250 251
-0.19714 -0.35686 -0.75331 251 250 251
-0.19034 -0.35962 -0.74977 251 250 251
-0.18354 -0.36239 -0.74625 251 250 251
-0.17676 -0.36515 -0.74272 251 250 251
-0.16999 -0.36790 -0.73921 252 250 251
-0.16322 -0.37066 -0.73570 252 251 251
-0.15647 -0.37340 -0.73219 252 251 251
-0.14972 -0.37615 -0.72869 252 251 251
-0.14299 -0.37889 -0.72519 252 251 252
-0.13626 -0.38162 -0.72170 252 252 252
-0.12955 -0.38436 -0.71821 252 252 252
-0.12284 -0.38708 -0.71473 252 252 252
-0.11614 -0.38981 -0.71126 252 252 252
-0.10946 -0.39253 -0.70778 252 252 252
-0.10278 -0.39525 -0.70432 252 252 252
-0.09611 -0.39796 -0.70086 252 252 252
-0.08945 -0.40067 -0.69740 252 252 253
-0.08281 -0.40337 -0.69395 253 253 253
-0.07617 -0.40607 -0.69050 253 253 253
-0.06954 -0.40877 -0.68706 253 253 253
-0.06292 -0.41146 -0.68362 253 253 253
0.20061 -0.51868 -0.54681 254 254 254
0.20685 -0.52122 -0.54357 254 254 254
0.21308 -0.52375 -0.54033 254 254 254
-0.31913 -0.31798 -0.80678 251 249 251
-0.31218 -0.32080 -0.80318 251 249 251
-0.30524 -0.32362 -0.79958 251 249 251
-0.29831 -0.32643 -0.79599 251 249 251
-0.29139 -0.32924 -0.79240 251 249 251
-0.28448 -0.33204 -0.78882 251 249 251
-0.27758 -0.33484 -0.78525 251 249 251
-0.27069 -0.33763 -0.78168 251 249 251
-0.26381 -0.34043 -0.77812 251 249 251
-0.25694 -0.34321 -0.77456 251 249 251
-0.25008 -0.34600 -0.77100 251 250 251
-0.24323 -0.34877 -0.76745 251 250 251
-0.23639 -0.35155 -0.76391 251 250 251
-0.22956 -0.35432 -0.76037 251 250 251
-0.22274 -0.35709 -0.75684 251 250 251
-0.21593 -0.35985 -0.75331 251 250 251
-0.20913 -0.36261 -0.74978 251 250 251
-0.20234 -0.36536 -0.74627 251 250 251
-0.19556 -0.36812 -0.74275 251 250 251
-0.18879 -0.37086 -0.73924 251 250 251
-0.18203 -0.37361 -0.73574 251 250 251
-0.17527 -0.37635 -0.73224 251 250 251
-0.16853 -0.37908 -0.72875 252 250 251
-0.16180 -0.38181 -0.72526 252 251 251
-0.15508 -0.38454 -0.72178 252 251 251
-0.14836 -0.38726 -0.71830 252 251 251
-0.14166 -0.38998 -0.71483 252 251 252
-0.13497 -0.39270 -0.71136 252 252 252
-0.12828 -0.39541 -0.70790 252 252 252
-0.12161 -0.39812 -0.70444 252 252 252
-0.11494 -0.40082 -0.70098 252 252 252
-0.10829 -0.40352 -0.69754 252 252 252
-0.10164 -0.40622 -0.69409 252 252 252
-0.09501 -0.40891 -0.69065 252 252 253
-0.08838 -0.41160 -0.68722 253 253 253
-0.08176 -0.41429 -0.68379 253 253 253
-0.07515 -0.41697 -0.68037 253 253 253
0.19415 -0.52623 -0.54083 254 254 254
-0.32389 -0.32671 -0.79947 250 249 251
-0.31696 -0.32952 -0.79589 250 249 251
-0.31005 -0.33232 -0.79231 250 249 251
-0.30314 -0.33511 -0.78874 251 249 251
-0.29625 -0.33790 -0.78517 251 249 251
-0.28936 -0.34069 -0.78161 251 249 251
-0.28248 -0.34347 -0.77806 251 249 251
-0.27562 -0.34625 -0.77451 251 249 251
-0.26876 -0.34902 -0.77096 251 249 251
-0.26191 -0.35179 -0.76742 251 249 251
-0.25508 -0.35456 -0.76389 251 249 251
-0.24825 -0.35732 -0.76036 251 249 251
-0.24143 -0.36008 -0.75683 251 250 251
-0.23463 -0.36283 -0.75331 251 250 251
-0.22783 -0.36558 -0.74980 251 250 251
-0.22104 -0.36833 -0.74629 251 250 251
-0.21426 -0.37107 -0.74278 251 250 251
-0.20750 -0.37381 -0.73928 251 250 251
-0.20074 -0.37654 -0.73579 251 250 251
-0.19399 -0.37927 -0.73230 251 250 251
-0.18725 -0.38200 -0.72881 251 250 251
-0.18052 -0.38472 -0.72533 251 250 251
-0.17380 -0.38744 -0.72186 252 250 251
-0.16709 -0.39016 -0.71839 252 250 251
-0.16039 -0.39287 -0.71492 252 250 251
-0.15370 -0.39557 -0.71146 252 251 251
-0.14702 -0.39828 -0.70801 252 251 251
-0.14035 -0.40098 -0.70456 252 251 251
-0.13368 -0.40367 -0.70111 252 252 252
-0.12703 -0.40636 -0.69767 252 252 252
-0.12039 -0.40905 -0.69424 252 252 252
-0.11375 -0.41174 -0.69081 252 252 252
-0.10713 -0.41442 -0.68738 252 252 252
-0.10052 -0.41709 -0.68396 252 252 252
-0.09391 -0.41976 -0.68054 253 252 253
0.18153 -0.53121 -0.53811 254 254 254
-0.32862 -0.33538 -0.79222 250 249 251
-0.32172 -0.33816 -0.78866 250 249 251
-0.31482 -0.34094 -0.78510 250 249 251
-0.30794 -0.34372 -0.78155 250 249 251
-0.30107 -0.34650 -0.77800 250 249 251
-0.29420 -0.34926 -0.77446 251 249 251
-0.28735 -0.35203 -0.77092 251 249 251
-0.28051 -0.35479 -0.76739 251 249 251
-0.27368 -0.35755 -0.76386 251 249 251
-0.26685 -0.36030 -0.76034 251 249 251
-0.26004 -0.36305 -0.75682 251 249 251
-0.25323 -0.36580 -0.75331 251 249 251
-0.24644 -0.36854 -0.74981 251 249 251
-0.23966 -0.37127 -0.74630 251 249 251
-0.23288 -0.37401 -0.74281 251 249 251
-0.22612 -0.37674 -0.73932 251 250 251
-0.21936 -0.37946 -0.73583 251 250 251
-0.21261 -0.38219 -0.73235 251 250 251
-0.20588 -0.38490 -0.72887 251 250 251
-0.19915 -0.38762 -0.72540 251 250 251
-0.19244 -0.39033 -0.72194 251 250 251
-0.18573 -0.39303 -0.71847 251 250 251
-0.17903 -0.39574 -0.71502 251 250 251
-0.17234 -0.39843 -0.71157 252 250 251
-0.16566 -0.40113 -0.70812 252 250 251
-0.15900 -0.40382 -0.70468 252 250 251
-0.15234 -0.40651 -0.70124 252 251 251
-0.14569 -0.40919 -0.69781 252 251 251
-0.13905 -0.41187 -0.69438 252 251 251
-0.13241 -0.41455 -0.69096 252 251 252
-0.12579 -0.41722 -0.68754 252 252 252
-0.11918 -0.41989 -0.68413 252 252 252
-0.11258 -0.42255 -0.68072 252 252 252
-0.10598 -0.42521 -0.67732 252 252 252
0.16899 -0.53616 -0.53541 254 254 254
-0.33331 -0.34398 -0.78502 250 249 251
-0.32643 -0.34674 -0.78148 250 249 251
-0.31956 -0.34951 -0.77794 250 249 251
-0.31270 -0.35227 -0.77441 250 249 251
-0.30585 -0.35502 -0.77088 250 249 251
-0.29901 -0.35778 -0.76736 250 249 251
-0.29218 -0.36053 -0.76384 250 249 251
-0.28536 -0.36327 -0.76033 251 249 251
-0.27855 -0.36601 -0.75682 251 249 251
-0.27175 -0.36875 -0.75332 251 249 251
-0.26496 -0.37148 -0.74982 251 249 251
-0.25818 -0.37421 -0.74632 251 249 251
-0.25141 -0.37693 -0.74284 251 249 251
-0.24465 -0.37965 -0.73935 251 249 251
-0.23789 -0.38237 -0.73588 251 249 251
-0.23115 -0.38508 -0.73240 251 249 251
-0.22442 -0.38779 -0.72893 251 249 251
-0.21769 -0.39050 -0.72547 251 250 251
-0.21098 -0.39320 -0.72201 251 250 251
-0.20428 -0.39590 -0.71856 251 250 251
-0.19758 -0.39859 -0.71511 251 250 251
-0.19090 -0.40128 -0.71167 251 250 251
-0.18422 -0.40397 -0.70823 251 250 251
-0.17755 -0.40665 -0.70480 251 250 251
-0.17090 -0.40933 -0.70137 251 250 251
-0.16425 -0.41200 -0.69794 252 250 251
-0.15761 -0.41467 -0.69452 252 251 251
-0.15098 -0.41734 -0.69111 252 251 251
-0.14436 -0.42001 -0.68770 252 251 251
-0.13775 -0.42267 -0.68430 252 251 251
-0.13115 -0.42532 -0.68090 252 251 252
-0.12456 -0.42797 -0.67750 252 252 252
-0.11798 -0.43062 -0.67411 252 252 252
-0.33797 -0.35251 -0.77788 250 249 251
-0.33111 -0.35526 -0.77436 250 249 251
-0.32426 -0.35800 -0.77084 250 249 251
-0.31743 -0.36075 -0.76733 250 249 251
-0.31060 -0.36349 -0.76382 250 249 251
-0.30378 -0.36622 -0.76031 250 249 251
-0.29698 -0.36896 -0.75681 251 249 251
-0.29018 -0.37168 -0.75332 251 249 251
-0.28339 -0.37441 -0.74983 251 249 251
-0.27661 -0.37713 -0.74634 251 249 251
-0.26984 -0.37984 -0.74286 251 249 251
-0.26309 -0.38256 -0.73939 251 249 251
-0.25634 -0.38526 -0.73592 251 249 251
-0.24960 -0.38797 -0.73246 251 249 251
-0.24287 -0.39067 -0.72900 251 249 251
-0.23615 -0.39337 -0.72554 251 249 251
-0.22944 -0.39606 -0.72209 251 249 251
-0.22273 -0.39875 -0.71865 251 250 251
-0.21604 -0.40143 -0.71521 251 250 251
-0.20936 -0.40412 -0.71177 251 250 251
-0.20269 -0.40679 -0.70834 251 250 251
-0.19602 -0.40947 -0.70491 251 250 250
-0.18937 -0.41214 -0.70149 251 250 251
-0.18273 -0.41480 -0.69808 251 250 251
-0.17609 -0.41747 -0.69467 251 250 251
-0.16946 -0.42013 -0.69126 252 250 251
-0.16285 -0.42278 -0.68786 252 250 251
-0.15624 -0.42543 -0.68446 252 251 251
-0.14964 -0.42808 -0.68107 252 251 251
-0.14306 -0.43072 -0.67768 252 251 251
-0.13648 -0.43336 -0.67430 252 251 251
-0.34258 -0.36097 -0.77080 250 249 251
-0.33575 -0.36371 -0.76729 250 249 251
-0.32893 -0.36644 -0.76379 250 249 251
-0.32211 -0.36916 -0.76030 250 249 251
-0.31531 -0.37189 -0.75681 250 249 251
-0.30852 -0.37461 -0.75332 250 249 251
-0.30173 -0.37732 -0.74984 250 249 251
-0.29496 -0.38003 -0.74636 251 249 251
-0.28819 -0.38274 -0.74289 251 249 251
-0.28144 -0.38544 -0.73943 251 249 251
-0.27469 -0.38814 -0.73596 251 249 251
-0.26795 -0.39084 -0.73251 251 249 251
-0.26123 -0.39353 -0.72906 251 249 251
-0.25451 -0.39622 -0.72561 251 249 251
-0.24780 -0.39890 -0.72217 251 249 251
-0.24110 -0.40159 -0.71873 251 249 251
-0.23442 -0.40426 -0.71530 251 249 251
-0.22774 -0.40694 -0.71187 251 250 251
-0.22107 -0.40961 -0.70845 251 250 251
-0.21441 -0.41227 -0.70503 251 250 251
-0.20776 -0.41493 -0.70162 251 250 251
-0.20111 -0.41759 -0.69821 251 250 250
-0.19448 -0.42025 -0.69481 251 250 250
-0.18786 -0.42290 -0.69141 251 250 251
-0.18124 -0.42554 -0.68802 251 250 251
-0.17464 -0.42819 -0.68463 251 250 251
-0.16805 -0.43083 -0.68125 252 250 251
-0.16146 -0.43346 -0.67787 252 251 251
-0.15488 -0.43609 -0.67449 252 251 251
-0.34036 -0.37209 -0.76028 250 249 251
-0.33356 -0.37480 -0.75680 250 249 251
-0.32677 -0.37751 -0.75332 250 249 251
-0.31999 -0.38022 -0.74985 250 249 251
-0.31321 -0.38292 -0.74638 250 249 251
-0.30645 -0.38562 -0.74292 251 249 251
-0.29970 -0.38832 -0.73946 251 249 251
-0.29296 -0.39101 -0.73601 251 249 251
-0.28622 -0.39370 -0.73256 251 249 251
-0.27950 -0.39638 -0.72912 251 249 251
-0.27279 -0.39906 -0.72568 251 249 251
-0.26608 -0.40174 -0.72224 251 249 251
-0.25939 -0.40441 -0.71882 251 249 251
-0.25270 -0.40708 -0.71539 251 249 251
-0.24602 -0.40974 -0.71197 251 249 251
-0.23936 -0.41240 -0.70856 251 249 251
-0.23270 -0.41506 -0.70515 251 249 251
-0.22605 -0.41771 -0.70175 251 250 251
-0.21941 -0.42036 -0.69835 251 250 251
-0.21278 -0.42301 -0.69495 251 250 251
-0.20616 -0.42565 -0.69156 251 250 250
-0.19955 -0.42829 -0.68817 251 250 250
-0.19295 -0.43093 -0.68479 251 250 251
-0.18636 -0.43356 -0.68142 251 250 251
-0.17978 -0.43619 -0.67805 251 250 251
-0.17320 -0.43881 -0.67468 252 250 251
-0.34493 -0.38041 -0.75332 250 249 251
-0.33815 -0.38311 -0.74986 250 249 251
-0.33138 -0.38580 -0.74640 250 249 251
-0.32463 -0.38849 -0.74295 250 249 251
-0.31788 -0.39118 -0.73950 250 249 251
-0.31114 -0.39386 -0.73605 250 249 251
-0.30441 -0.39654 -0.73261 251 249 251
-0.29769 -0.39922 -0.72918 251 249 251
-0.29098 -0.40189 -0.72575 251 249 251
-0.28427 -0.40456 -0.72232 251 249 251
-0.27758 -0.40722 -0.71890 251 249 251
-0.27090 -0.40988 -0.71548 251 249 251
-0.26423 -0.41254 -0.71207 251 249 251
-0.25756 -0.41519 -0.70867 251 249 251
-0.25091 -0.41784 -0.70527 251 249 251
-0.24426 -0.42048 -0.70187 251 249 251
-0.23763 -0.42312 -0.69848 251 249 251
-0.23100 -0.42576 -0.69509 251 250 251
-0.22438 -0.42840 -0.69171 251 250 251
-0.21778 -0.43103 -0.68833 251 250 251
-0.21118 -0.43365 -0.68496 251 250 251
-0.20459 -0.43628 -0.68159 251 250 251
-0.19801 -0.43890 -0.67823 251 250 251
-0.34947 -0.38866 -0.74642 250 249 251
-0.34271 -0.39135 -0.74297 250 249 251
-0.33597 -0.39403 -0.73953 250 249 251
-0.32923 -0.39670 -0.73610 250 249 251
-0.32250 -0.39937 -0.73266 250 249 251
-0.31579 -0.40204 -0.72924 250 249 251
-0.30908 -0.40470 -0.72581 250 249 251
-0.30238 -0.40736 -0.72240 251 249 251
-0.29569 -0.41002 -0.71898 251 249 251
-0.28901 -0.41267 -0.71558 251 249 251
-0.28234 -0.41532 -0.71217 251 249 251
-0.27568 -0.41796 -0.70878 251 249 251
-0.26903 -0.42060 -0.70538 251 249 251
-0.26239 -0.42324 -0.70199 251 249 251
-0.25575 -0.42587 -0.69861 251 249 251
-0.24913 -0.42850 -0.69523 251 249 251
-0.24252 -0.43113 -0.69186 251 249 251
-0.23591 -0.43375 -0.68849 251 249 251
-0.22932 -0.43637 -0.68512 251 250 251
-0.22273 -0.43898 -0.68176 251 250 251
-0.21615 -0.44160 -0.67841 251 250 251
-0.35397 -0.39686 -0.73957 250 249 250
-0.34724 -0.39952 -0.73614 250 249 250
-0.34051 -0.40219 -0.73271 250 249 251
-0.33380 -0.40485 -0.72930 250 249 251
-0.32710 -0.40750 -0.72588 250 249 251
-0.32040 -0.41015 -0.72247 250 249 251
-0.31371 -0.41280 -0.71907 250 249 251
-0.30704 -0.41544 -0.71567 250 249 251
-0.30037 -0.41808 -0.71227 251 249 251
-0.29371 -0.42072 -0.70888 251 249 251
-0.28707 -0.42335 -0.70550 251 249 251
-0.28043 -0.42598 -0.70212 251 249 251
-0.27380 -0.42861 -0.69874 251 249 251
-0.26718 -0.43123 -0.69537 251 249 251
-0.26056 -0.43385 -0.69200 251 249 251
-0.25396 -0.43646 -0.68864 251 249 251
-0.24737 -0.43907 -0.68528 251 249 251
-0.24079 -0.44168 -0.68193 251 249 251
-0.23421 -0.44428 -0.67858 251 250 251
-0.40435 -0.44482 -0.70297 250 249 250
-0.40853 -0.45258 -0.69646 250 249 250
-0.41267 -0.46029 -0.69000 250 249 250
-0.43647 -0.46034 -0.69344 250 249 250
-0.41679 -0.46794 -0.68360 250 249 250
-0.41025 -0.47046 -0.68032 250 249 250
-0.45362 -0.46292 -0.69358 250 249 250
-0.44705 -0.46545 -0.69030 250 249 250
-0.44049 -0.46798 -0.68703 250 249 250
-0.42088 -0.47553 -0.67723 250 249 250
-0.41435 -0.47804 -0.67398 250 249 250
0.51344 -0.33220 -0.68239 254 254 254
0.52022 -0.33506 -0.67874 254 254 254
0.52698 -0.33792 -0.67509 254 254 254
0.53374 -0.34078 -0.67146 254 254 254
0.54049 -0.34363 -0.66783 254 254 254
0.54722 -0.34648 -0.66420 254 254 254
0.55395 -0.34932 -0.66058 254 254 254
0.56066 -0.35216 -0.65697 254 254 254
0.56736 -0.35499 -0.65336 254 254 254
0.57405 -0.35782 -0.64976 254 254 254
0.58073 -0.36064 -0.64616 254 254 254
0.58740 -0.36346 -0.64257 254 254 254
0.59406 -0.36627 -0.63899 254 254 254
0.60071 -0.36908 -0.63541 254 254 254
0.60735 -0.37189 -0.63184 254 254 254
0.61397 -0.37469 -0.62827 254 254 254
0.62059 -0.37749 -0.62471 254 254 254
0.62719 -0.38028 -0.62115 254 254 254
0.63379 -0.38307 -0.61760 254 254 254
0.64037 -0.38585 -0.61406 254 254 254
0.64695 -0.38863 -0.61052 254 254 254
0.65351 -0.39140 -0.60699 254 254 254
0.36133 -0.28072 -0.75204 254 254 254
0.36832 -0.28366 -0.74829 254 254 254
0.37531 -0.28660 -0.74454 254 254 254
0.38228 -0.28954 -0.74080 254 254 254
0.38924 -0.29247 -0.73706 254 254 254
0.39619 -0.29540 -0.73333 254 254 254
0.40312 -0.29832 -0.72961 254 254 254
0.41005 -0.30124 -0.72589 254 254 254
0.41696 -0.30415 -0.72218 254 254 254
0.42387 -0.30706 -0.71847 254 254 254
0.43076 -0.30996 -0.71477 254 254 254
0.43764 -0.31286 -0.71108 254 254 254
0.44450 -0.31575 -0.70739 254 254 254
0.45136 -0.31864 -0.70371 254 254 254
0.45821 -0.32152 -0.70004 254 254 254
0.46504 -0.32440 -0.69637 254 254 254
0.47187 -0.32727 -0.69270 254 254 254
0.47868 -0.33014 -0.68905 254 254 254
0.48548 -0.33301 -0.68540 254 254 254
0.49227 -0.33587 -0.68175 254 254 254
0.49905 -0.33872 -0.67811 254 254 254
0.50582 -0.34157 -0.67448 254 254 254
0.51258 -0.34442 -0.67085 254 254 254
0.51932 -0.34726 -0.66723 254 254 254
0.52606 -0.35010 -0.66361 254 254 254
0.53278 -0.35293 -0.66000 254 254 254
0.53949 -0.35576 -0.65640 254 254 254
0.54620 -0.35858 -0.65280 254 254 254
0.55289 -0.36140 -0.64921 254 254 254
0.55957 -0.36421 -0.64562 254 254 254
0.56624 -0.36702 -0.64204 254 254 254
0.57290 -0.36983 -0.63847 254 254 254
0.57955 -0.37263 -0.63490 254 254 254
0.58618 -0.37542 -0.63134 254 254 254
0.59281 -0.37821 -0.62778 254 254 254
0.59943 -0.38100 -0.62423 254 254 254
0.60603 -0.38378 -0.62068 254 254 254
0.61263 -0.38656 -0.61714 254 254 254
0.61921 -0.38933 -0.61360 254 254 254
0.62579 -0.39210 -0.61008 254 254 254
0.63235 -0.39487 -0.60655 254 254 254
0.63890 -0.39763 -0.60303 254 254 254
0.64545 -0.40038 -0.59952 254 254 254
0.35425 -0.29044 -0.74374 254 254 254
0.36122 -0.29336 -0.74000 254 254 254
0.36818 -0.29628 -0.73628 254 254 254
0.37513 -0.29920 -0.73256 254 254 254
0.38207 -0.30211 -0.72885 254 254 254
0.38899 -0.30501 -0.72514 254 254 254
0.39591 -0.30792 -0.72144 254 254 254
0.40281 -0.31081 -0.71774 254 254 254
0.40970 -0.31370 -0.71405 254 254 254
0.41658 -0.31659 -0.71037 254 254 254
0.42345 -0.31947 -0.70669 254 254 254
0.43030 -0.32235 -0.70302 254 254 254
0.43715 -0.32522 -0.69935 254 254 254
0.44398 -0.32809 -0.69570 254 254 254
0.45081 -0.33096 -0.69204 254 254 254
0.45762 -0.33382 -0.68839 254 254 254
0.46442 -0.33667 -0.68475 254 254 254
0.47121 -0.33952 -0.68112 254 254 254
0.47799 -0.34236 -0.67749 254 254 254
0.48476 -0.34521 -0.67386 254 254 254
0.49152 -0.34804 -0.67025 254 254 254
0.49826 -0.35087 -0.66664 254 254 254
0.50500 -0.35370 -0.66303 254 254 254
0.51172 -0.35652 -0.65943 254 254 254
0.51844 -0.35934 -0.65583 254 254 254
0.52514 -0.36215 -0.65225 254 254 254
0.53183 -0.36496 -0.64866 254 254 254
0.53851 -0.36776 -0.64509 254 254 254
0.54518 -0.37056 -0.64152 254 254 254
0.55184 -0.37336 -0.63795 254 254 254
0.55849 -0.37615 -0.63439 254 254 254
0.56513 -0.37893 -0.63084 254 254 254
0.57176 -0.38172 -0.62729 254 254 254
0.57837 -0.38449 -0.62375 254 254 254
0.58498 -0.38726 -0.62021 254 254 254
0.59157 -0.39003 -0.61668 254 254 254
0.59816 -0.39280 -0.61315 254 254 254
0.60473 -0.39556 -0.60963 254 254 254
0.61130 -0.39831 -0.60612 254 254 254
0.61785 -0.40106 -0.60261 254 254 254
0.62439 -0.40381 -0.59911 254 254 254
0.63093 -0.40655 -0.59561 254 254 254
0.34723 -0.30007 -0.73550 254 254 254
0.35418 -0.30298 -0.73179 254 254 254
0.36112 -0.30588 -0.72809 254 254 254
0.36804 -0.30877 -0.72439 254 254 254
0.37495 -0.31166 -0.72070 254 254 254
0.38186 -0.31455 -0.71701 254 254 254
0.38875 -0.31743 -0.71333 254 254 254
0.39563 -0.32031 -0.70966 254 254 254
0.40249 -0.32318 -0.70599 254 254 254
0.40935 -0.32605 -0.70233 254 254 254
0.41620 -0.32891 -0.69868 254 254 254
0.42303 -0.33177 -0.69503 254 254 254
0.42985 -0.33462 -0.69138 254 254 254
0.43667 -0.33747 -0.68775 254 254 254
0.44347 -0.34031 -0.68411 254 254 254
0.45026 -0.34315 -0.68049 254 254 254
0.45704 -0.34599 -0.67687 254 254 254
0.46381 -0.34882 -0.67326 254 254 254
0.47056 -0.35165 -0.66965 254 254 254
0.47731 -0.35447 -0.66604 254 254 254
0.48404 -0.35728 -0.66245 254 254 254
0.49077 -0.36010 -0.65886 254 254 254
0.49748 -0.36290 -0.65527 254 254 254
0.50419 -0.36571 -0.65169 254 254 254
0.51088 -0.36850 -0.64812 254 254 254
0.51756 -0.37130 -0.64455 254 254 254
0.52423 -0.37409 -0.64099 254 254 254
0.53089 -0.37687 -0.63743 254 254 254
0.53754 -0.37965 -0.63388 254 254 254
0.54418 -0.38243 -0.63034 254 254 254
0.55080 -0.38520 -0.62680 254 254 254
0.55742 -0.38797 -0.62327 254 254 254
0.56403 -0.39073 -0.61974 254 254 254
0.57062 -0.39349 -0.61622 254 254 254
0.57721 -0.39624 -0.61270 254 254 254
0.58378 -0.39899 -0.60919 254 254 254
0.59035 -0.40174 -0.60569 254 254 254
0.59690 -0.40448 -0.60219 254 254 254
0.60344 -0.40722 -0.59869 254 254 254
0.60998 -0.40995 -0.59520 254 254 254
0.61650 -0.41268 -0.59172 254 254 254
0.34027 -0.30963 -0.72733 254 254 254
0.34720 -0.31251 -0.72365 254 254 254
0.35411 -0.31539 -0.71997 254 254 254
0.36101 -0.31827 -0.71629 254 254 254
0.36790 -0.32114 -0.71262 254 254 254
0.37478 -0.32401 -0.70896 254 254 254
0.38165 -0.32687 -0.70530 254 254 254
0.38850 -0.32972 -0.70165 254 254 254
0.39535 -0.33258 -0.69800 254 254 254
0.40218 -0.33543 -0.69436 254 254 254
0.40901 -0.33827 -0.69073 254 254 254
0.41582 -0.34111 -0.68710 254 254 254
0.42262 -0.34394 -0.68348 254 254 254
0.42941 -0.34677 -0.67986 254 254 254
0.43619 -0.34960 -0.67625 254 254 254
0.44296 -0.35242 -0.67265 254 254 254
0.44971 -0.35523 -0.66905 254 254 254
0.45646 -0.35804 -0.66546 254 254 254
0.46320 -0.36085 -0.66187 254 254 254
0.46992 -0.36365 -0.65829 254 254 254
0.47663 -0.36645 -0.65471 254 254 254
0.48334 -0.36924 -0.65114 254 254 254
0.49003 -0.37203 -0.64758 254 254 254
0.49671 -0.37482 -0.64402 254 254 254
0.50338 -0.37760 -0.64047 254 254 254
0.51004 -0.38037 -0.63692 254 254 254
0.51669 -0.38314 -0.63338 254 254 254
0.52333 -0.38591 -0.62985 254 254 254
0.52996 -0.38867 -0.62632 254 254 254
0.53657 -0.39143 -0.62279 254 254 254
0.54318 -0.39418 -0.61927 254 254 254
0.54978 -0.39693 -0.61576 254 254 254
0.55636 -0.39967 -0.61225 254 254 254
0.56294 -0.40241 -0.60875 254 254 254
0.56950 -0.40515 -0.60525 254 254 254
0.57606 -0.40788 -0.60176 254 254 254
0.58260 -0.41061 -0.59828 254 254 254
0.58913 -0.41333 -0.59480 254 254 254
0.59566 -0.41605 -0.59133 254 254 254
0.60217 -0.41876 -0.58786 254 254 254
0.60867 -0.42147 -0.58439 254 254 254
0.32646 -0.31623 -0.72291 254 254 254
0.33337 -0.31910 -0.71924 254 254 254
0.34027 -0.32197 -0.71557 254 254 254
0.34716 -0.32483 -0.71191 254 254 254
0.35404 -0.32768 -0.70826 254 254 254
0.36091 -0.33054 -0.70461 254 254 254
0.36776 -0.33338 -0.70097 254 254 254
0.37461 -0.33623 -0.69733 254 254 254
0.38144 -0.33906 -0.69370 254 254 254
0.38826 -0.34190 -0.69008 254 254 254
0.39508 -0.34473 -0.68646 254 254 254
0.40188 -0.34755 -0.68285 254 254 254
0.40867 -0.35037 -0.67924 254 254 254
0.41545 -0.35318 -0.67564 254 254 254
0.42221 -0.35599 -0.67205 254 254 254
0.42897 -0.35880 -0.66846 254 254 254
0.43572 -0.36160 -0.66487 254 254 254
0.44245 -0.36440 -0.66130 254 254 254
0.44918 -0.36719 -0.65772 254 254 254
0.45589 -0.36998 -0.65416 254 254 254
0.46259 -0.37276 -0.65060 254 254 254
0.46928 -0.37554 -0.64704 254 254 254
0.47597 -0.37832 -0.64349 254 254 254
0.48264 -0.38109 -0.63995 254 254 254
0.48930 -0.38385 -0.63641 254 254 254
0.49595 -0.38661 -0.63288 254 254 254
0.50258 -0.38937 -0.62935 254 254 254
0.50921 -0.39212 -0.62583 254 254 254
0.51583 -0.39487 -0.62232 254 254 254
0.52244 -0.39761 -0.61881 254 254 254
0.52903 -0.40035 -0.61530 254 254 254
0.53562 -0.40309 -0.61181 254 254 254
0.54219 -0.40582 -0.60831 254 254 254
0.54876 -0.40854 -0.60483 254 254 254
0.55531 -0.41127 -0.60134 254 254 254
0.56186 -0.41398 -0.59787 254 254 254
0.56839 -0.41670 -0.59440 254 254 254
0.57492 -0.41941 -0.59093 254 254 254
0.58143 -0.42211 -0.58747 254 254 254
0.58793 -0.42481 -0.58402 254 254 254
0.59442 -0.42751 -0.58057 254 254 254
0.31274 -0.32279 -0.71851 254 254 254
0.31964 -0.32565 -0.71485 254 254 254
0.32653 -0.32850 -0.71120 254 254 254
0.33340 -0.33135 -0.70756 254 254 254
0.34027 -0.33419 -0.70392 254 254 254
0.34713 -0.33702 -0.70029 254 254 254
0.35397 -0.33986 -0.69666 254 254 254
0.36080 -0.34268 -0.69304 254 254 254
0.36763 -0.34551 -0.68943 254 254 254
0.37444 -0.34833 -0.68582 254 254 254
0.38124 -0.35114 -0.68222 254 254 254
0.38803 -0.35395 -0.67862 254 254 254
0.39481 -0.35675 -0.67503 254 254 254
0.40157 -0.35955 -0.67144 254 254 254
0.40833 -0.36235 -0.66786 254 254 254
0.41508 -0.36514 -0.66429 254 254 254
0.42181 -0.36793 -0.66072 254 254 254
0.42853 -0.37071 -0.65716 254 254 254
0.43525 -0.37349 -0.65360 254 254 254
0.44195 -0.37626 -0.65005 254 254 254
0.44864 -0.37903 -0.64651 254 254 254
0.45532 -0.38180 -0.64297 254 254 254
0.46199 -0.38456 -0.63943 254 254 254
0.46865 -0.38731 -0.63590 254 254 254
0.47530 -0.39007 -0.63238 254 254 254
0.48194 -0.39281 -0.62886 254 254 254
0.48857 -0.39556 -0.62535 254 254 254
0.49519 -0.39829 -0.62185 254 254 254
0.50179 -0.40103 -0.61835 254 254 254
0.50839 -0.40376 -0.61485 254 254 254
0.51498 -0.40648 -0.61136 254 254 254
0.52155 -0.40920 -0.60788 254 254 254
0.52812 -0.41192 -0.60440 254 254 254
0.53467 -0.41463 -0.60093 254 254 254
0.54122 -0.41734 -0.59746 254 254 254
0.54775 -0.42005 -0.59400 254 254 254
0.55428 -0.42275 -0.59054 254 254 254
0.56079 -0.42544 -0.58709 254 254 254
0.56729 -0.42813 -0.58365 254 254 254
0.57379 -0.43082 -0.58021 254 254 254
0.58027 -0.43350 -0.57677 254 254 254
0.58674 -0.43618 -0.57334 254 254 254
0.29911 -0.32931 -0.71414 254 254 254
0.30600 -0.33215 -0.71050 254 254 254
0.31287 -0.33499 -0.70687 254 254 254
0.31974 -0.33782 -0.70324 254 254 254
0.32659 -0.34065 -0.69962 254 254 254
0.33344 -0.34347 -0.69600 254 254 254
0.34027 -0.34629 -0.69239 254 254 254
0.34709 -0.34910 -0.68878 254 254 254
0.35390 -0.35191 -0.68519 254 254 254
0.36070 -0.35471 -0.68159 254 254 254
0.36749 -0.35751 -0.67800 254 254 254
0.37427 -0.36031 -0.67442 254 254 254
0.38104 -0.36310 -0.67085 254 254 254
0.38779 -0.36588 -0.66728 254 254 254
0.39454 -0.36867 -0.66371 254 254 254
0.40127 -0.37144 -0.66015 254 254 254
0.40800 -0.37422 -0.65660 254 254 254
0.41471 -0.37698 -0.65305 254 254 254
0.42141 -0.37975 -0.64951 254 254 254
0.42810 -0.38251 -0.64597 254 254 254
0.43478 -0.38526 -0.64244 254 254 254
0.44145 -0.38801 -0.63892 254 254 254
0.44811 -0.39076 -0.63540 254 254 254
0.45476 -0.39350 -0.63189 254 254 254
0.46140 -0.39624 -0.62838 254 254 254
0.46803 -0.39897 -0.62488 254 254 254
0.47465 -0.40170 -0.62138 254 254 254
0.48126 -0.40443 -0.61789 254 254 254
0.48785 -0.40715 -0.61440 254 254 254
0.49444 -0.40986 -0.61092 254 254 254
0.50101 -0.41257 -0.60745 254 254 254
0.50758 -0.41528 -0.60398 254 254 254
0.51413 -0.41799 -0.60051 254 254 254
0.52068 -0.42068 -0.59705 254 254 254
0.52721 -0.42338 -0.59360 254 254 254
0.53374 -0.42607 -0.59015 254 254 254
0.54025 -0.42876 -0.58671 254 254 254
0.54675 -0.43144 -0.58327 254 254 254
0.55325 -0.43412 -0.57984 254 254 254
0.55973 -0.43679 -0.57642 254 254 254
0.56620 -0.43946 -0.57300 254 254 254
0.57267 -0.44212 -0.56958 254 254 254
0.28557 -0.33579 -0.70980 254 254 254
0.29244 -0.33861 -0.70618 254 254 254
0.29931 -0.34143 -0.70256 254 254 254
0.30616 -0.34425 -0.69895 254 254 254
0.31301 -0.34706 -0.69534 254 254 254
0.31984 -0.34987 -0.69174 254 254 254
0.32666 -0.35267 -0.68814 254 254 254
0.33347 -0.35547 -0.68455 254 254 254
0.34027 -0.35827 -0.68097 254 254 254
0.34706 -0.36106 -0.67739 254 254 254
0.35383 -0.36384 -0.67382 254 254 254
0.36060 -0.36662 -0.67025 254 254 254
0.36736 -0.36940 -0.66669 254 254 254
0.37410 -0.37217 -0.66314 254 254 254
0.38084 -0.37494 -0.65959 254 254 254
0.38756 -0.37770 -0.65604 254 254 254
0.39427 -0.38046 -0.65250 254 254 254
0.40097 -0.38321 -0.64897 254 254 254
0.40767 -0.38596 -0.64544 254 254 254
0.41435 -0.38871 -0.64192 254 254 254
0.42102 -0.39145 -0.63841 254 254 254
0.42768 -0.39419 -0.63490 254 254 254
0.43433 -0.39692 -0.63139 254 254 254
0.44096 -0.39965 -0.62789 254 254 254
0.44759 -0.40237 -0.62440 254 254 254
0.45421 -0.40509 -0.62091 254 254 254
0.46082 -0.40781 -0.61743 254 254 254
0.46741 -0.41052 -0.61395 254 254 254
0.47400 -0.41323 -0.61048 254 254 254
0.48057 -0.41593 -0.60702 254 254 254
0.48714 -0.41863 -0.60355 254 254 254
0.49369 -0.42132 -0.60010 254 254 254
0.50024 -0.42401 -0.59665 254 254 254
0.50677 -0.42670 -0.59321 254 254 254
0.51330 -0.42938 -0.58977 254 254 254
0.51981 -0.43205 -0.58633 254 254 254
0.52632 -0.43473 -0.58291 254 254 254
0.53281 -0.43740 -0.57948 254 254 254
0.53929 -0.44006 -0.57607 254 254 254
0.54577 -0.44272 -0.57265 254 254 254
0.55223 -0.44538 -0.56925 254 254 254
0.55868 -0.44803 -0.56585 254 254 254
0.56512 -0.45068 -0.56245 254 254 254
0.26524 -0.33940 -0.70911 254 254 254
0.27212 -0.34222 -0.70549 254 254 254
0.27898 -0.34503 -0.70188 254 254 254
0.28583 -0.34784 -0.69828 254 254 254
0.29268 -0.35064 -0.69468 254 254 254
0.29951 -0.35344 -0.69109 254 254 254
0.30633 -0.35623 -0.68750 254 254 254
0.31314 -0.35902 -0.68392 254 254 254
0.31994 -0.36180 -0.68035 254 254 254
0.32672 -0.36458 -0.67678 254 254 254
0.33350 -0.36736 -0.67322 254 254 254
0.34027 -0.37013 -0.66966 254 254 254
0.34702 -0.37290 -0.66611 254 254 254
0.35377 -0.37566 -0.66256 254 254 254
0.36050 -0.37842 -0.65902 254 254 254
0.36722 -0.38117 -0.65549 254 254 254
0.37394 -0.38392 -0.65196 254 254 254
0.38064 -0.38666 -0.64844 254 254 254
0.38733 -0.38941 -0.64492 254 254 254
0.39401 -0.39214 -0.64141 254 254 254
0.40068 -0.39487 -0.63790 254 254 254
0.40734 -0.39760 -0.63440 254 254 254
0.41399 -0.40032 -0.63090 254 254 254
0.42063 -0.40304 -0.62741 254 254 254
0.42725 -0.40576 -0.62393 254 254 254
0.43387 -0.40847 -0.62045 254 254 254
0.44048 -0.41117 -0.61697 254 254 254
0.44707 -0.41388 -0.61351 254 254 254
0.45366 -0.41657 -0.61004 254 254 254
0.46024 -0.41927 -0.60659 254 254 254
0.46680 -0.42195 -0.60313 254 254 254
0.47336 -0.42464 -0.59969 254 254 254
0.47990 -0.42732 -0.59625 254 254 254
0.48644 -0.43000 -0.59281 254 254 254
0.49296 -0.43267 -0.58938 254 254 254
0.49947 -0.43534 -0.58596 254 254 254
0.50598 -0.43800 -0.58254 254 254 254
0.51247 -0.44066 -0.57912 254 254 254
0.51895 -0.44332 -0.57571 254 254 254
0.52543 -0.44597 -0.57231 254 254 254
0.53189 -0.44861 -0.56891 254 254 254
0.53834 -0.45126 -0.56552 254 254 254
0.54479 -0.45390 -0.56213 254 254 254
0.55122 -0.45653 -0.55875 254 254 254
0.24502 -0.34300 -0.70841 254 254 254
0.25189 -0.34581 -0.70481 254 254 254
0.25875 -0.34861 -0.70121 254 254 254
0.26561 -0.35140 -0.69762 254 254 254
0.27245 -0.35420 -0.69403 254 254 254
0.27928 -0.35698 -0.69045 254 254 254
0.28610 -0.35977 -0.68687 254 254 254
0.29291 -0.36255 -0.68330 254 254 254
0.29970 -0.36532 -0.67973 254 254 254
0.30649 -0.36809 -0.67617 254 254 254
0.31327 -0.37086 -0.67262 254 254 254
0.32003 -0.37362 -0.66907 254 254 254
0.32679 -0.37638 -0.66553 254 254 254
0.33353 -0.37913 -0.66199 254 254 254
0.34027 -0.38188 -0.65846 254 254 254
0.34699 -0.38462 -0.65494 254 254 254
0.35370 -0.38736 -0.65142 254 254 254
0.36040 -0.39010 -0.64790 254 254 254
0.36709 -0.39283 -0.64439 254 254 254
0.37377 -0.39556 -0.64089 254 254 254
0.38044 -0.39828 -0.63739 254 254 254
0.38710 -0.40100 -0.63390 254 254 254
0.39375 -0.40371 -0.63041 254 254 254
0.40039 -0.40642 -0.62693 254 254 254
0.40701 -0.40912 -0.62346 254 254 254
0.41363 -0.41183 -0.61999 254 254 254
0.42024 -0.41452 -0.61652 254 254 254
0.42683 -0.41721 -0.61306 254 254 254
0.43342 -0.41990 -0.60961 254 254 254
0.44000 -0.42259 -0.60616 254 254 254
0.44656 -0.42527 -0.60272 254 254 254
0.45312 -0.42794 -0.59928 254 254 254
0.45966 -0.43061 -0.59585 254 254 254
0.46619 -0.43328 -0.59242 254 254 254
0.47272 -0.43594 -0.58900 254 254 254
0.47923 -0.43860 -0.58558 254 254 254
0.21801 -0.34378 -0.71133 254 254 254
0.22489 -0.34658 -0.70773 254 254 254
0.23176 -0.34938 -0.70413 254 254 254
0.23863 -0.35217 -0.70054 254 254 254
0.24548 -0.35495 -0.69696 254 254 254
0.25232 -0.35774 -0.69338 254 254 254
0.25915 -0.36052 -0.68980 254 254 254
0.26597 -0.36329 -0.68624 254 254 254
0.27278 -0.36606 -0.68268 254 254 254
0.27957 -0.36882 -0.67912 254 254 254
0.28636 -0.37158 -0.67557 254 254 254
0.29314 -0.37434 -0.67203 254 254 254
0.29990 -0.37709 -0.66849 254 254 254
0.30665 -0.37984 -0.66495 254 254 254
0.31340 -0.38258 -0.66143 254 254 254
0.32013 -0.38532 -0.65790 254 254 254
0.32685 -0.38806 -0.65439 254 254 254
0.33356 -0.39079 -0.65088 254 254 254
0.34026 -0.39351 -0.64737 254 254 254
0.34695 -0.39624 -0.64387 254 254 254
0.35363 -0.39895 -0.64038 254 254 254
0.36030 -0.40167 -0.63689 254 254 254
0.36696 -0.40437 -0.63340 254 254 254
0.37361 -0.40708 -0.62993 254 254 254
0.38025 -0.40978 -0.62645 254 254 254
0.38687 -0.41248 -0.62299 254 254 254
0.39349 -0.41517 -0.61953 254 254 254
0.40010 -0.41785 -0.61607 254 254 254
0.40669 -0.42054 -0.61262 254 254 254
0.41328 -0.42322 -0.60918 254 254 254
0.18418 -0.34175 -0.71783 254 254 254
0.19109 -0.34455 -0.71423 254 254 254
0.19798 -0.34735 -0.71063 254 254 254
0.20487 -0.35014 -0.70704 254 254 254
0.21174 -0.35293 -0.70345 254 254 254
0.21860 -0.35571 -0.69987 254 254 254
0.22545 -0.35849 -0.69630 254 254 254
0.23229 -0.36126 -0.69273 254 254 254
0.23912 -0.36403 -0.68917 254 254 254
0.24594 -0.36679 -0.68561 254 254 254
0.25274 -0.36955 -0.68206 254 254 254
0.25954 -0.37231 -0.67851 254 254 254
0.26633 -0.37506 -0.67497 254 254 254
0.27310 -0.37781 -0.67143 254 254 254
0.27987 -0.38055 -0.66790 254 254 254
0.28662 -0.38329 -0.66438 254 254 254
0.29336 -0.38602 -0.66086 254 254 254
0.30009 -0.38875 -0.65735 254 254 254
0.30681 -0.39148 -0.65384 254 254 254
0.31353 -0.39420 -0.65034 254 254 254
0.32023 -0.39691 -0.64684 254 254 254
0.32692 -0.39963 -0.64335 254 254 254
0.33359 -0.40233 -0.63987 254 254 254
0.34026 -0.40504 -0.63639 254 254 254
0.34692 -0.40774 -0.63291 254 254 254
0.35357 -0.41043 -0.62944 254 254 254
0.36021 -0.41312 -0.62598 254 254 254
0.36683 -0.41581 -0.62252 254 254 254
0.37345 -0.41849 -0.61907 254 254 254
0.38005 -0.42117 -0.61562 254 254 254
0.38665 -0.42384 -0.61218 254 254 254
0.39324 -0.42651 -0.60874 254 254 254
0.39981 -0.42918 -0.60531 254 254 254
0.17117 -0.34812 -0.71353 254 254 254
0.17806 -0.35090 -0.70994 254 254 254
0.18494 -0.35369 -0.70636 254 254 254
0.19181 -0.35646 -0.70278 254 254 254
0.19867 -0.35923 -0.69921 254 254 254
0.20552 -0.36200 -0.69564 254 254 254
0.21236 -0.36477 -0.69208 254 254 254
0.21919 -0.36752 -0.68853 254 254 254
0.22601 -0.37028 -0.68498 254 254 254
0.23281 -0.37303 -0.68144 254 254 254
0.23961 -0.37578 -0.67790 254 254 254
0.24639 -0.37852 -0.67437 254 254 254
0.25317 -0.38126 -0.67084 254 254 254
0.25993 -0.38399 -0.66732 254 254 254
0.26668 -0.38672 -0.66381 254 254 254
0.27342 -0.38944 -0.66030 254 254 254
0.28016 -0.39216 -0.65680 254 254 254
0.28688 -0.39488 -0.65330 254 254 254
0.29359 -0.39759 -0.64980 254 254 254
0.30029 -0.40030 -0.64632 254 254 254
0.30697 -0.40300 -0.64283 254 254 254
0.31365 -0.40570 -0.63936 254 254 254
0.32032 -0.40839 -0.63589 254 254 254
0.32698 -0.41108 -0.63242 254 254 254
0.33362 -0.41377 -0.62896 254 254 254
0.34026 -0.41645 -0.62551 254 254 254
0.34689 -0.41913 -0.62206 254 254 254
0.35350 -0.42180 -0.61861 254 254 254
0.36011 -0.42447 -0.61518 254 254 254
0.36670 -0.42714 -0.61174 254 254 254
0.37329 -0.42980 -0.60831 254 254 254
0.37986 -0.43245 -0.60489 254 254 254
0.38643 -0.43511 -0.60148 254 254 254
0.39298 -0.43775 -0.59806 254 254 254
0.01827 -0.29807 -0.78193 254 254 254
0.02538 -0.30093 -0.77824 254 254 254
0.03247 -0.30379 -0.77456 254 254 254
0.03955 -0.30664 -0.77088 254 254 254
0.06073 -0.31517 -0.75988 254 254 254
0.06777 -0.31801 -0.75623 254 254 254
0.07480 -0.32084 -0.75258 254 254 254
0.08181 -0.32366 -0.74894 254 254 254
0.08881 -0.32648 -0.74530 254 254 254
0.09581 -0.32930 -0.74167 254 254 254
0.10279 -0.33211 -0.73804 254 254 254
0.10976 -0.33492 -0.73442 254 254 254
0.11672 -0.33772 -0.73081 254 254 254
0.12366 -0.34052 -0.72720 254 254 254
0.13060 -0.34331 -0.72360 254 254 254
0.13752 -0.34610 -0.72001 254 254 254
0.14444 -0.34888 -0.71642 254 254 254
0.15134 -0.35166 -0.71283 254 254 254
0.15823 -0.35444 -0.70925 254 254 254
0.16511 -0.35721 -0.70568 254 254 254
0.17198 -0.35998 -0.70211 254 254 254
0.17884 -0.36274 -0.69855 254 254 254
0.18569 -0.36550 -0.69499 254 254 254
0.19253 -0.36825 -0.69144 254 254 254
0.19936 -0.37100 -0.68790 254 254 254
0.20617 -0.37375 -0.68436 254 254 254
0.21298 -0.37649 -0.68083 254 254 254
0.21977 -0.37923 -0.67730 254 254 254
0.22656 -0.38196 -0.67377 254 254 254
0.23333 -0.38469 -0.67026 254 254 254
0.24009 -0.38741 -0.66675 254 254 254
0.24684 -0.39013 -0.66324 254 254 254
0.25358 -0.39284 -0.65974 254 254 254
0.26031 -0.39556 -0.65624 254 254 254
0.26703 -0.39826 -0.65276 254 254 254
0.27374 -0.40096 -0.64927 254 254 254
0.28044 -0.40366 -0.64579 254 254 254
0.28713 -0.40636 -0.64232 254 254 254
0.29381 -0.40905 -0.63885 254 254 254
0.30047 -0.41173 -0.63539 254 254 254
0.30713 -0.41441 -0.63193 254 254 254
0.31378 -0.41709 -0.62848 254 254 254
0.32041 -0.41976 -0.62504 254 254 254
0.32704 -0.42243 -0.62160 254 254 254
0.33366 -0.42509 -0.61816 254 254 254
0.34026 -0.42775 -0.61473 254 254 254
0.34685 -0.43041 -0.61131 254 254 254
0.35344 -0.43306 -0.60789 254 254 254
0.36001 -0.43571 -0.60447 254 254 254
0.36658 -0.43835 -0.60107 254 254 254
0.37313 -0.44099 -0.59766 254 254 254
0.37968 -0.44363 -0.59426 254 254 254
0.38621 -0.44626 -0.59087 254 254 254
0.00568 -0.30464 -0.77737 254 254 254
0.01277 -0.30748 -0.77370 254 254 254
0.01985 -0.31033 -0.77003 254 254 254
0.02692 -0.31317 -0.76637 254 254 254
0.03398 -0.31600 -0.76271 254 254 254
0.04103 -0.31883 -0.75906 254 254 254
0.04806 -0.32165 -0.75542 254 254 254
0.05509 -0.32447 -0.75178 254 254 254
0.06210 -0.32729 -0.74815 254 254 254
0.06910 -0.33010 -0.74452 254 254 254
0.07609 -0.33290 -0.74090 254 254 254
0.08307 -0.33571 -0.73728 254 254 254
0.09004 -0.33850 -0.73367 254 254 254
0.09700 -0.34130 -0.73007 254 254 254
0.10394 -0.34408 -0.72647 254 254 254
0.11088 -0.34687 -0.72288 254 254 254
0.11780 -0.34965 -0.71929 254 254 254
0.12471 -0.35242 -0.71571 254 254 254
0.13161 -0.35519 -0.71214 254 254 254
0.13851 -0.35796 -0.70857 254 254 254
0.14539 -0.36072 -0.70500 254 254 254
0.15225 -0.36348 -0.70145 254 254 254
0.15911 -0.36623 -0.69789 254 254 254
0.16596 -0.36898 -0.69435 254 254 254
0.17280 -0.37173 -0.69081 254 254 254
0.17962 -0.37447 -0.68727 254 254 254
0.18644 -0.37720 -0.68374 254 254 254
0.19324 -0.37993 -0.68021 254 254 254
0.20003 -0.38266 -0.67670 254 254 254
0.20682 -0.38538 -0.67318 254 254 254
0.21359 -0.38810 -0.66967 254 254 254
0.22035 -0.39082 -0.66617 254 254 254
0.22710 -0.39353 -0.66267 254 254 254
0.23384 -0.39623 -0.65918 254 254 254
0.24057 -0.39893 -0.65570 254 254 254
0.24729 -0.40163 -0.65222 254 254 254
0.25400 -0.40432 -0.64874 254 254 254
0.26070 -0.40701 -0.64527 254 254 254
0.26738 -0.40970 -0.64181 254 254 254
0.27406 -0.41238 -0.63835 254 254 254
0.28073 -0.41505 -0.63490 254 254 254
0.28738 -0.41773 -0.63145 254 254 254
0.29403 -0.42039 -0.62801 254 254 254
0.30066 -0.42306 -0.62457 254 254 254
0.30729 -0.42572 -0.62114 254 254 254
0.31390 -0.42837 -0.61771 254 254 254
0.32051 -0.43102 -0.61429 254 254 254
0.32710 -0.43367 -0.61087 254 254 254
0.33369 -0.43631 -0.60746 254 254 254
0.34026 -0.43895 -0.60406 254 254 254
0.34682 -0.44159 -0.60066 254 254 254
0.35338 -0.44422 -0.59726 254 254 254
0.35992 -0.44684 -0.59387 254 254 254
0.36645 -0.44947 -0.59049 254 254 254
0.37298 -0.45209 -0.58711 254 254 254
0.37949 -0.45470 -0.58374 254 254 254
0.00025 -0.31400 -0.76919 254 254 254
0.00732 -0.31682 -0.76554 254 254 254
0.01437 -0.31965 -0.76189 254 254 254
0.02142 -0.32247 -0.75825 254 254 254
0.02845 -0.32528 -0.75461 254 254 254
0.03547 -0.32809 -0.75098 254 254 254
0.04249 -0.33090 -0.74736 254 254 254
0.04949 -0.33370 -0.74374 254 254 254
0.05647 -0.33649 -0.74013 254 254 254
0.06345 -0.33929 -0.73653 254 254 254
0.07042 -0.34207 -0.73293 254 254 254
0.07737 -0.34486 -0.72933 254 254 254
0.08432 -0.34763 -0.72574 254 254 254
0.09125 -0.35041 -0.72216 254 254 254
0.09817 -0.35318 -0.71858 254 254 254
0.10509 -0.35594 -0.71501 254 254 254
0.11199 -0.35870 -0.71145 254 254 254
0.11887 -0.36146 -0.70789 254 254 254
0.12575 -0.36421 -0.70433 254 254 254
0.13262 -0.36696 -0.70078 254 254 254
0.13948 -0.36971 -0.69724 254 254 254
0.14632 -0.37244 -0.69370 254 254 254
0.15316 -0.37518 -0.69017 254 254 254
0.15998 -0.37791 -0.68664 254 254 254
0.16680 -0.38064 -0.68312 254 254 254
0.17360 -0.38336 -0.67961 254 254 254
0.18039 -0.38608 -0.67610 254 254 254
0.18717 -0.38879 -0.67259 254 254 254
0.19394 -0.39150 -0.66909 254 254 254
0.20070 -0.39420 -0.66560 254 254 254
0.20745 -0.39691 -0.66211 254 254 254
0.21419 -0.39960 -0.65863 254 254 254
0.22092 -0.40229 -0.65515 254 254 254
0.22764 -0.40498 -0.65168 254 254 254
0.23435 -0.40767 -0.64822 254 254 254
0.24104 -0.41035 -0.64475 254 254 254
0.24773 -0.41302 -0.64130 254 254 254
0.25441 -0.41569 -0.63785 254 254 254
0.26107 -0.41836 -0.63440 254 254 254
0.29425 -0.43163 -0.61726 254 254 254
0.30085 -0.43428 -0.61385 254 254 254
0.30744 -0.43691 -0.61044 254 254 254
0.31403 -0.43955 -0.60704 254 254 254
0.32060 -0.44218 -0.60364 254 254 254
0.32716 -0.44480 -0.60025 254 254 254
0.33371 -0.44743 -0.59687 254 254 254
0.34026 -0.45004 -0.59348 254 254 254
0.34679 -0.45266 -0.59011 254 254 254
0.35331 -0.45527 -0.58674 254 254 254
0.35983 -0.45787 -0.58337 254 254 254
0.36633 -0.46048 -0.58001 254 254 254
-0.00514 -0.32328 -0.76107 254 254 254
0.00191 -0.32609 -0.75744 254 254 254
0.00894 -0.32889 -0.75381 254 254 254
0.01596 -0.33169 -0.75019 254 254 254
0.02297 -0.33449 -0.74658 254 254 254
0.02997 -0.33728 -0.74297 254 254 254
0.03695 -0.34006 -0.73937 254 254 254
0.04393 -0.34285 -0.73577 254 254 254
0.05090 -0.34562 -0.73218 254 254 254
0.05785 -0.34840 -0.72860 254 254 254
0.06479 -0.35117 -0.72502 254 254 254
0.07172 -0.35393 -0.72145 254 254 254
0.07864 -0.35669 -0.71788 254 254 254
0.08555 -0.35945 -0.71432 254 254 254
0.09245 -0.36220 -0.71076 254 254 254
0.09934 -0.36495 -0.70721 254 254 254
0.10622 -0.36769 -0.70366 254 254 254
0.11308 -0.37043 -0.70012 254 254 254
0.11994 -0.37316 -0.69659 254 254 254
0.12678 -0.37589 -0.69306 254 254 254
0.13362 -0.37862 -0.68954 254 254 254
0.14044 -0.38134 -0.68602 254 254 254
0.14725 -0.38406 -0.68251 254 254 254
0.15405 -0.38677 -0.67900 254 254 254
0.16085 -0.38948 -0.67550 254 254 254
0.16763 -0.39218 -0.67201 254 254 254
0.17440 -0.39488 -0.66852 254 254 254
0.18115 -0.39758 -0.66503 254 254 254
0.18790 -0.40027 -0.66155 254 254 254
0.19464 -0.40296 -0.65808 254 254 254
0.20137 -0.40564 -0.65461 254 254 254
0.20809 -0.40832 -0.65115 254 254 254
0.21479 -0.41099 -0.64769 254 254 254
0.22149 -0.41366 -0.64424 254 254 254
0.22817 -0.41633 -0.64079 254 254 254
0.23485 -0.41899 -0.63735 254 254 254
0.24151 -0.42165 -0.63391 254 254 254
0.24817 -0.42430 -0.63048 254 254 254
0.29446 -0.44277 -0.60662 254 254 254
0.30103 -0.44539 -0.60323 254 254 254
0.30760 -0.44801 -0.59985 254 254 254
0.31415 -0.45062 -0.59647 254 254 254
0.32069 -0.45323 -0.59310 254 254 254
0.32722 -0.45583 -0.58973 254 254 254
0.33374 -0.45843 -0.58637 254 254 254
0.34026 -0.46103 -0.58301 254 254 254
0.34676 -0.46363 -0.57966 254 254 254
0.35325 -0.46621 -0.57631 254 254 254
-0.01751 -0.32969 -0.75663 253 253 253
-0.01048 -0.33248 -0.75302 253 253 254
-0.00346 -0.33527 -0.74941 254 254 254
0.00355 -0.33806 -0.74580 254 254 254
0.01055 -0.34084 -0.74220 254 254 254
0.01753 -0.34362 -0.73861 254 254 254
0.02450 -0.34639 -0.73502 254 254 254
0.03147 -0.34916 -0.73144 254 254 254
0.03842 -0.35192 -0.72787 254 254 254
0.04536 -0.35468 -0.72430 254 254 254
0.05229 -0.35744 -0.72073 254 254 254
0.05921 -0.36019 -0.71718 254 254 254
0.06612 -0.36293 -0.71362 254 254 254
0.07302 -0.36568 -0.71008 254 254 254
0.07990 -0.36841 -0.70653 254 254 254
0.08678 -0.37115 -0.70300 254 254 254
0.09364 -0.37388 -0.69947 254 254 254
0.10050 -0.37660 -0.69594 254 254 254
0.10734 -0.37932 -0.69242 254 254 254
0.11417 -0.38204 -0.68891 254 254 254
0.12099 -0.38475 -0.68540 254 254 254
0.12780 -0.38746 -0.68190 254 254 254
0.13460 -0.39016 -0.67840 254 254 254
0.14139 -0.39286 -0.67491 254 254 254
0.14817 -0.39556 -0.67142 254 254 254
0.15494 -0.39825 -0.66794 254 254 254
0.16170 -0.40093 -0.66447 254 254 254
0.16845 -0.40361 -0.66100 254 254 254
0.17518 -0.40629 -0.65753 254 254 254
0.18191 -0.40897 -0.65407 254 254 254
0.18863 -0.41164 -0.65062 254 254 254
0.19533 -0.41430 -0.64717 254 254 254
0.20203 -0.41696 -0.64373 254 254 254
0.20871 -0.41962 -0.64029 254 254 254
0.21539 -0.42228 -0.63685 254 254 254
0.22205 -0.42492 -0.63343 254 254 254
0.22870 -0.42757 -0.63001 254 254 254
0.23535 -0.43021 -0.62659 254 254 254
0.28812 -0.45119 -0.59945 254 254 254
0.29467 -0.45380 -0.59608 254 254 254
0.30122 -0.45640 -0.59271 254 254 254
0.30775 -0.45899 -0.58935 254 254 254
0.31427 -0.46159 -0.58600 254 254 254
0.32078 -0.46418 -0.58265 254 254 254
0.32728 -0.46676 -0.57931 254 254 254
0.33377 -0.46934 -0.57597 254 254 254
0.34026 -0.47192 -0.57263 254 254 254
-0.02980 -0.33606 -0.75222 253 253 253
-0.02278 -0.33884 -0.74862 253 253 253
-0.01578 -0.34162 -0.74503 253 253 253
-0.00878 -0.34439 -0.74144 253 253 253
-0.00180 -0.34715 -0.73786 253 253 254
0.00517 -0.34992 -0.73428 254 254 254
0.01214 -0.35268 -0.73071 254 254 254
0.01909 -0.35543 -0.72714 254 254 254
0.02603 -0.35818 -0.72358 254 254 254
0.03295 -0.36093 -0.72003 254 254 254
