ply
format ascii 1.0
element face 0
property list uchar int vertex_indices
element vertex 1256
property float x
property float y
property float z
property uchar diffuse_red
property uchar diffuse_green
property uchar diffuse_blue
end_header
-6.05944 -6.88189 1.73225 196 200 199
-6.07908 -6.88759 1.73445 190 198 198
-6.09872 -6.89330 1.73665 197 205 206
-6.11835 -6.89900 1.73885 197 196 202
-6.13799 -6.90471 1.74105 198 196 204
-6.15763 -6.91042 1.74325 197 198 206
-6.17728 -6.91613 1.74544 198 198 205
-6.19692 -6.92183 1.74764 198 200 208
-6.21656 -6.92754 1.74984 196 197 212
-6.23621 -6.93325 1.75204 198 200 206
-6.25586 -6.93896 1.75424 199 199 204
-6.27550 -6.94467 1.75644 201 199 206
-6.29515 -6.95038 1.75864 198 199 205
-6.31480 -6.95609 1.76084 187 185 199
-4.39942 -6.37090 1.52193 187 188 186
-4.41886 -6.37655 1.52411 184 184 187
-4.43831 -6.38220 1.52629 183 184 190
-4.45775 -6.38785 1.52846 187 190 188
-4.47719 -6.39350 1.53064 184 185 187
-4.49664 -6.39915 1.53281 181 183 186
-4.51609 -6.40480 1.53499 189 190 196
-4.53554 -6.41045 1.53717 198 203 207
-4.55499 -6.41610 1.53934 205 209 210
-4.57444 -6.42175 1.54152 204 207 202
-4.59389 -6.42740 1.54370 196 197 202
-4.61334 -6.43305 1.54587 200 206 208
-4.63280 -6.43871 1.54805 211 212 218
-4.65225 -6.44436 1.55023 210 213 215
-4.67171 -6.45001 1.55240 200 208 213
-4.69117 -6.45567 1.55458 200 204 214
-4.71063 -6.46132 1.55676 205 209 215
-4.73009 -6.46697 1.55894 207 204 212
-4.74955 -6.47263 1.56111 208 209 214
-4.76901 -6.47828 1.56329 211 213 219
-4.78848 -6.48394 1.56547 205 211 211
-4.80794 -6.48959 1.56765 206 213 207
-4.82741 -6.49525 1.56983 212 219 218
-4.84688 -6.50091 1.57200 204 207 208
-4.86635 -6.50656 1.57418 206 211 210
-4.88582 -6.51222 1.57636 206 209 211
-4.90529 -6.51788 1.57854 202 209 218
-4.92476 -6.52353 1.58072 213 220 224
-4.94423 -6.52919 1.58290 204 209 211
-4.96371 -6.53485 1.58508 203 208 210
-4.98319 -6.54051 1.58726 202 210 209
-5.00266 -6.54617 1.58944 205 207 211
-5.02214 -6.55183 1.59162 212 209 209
-5.04162 -6.55749 1.59380 213 216 216
-5.06110 -6.56315 1.59598 211 216 221
-5.08059 -6.56881 1.59816 202 201 214
-5.10007 -6.57447 1.60034 210 213 217
-5.11955 -6.58013 1.60252 214 218 217
-5.13904 -6.58579 1.60470 213 218 214
-5.15853 -6.59145 1.60688 213 220 215
-5.17801 -6.59712 1.60906 208 209 205
-5.19750 -6.60278 1.61124 200 201 200
-5.21700 -6.60844 1.61342 197 202 211
-5.23649 -6.61411 1.61560 209 211 213
-5.25598 -6.61977 1.61778 214 217 219
-5.27547 -6.62543 1.61996 214 216 214
-5.29497 -6.63110 1.62215 197 198 205
-5.31447 -6.63676 1.62433 197 201 201
-5.33396 -6.64243 1.62651 211 217 214
-5.35346 -6.64809 1.62869 209 209 208
-5.37296 -6.65376 1.63087 201 202 194
-5.39247 -6.65943 1.63306 200 199 194
-5.41197 -6.66509 1.63524 206 202 208
-5.43147 -6.67076 1.63742 207 200 211
-5.45098 -6.67642 1.63960 195 204 211
-5.47048 -6.68209 1.64179 200 206 207
-5.48999 -6.68776 1.64397 200 201 205
-5.50950 -6.69343 1.64615 191 196 203
-5.52901 -6.69910 1.64833 186 189 195
-5.54852 -6.70477 1.65052 195 197 210
-5.56803 -6.71044 1.65270 204 204 212
-5.58755 -6.71611 1.65488 206 203 210
-5.60706 -6.72178 1.65707 202 196 206
-5.62658 -6.72745 1.65925 201 197 205
-5.64610 -6.73312 1.66144 210 211 216
-5.66561 -6.73879 1.66362 214 214 217
-5.68513 -6.74446 1.66580 208 204 211
-5.70466 -6.75013 1.66799 199 199 210
-5.72418 -6.75580 1.67017 203 211 218
-5.74370 -6.76148 1.67236 212 216 217
-5.76323 -6.76715 1.67454 208 208 208
-5.78275 -6.77282 1.67673 198 201 207
-5.80228 -6.77849 1.67891 196 197 209
-5.82181 -6.78417 1.68110 199 200 208
-5.84134 -6.78984 1.68328 201 201 209
-5.86087 -6.79552 1.68547 199 199 208
-5.88040 -6.80119 1.68765 195 197 201
-5.89993 -6.80687 1.68984 191 193 202
-5.91947 -6.81254 1.69203 199 201 207
-5.93900 -6.81822 1.69421 209 208 212
-5.95854 -6.82389 1.69640 210 207 219
-5.97808 -6.82957 1.69858 210 208 218
-5.99761 -6.83525 1.70077 205 206 211
-6.01715 -6.84093 1.70296 208 210 213
-6.03670 -6.84660 1.70514 210 208 209
-6.05624 -6.85228 1.70733 204 197 197
-6.07578 -6.85796 1.70952 199 193 196
-6.09533 -6.86364 1.71170 198 199 203
-6.11487 -6.86932 1.71389 198 199 201
-6.13442 -6.87500 1.71608 195 199 204
-6.15397 -6.88068 1.71827 192 197 208
-6.17352 -6.88636 1.72045 196 201 207
-6.19307 -6.89204 1.72264 195 194 203
-6.21262 -6.89772 1.72483 193 192 204
-6.23218 -6.90340 1.72702 202 202 206
-6.25173 -6.90908 1.72921 201 199 205
-6.27129 -6.91476 1.73139 202 199 205
-6.29085 -6.92045 1.73358 196 195 203
-6.31040 -6.92613 1.73577 185 188 198
-4.40393 -6.34388 1.49817 184 184 185
-4.42328 -6.34950 1.50033 183 181 187
-4.44263 -6.35512 1.50249 187 190 193
-4.46198 -6.36074 1.50466 192 194 200
-4.48134 -6.36636 1.50682 194 194 199
-4.50069 -6.37199 1.50899 194 197 198
-4.52005 -6.37761 1.51116 194 195 196
-4.53941 -6.38323 1.51332 194 200 199
-4.55877 -6.38886 1.51549 197 205 206
-4.57813 -6.39448 1.51765 197 202 200
-4.59749 -6.40011 1.51982 195 198 200
-4.61686 -6.40573 1.52198 194 205 210
-4.63622 -6.41136 1.52415 208 214 221
-4.65559 -6.41698 1.52632 210 215 215
-4.67495 -6.42261 1.52848 199 203 207
-4.69432 -6.42824 1.53065 198 198 206
-4.71369 -6.43386 1.53282 204 204 211
-4.73306 -6.43949 1.53498 208 209 212
-4.75244 -6.44512 1.53715 204 208 210
-4.77181 -6.45075 1.53932 208 210 215
-4.79118 -6.45638 1.54148 210 212 208
-4.81056 -6.46200 1.54365 207 218 212
-4.82993 -6.46763 1.54582 200 203 211
-4.84931 -6.47326 1.54799 207 210 211
-4.86869 -6.47889 1.55015 216 220 217
-4.88807 -6.48452 1.55232 210 208 209
-4.90745 -6.49015 1.55449 195 195 203
-4.92683 -6.49578 1.55666 203 210 216
-4.94622 -6.50141 1.55883 193 194 207
-4.96560 -6.50704 1.56099 197 200 211
-4.98499 -6.51268 1.56316 201 209 211
-5.00438 -6.51831 1.56533 199 204 212
-5.02376 -6.52394 1.56750 212 215 217
-5.04315 -6.52957 1.56967 214 219 219
-5.06255 -6.53521 1.57184 211 214 217
-5.08194 -6.54084 1.57401 203 205 211
-5.10133 -6.54647 1.57618 206 211 214
-5.12072 -6.55211 1.57835 206 210 214
-5.14012 -6.55774 1.58052 208 216 216
-5.15952 -6.56338 1.58269 209 214 214
-5.17892 -6.56901 1.58486 205 208 206
-5.19831 -6.57465 1.58703 197 203 206
-5.21771 -6.58028 1.58920 197 204 211
-5.23712 -6.58592 1.59137 209 212 210
-5.25652 -6.59156 1.59354 210 208 209
-5.27592 -6.59719 1.59571 206 204 202
-5.29533 -6.60283 1.59788 203 207 206
-5.31473 -6.60847 1.60005 205 204 207
-5.33414 -6.61411 1.60222 210 212 214
-5.35355 -6.61974 1.60439 209 208 212
-5.37296 -6.62538 1.60656 202 204 202
-5.39237 -6.63102 1.60873 201 208 203
-5.41178 -6.63666 1.61090 194 202 208
-5.43120 -6.64230 1.61308 194 197 204
-5.45061 -6.64794 1.61525 200 207 213
-5.47003 -6.65358 1.61742 201 204 211
-5.48945 -6.65922 1.61959 199 198 206
-5.50886 -6.66486 1.62176 190 191 203
-5.52828 -6.67050 1.62394 196 193 197
-5.54770 -6.67615 1.62611 193 190 201
-5.56713 -6.68179 1.62828 194 197 212
-5.58655 -6.68743 1.63045 202 208 215
-5.60597 -6.69307 1.63263 203 204 212
-5.62540 -6.69872 1.63480 204 209 211
-5.64483 -6.70436 1.63697 211 215 219
-5.66425 -6.71000 1.63915 208 210 220
-5.68368 -6.71565 1.64132 203 203 212
-5.70311 -6.72129 1.64349 205 206 210
-5.72254 -6.72694 1.64567 206 206 214
-5.74198 -6.73258 1.64784 202 202 216
-5.76141 -6.73823 1.65001 201 201 211
-5.78085 -6.74387 1.65219 203 201 209
-5.80028 -6.74952 1.65436 203 207 217
-5.81972 -6.75517 1.65654 205 211 221
-5.83916 -6.76081 1.65871 204 210 217
-5.85860 -6.76646 1.66089 204 212 217
-5.87804 -6.77211 1.66306 205 212 209
-5.89748 -6.77776 1.66524 201 204 202
-5.91693 -6.78341 1.66741 199 203 209
-5.93637 -6.78905 1.66959 205 212 219
-5.95582 -6.79470 1.67176 203 209 216
-5.97526 -6.80035 1.67394 202 202 209
-5.99471 -6.80600 1.67611 207 205 209
-6.01416 -6.81165 1.67829 209 209 211
-6.03361 -6.81730 1.68046 197 201 213
-6.05306 -6.82295 1.68264 194 200 208
-6.07252 -6.82861 1.68481 196 198 205
-6.09197 -6.83426 1.68699 197 201 206
-6.11143 -6.83991 1.68917 200 203 206
-6.13088 -6.84556 1.69134 197 194 207
-6.15034 -6.85121 1.69352 191 196 210
-6.16980 -6.85687 1.69570 191 192 206
-6.18926 -6.86252 1.69787 192 191 203
-6.20872 -6.86817 1.70005 195 199 203
-6.22818 -6.87383 1.70223 197 198 204
-6.24765 -6.87948 1.70440 191 196 204
-6.26711 -6.88514 1.70658 193 200 205
-6.28658 -6.89079 1.70876 194 196 204
-6.30605 -6.89645 1.71094 192 193 196
-4.40839 -6.31710 1.47462 179 185 187
-4.42765 -6.32270 1.47677 183 184 189
-4.44691 -6.32829 1.47892 188 190 194
-4.46618 -6.33389 1.48108 190 189 196
-4.48545 -6.33948 1.48323 192 193 196
-4.50471 -6.34508 1.48539 196 201 202
-4.52398 -6.35068 1.48754 191 194 197
-4.54325 -6.35627 1.48970 193 197 197
-4.56252 -6.36187 1.49185 195 199 200
-4.58179 -6.36747 1.49401 195 201 202
-4.60107 -6.37307 1.49616 198 204 203
-4.62034 -6.37867 1.49832 197 206 208
-4.63962 -6.38426 1.50047 199 202 207
-4.65889 -6.38986 1.50263 200 204 210
-4.67817 -6.39546 1.50478 202 209 208
-4.69745 -6.40106 1.50694 204 204 205
-4.71673 -6.40666 1.50909 206 211 211
-4.73601 -6.41226 1.51125 209 216 213
-4.75529 -6.41786 1.51341 202 213 212
-4.77458 -6.42346 1.51556 208 211 216
-4.79386 -6.42907 1.51772 203 203 201
-4.81315 -6.43467 1.51988 196 206 206
-4.83243 -6.44027 1.52203 188 192 205
-4.85172 -6.44587 1.52419 200 209 213
-4.87101 -6.45148 1.52635 215 217 218
-4.89030 -6.45708 1.52850 212 211 208
-4.90960 -6.46268 1.53066 193 197 192
-4.92889 -6.46829 1.53282 194 197 200
-4.94818 -6.47389 1.53498 193 193 200
-4.96748 -6.47949 1.53713 206 215 218
-4.98678 -6.48510 1.53929 206 210 210
-5.00607 -6.49070 1.54145 193 199 207
-5.02537 -6.49631 1.54361 203 210 214
-5.04467 -6.50192 1.54577 209 212 215
-5.06397 -6.50752 1.54792 207 210 211
-5.08328 -6.51313 1.55008 197 197 202
-5.10258 -6.51874 1.55224 201 204 209
-5.12189 -6.52434 1.55440 208 210 212
-5.14119 -6.52995 1.55656 212 215 216
-5.16050 -6.53556 1.55872 208 207 211
-5.17981 -6.54117 1.56088 202 207 210
-5.19912 -6.54678 1.56304 206 209 215
-5.21843 -6.55238 1.56520 206 206 214
-5.23774 -6.55799 1.56736 205 207 211
-5.25705 -6.56360 1.56951 206 210 211
-5.27637 -6.56921 1.57167 213 217 209
-5.29568 -6.57482 1.57383 213 215 213
-5.31500 -6.58043 1.57599 218 221 221
-5.33432 -6.58605 1.57815 214 215 219
-5.35364 -6.59166 1.58032 208 211 216
-5.37296 -6.59727 1.58248 206 212 214
-5.39228 -6.60288 1.58464 212 216 219
-5.41160 -6.60849 1.58680 210 212 215
-5.43093 -6.61411 1.58896 201 199 205
-5.45025 -6.61972 1.59112 201 202 208
-5.46958 -6.62533 1.59328 206 205 213
-5.48890 -6.63095 1.59544 207 209 216
-5.50823 -6.63656 1.59760 199 197 207
-5.52756 -6.64217 1.59976 196 197 204
-5.54689 -6.64779 1.60193 197 203 210
-5.56623 -6.65341 1.60409 191 197 212
-5.58556 -6.65902 1.60625 191 198 209
-5.60489 -6.66464 1.60841 195 203 208
-5.62423 -6.67025 1.61057 198 204 207
-5.64357 -6.67587 1.61274 196 198 206
-5.66291 -6.68149 1.61490 198 198 206
-5.68224 -6.68710 1.61706 210 213 213
-5.70159 -6.69272 1.61922 219 218 218
-5.72093 -6.69834 1.62139 218 214 217
-5.74027 -6.70396 1.62355 213 211 216
-5.75961 -6.70958 1.62571 212 210 217
-5.77896 -6.71520 1.62788 208 205 212
-5.79831 -6.72081 1.63004 202 203 211
-5.81765 -6.72643 1.63220 202 204 212
-5.83700 -6.73205 1.63437 199 198 206
-5.85635 -6.73767 1.63653 193 190 202
-5.87570 -6.74329 1.63869 198 198 206
-5.89506 -6.74892 1.64086 207 210 211
-5.91441 -6.75454 1.64302 205 207 211
-5.93376 -6.76016 1.64519 202 202 207
-5.95312 -6.76578 1.64735 198 194 206
-5.97248 -6.77140 1.64952 194 193 208
-5.99184 -6.77703 1.65168 199 202 206
-6.01120 -6.78265 1.65384 201 202 205
-6.03056 -6.78827 1.65601 192 194 205
-6.04992 -6.79390 1.65817 189 190 202
-6.06928 -6.79952 1.66034 198 205 210
-6.08864 -6.80515 1.66251 197 202 214
-6.10801 -6.81077 1.66467 196 197 207
-6.12738 -6.81639 1.66684 203 208 207
-6.14674 -6.82202 1.66900 203 204 206
-6.16611 -6.82765 1.67117 192 189 201
-6.18548 -6.83327 1.67333 188 189 200
-6.20486 -6.83890 1.67550 192 194 200
-6.22423 -6.84453 1.67767 193 194 197
-6.24360 -6.85015 1.67983 190 195 197
-6.26298 -6.85578 1.68200 188 194 197
-6.28235 -6.86141 1.68417 186 191 197
-6.30173 -6.86704 1.68633 191 193 200
-4.41281 -6.29057 1.45128 176 181 184
-4.43198 -6.29614 1.45342 183 187 191
-4.45116 -6.30171 1.45557 191 194 196
-4.47034 -6.30728 1.45771 192 192 192
-4.48951 -6.31285 1.45986 186 187 184
-4.50869 -6.31842 1.46200 185 190 189
-4.52787 -6.32399 1.46414 182 187 196
-4.54705 -6.32956 1.46629 194 197 198
-4.56624 -6.33513 1.46843 195 197 194
-4.58542 -6.34070 1.47058 193 197 199
-4.60460 -6.34627 1.47272 202 208 206
-4.62379 -6.35185 1.47487 200 204 205
-4.64298 -6.35742 1.47701 196 194 194
-4.66217 -6.36299 1.47916 194 195 202
-4.68136 -6.36856 1.48130 196 202 200
-4.70055 -6.37414 1.48345 194 202 203
-4.71974 -6.37971 1.48559 198 206 208
-4.73893 -6.38528 1.48774 207 214 211
-4.75812 -6.39086 1.48988 202 209 213
-4.77732 -6.39643 1.49203 208 212 218
-4.79652 -6.40201 1.49417 206 207 206
-4.81571 -6.40758 1.49632 194 198 197
-4.83491 -6.41316 1.49847 193 195 197
-4.85411 -6.41873 1.50061 199 205 206
-4.87331 -6.42431 1.50276 212 215 216
-4.89252 -6.42989 1.50490 209 207 208
-4.91172 -6.43546 1.50705 189 196 192
-4.93092 -6.44104 1.50920 193 199 202
-4.95013 -6.44662 1.51135 203 207 207
-4.96934 -6.45220 1.51349 208 214 217
-4.98854 -6.45778 1.51564 205 206 211
-5.00775 -6.46335 1.51779 202 205 207
-5.02697 -6.46893 1.51993 200 202 203
-5.04618 -6.47451 1.52208 209 211 207
-5.06539 -6.48009 1.52423 205 205 206
-5.08460 -6.48567 1.52638 199 198 200
-5.10382 -6.49125 1.52853 202 205 207
-5.12303 -6.49683 1.53067 206 206 209
-5.14225 -6.50241 1.53282 212 214 211
-5.16147 -6.50800 1.53497 208 203 209
-5.18069 -6.51358 1.53712 202 199 206
-5.19991 -6.51916 1.53927 209 203 207
-5.21913 -6.52474 1.54142 211 210 215
-5.23836 -6.53032 1.54356 208 206 212
-5.25758 -6.53591 1.54571 202 203 211
-5.27681 -6.54149 1.54786 208 208 214
-5.29603 -6.54707 1.55001 213 214 216
-5.31526 -6.55266 1.55216 212 213 218
-5.33449 -6.55824 1.55431 201 197 212
-5.35372 -6.56383 1.55646 207 207 215
-5.37295 -6.56941 1.55861 207 208 213
-5.39219 -6.57500 1.56076 208 208 218
-5.41142 -6.58058 1.56291 212 210 216
-5.43066 -6.58617 1.56506 205 206 209
-5.44989 -6.59176 1.56721 203 205 210
-5.46913 -6.59734 1.56936 208 212 214
-5.48837 -6.60293 1.57151 211 210 216
-5.50761 -6.60852 1.57366 200 200 203
-5.52685 -6.61411 1.57581 184 192 202
-5.54609 -6.61969 1.57796 186 194 206
-5.56534 -6.62528 1.58012 193 198 208
-5.58458 -6.63087 1.58227 197 199 206
-5.60383 -6.63646 1.58442 195 197 205
-5.62307 -6.64205 1.58657 193 196 204
-5.64232 -6.64764 1.58872 199 202 203
-5.66157 -6.65323 1.59087 205 209 204
-5.68082 -6.65882 1.59302 201 204 207
-5.70007 -6.66441 1.59518 195 196 206
-5.71932 -6.67000 1.59733 197 202 208
-5.73858 -6.67559 1.59948 195 201 209
-5.75783 -6.68119 1.60163 195 199 208
-5.77709 -6.68678 1.60379 202 203 209
-5.79635 -6.69237 1.60594 204 203 209
-5.81561 -6.69796 1.60809 205 206 206
-5.83487 -6.70356 1.61024 203 203 200
-5.85413 -6.70915 1.61240 190 189 195
-5.87339 -6.71475 1.61455 187 187 199
-5.89265 -6.72034 1.61670 198 203 211
-5.91192 -6.72593 1.61886 202 207 214
-5.93118 -6.73153 1.62101 203 203 212
-5.95045 -6.73712 1.62317 200 203 210
-5.96972 -6.74272 1.62532 197 199 211
-5.98899 -6.74832 1.62747 197 199 211
-6.00826 -6.75391 1.62963 198 205 209
-6.02753 -6.75951 1.63178 198 201 205
-6.04680 -6.76511 1.63394 200 202 204
-6.06607 -6.77070 1.63609 205 204 205
-6.08535 -6.77630 1.63825 197 194 205
-6.10463 -6.78190 1.64040 192 194 206
-6.12390 -6.78750 1.64255 189 197 205
-6.14318 -6.79310 1.64471 193 195 203
-6.16246 -6.79870 1.64687 190 190 200
-6.18174 -6.80430 1.64902 187 192 202
-6.20103 -6.80990 1.65118 194 198 207
-6.22031 -6.81550 1.65333 193 196 203
-6.23959 -6.82110 1.65549 191 187 186
-6.25888 -6.82670 1.65764 185 180 187
-6.27817 -6.83230 1.65980 181 182 193
-6.29745 -6.83790 1.66195 185 185 198
-4.41719 -6.26429 1.42816 174 174 179
-4.43628 -6.26983 1.43029 182 185 190
-4.45537 -6.27537 1.43243 191 195 195
-4.47445 -6.28092 1.43456 193 196 193
-4.49355 -6.28646 1.43669 188 190 184
-4.51264 -6.29200 1.43883 184 186 181
-4.53173 -6.29755 1.44096 183 189 191
-4.55082 -6.30309 1.44309 193 195 193
-4.56992 -6.30864 1.44523 191 192 191
-4.58901 -6.31418 1.44736 191 196 199
-4.60811 -6.31973 1.44950 203 210 206
-4.62721 -6.32527 1.45163 201 203 205
-4.64631 -6.33082 1.45376 202 202 201
-4.66541 -6.33636 1.45590 203 206 207
-4.68451 -6.34191 1.45803 201 202 198
-4.70361 -6.34746 1.46017 188 191 195
-4.72272 -6.35300 1.46230 195 201 203
-4.74182 -6.35855 1.46444 209 217 211
-4.76093 -6.36410 1.46657 206 208 209
-4.78004 -6.36965 1.46871 202 206 210
-4.79915 -6.37520 1.47084 201 205 207
-4.81826 -6.38075 1.47298 200 205 202
-4.83737 -6.38629 1.47511 206 209 210
-4.85648 -6.39184 1.47725 209 214 213
-4.87559 -6.39739 1.47939 216 219 219
-4.89471 -6.40295 1.48152 212 210 214
-4.91382 -6.40850 1.48366 203 207 210
-4.93294 -6.41405 1.48579 200 207 208
-4.95206 -6.41960 1.48793 208 210 210
-4.97118 -6.42515 1.49007 205 206 215
-4.99030 -6.43070 1.49220 205 203 214
-5.00942 -6.43625 1.49434 213 215 212
-5.02854 -6.44181 1.49648 203 211 211
-5.04767 -6.44736 1.49861 207 214 212
-5.06679 -6.45291 1.50075 201 203 205
-5.08592 -6.45847 1.50289 196 196 199
-5.10505 -6.46402 1.50503 192 193 198
-5.12417 -6.46957 1.50716 197 200 202
-5.14330 -6.47513 1.50930 204 211 208
-5.16244 -6.48068 1.51144 204 206 210
-5.18157 -6.48624 1.51358 206 206 212
-5.20070 -6.49180 1.51572 211 216 220
-5.21983 -6.49735 1.51785 213 213 219
-5.23897 -6.50291 1.51999 216 217 212
-5.25811 -6.50846 1.52213 210 211 209
-5.27724 -6.51402 1.52427 211 214 218
-5.29638 -6.51958 1.52641 211 215 216
-5.31552 -6.52514 1.52855 208 210 213
-5.33466 -6.53069 1.53069 208 209 213
-5.35381 -6.53625 1.53282 215 217 216
-5.37295 -6.54181 1.53496 210 208 208
-5.39210 -6.54737 1.53710 207 206 214
-5.41124 -6.55293 1.53924 202 203 210
-5.43039 -6.55849 1.54138 198 203 210
-5.44954 -6.56405 1.54352 200 209 212
-5.46869 -6.56961 1.54566 203 211 212
-5.48784 -6.57517 1.54780 212 218 213
-5.50699 -6.58073 1.54994 208 203 191
-5.52614 -6.58629 1.55208 196 191 190
-5.54530 -6.59186 1.55422 198 198 202
-5.56445 -6.59742 1.55636 205 210 214
-5.58361 -6.60298 1.55850 209 208 211
-5.60277 -6.60854 1.56064 199 196 201
-5.62192 -6.61411 1.56279 190 190 195
-5.64108 -6.61967 1.56493 190 193 199
-5.66025 -6.62523 1.56707 197 200 206
-5.67941 -6.63080 1.56921 199 201 209
-5.69857 -6.63636 1.57135 190 197 207
-5.71774 -6.64193 1.57349 190 198 206
-5.73690 -6.64749 1.57563 193 198 204
-5.75607 -6.65306 1.57778 199 202 204
-5.77524 -6.65862 1.57992 208 209 209
-5.79441 -6.66419 1.58206 205 206 208
-5.81358 -6.66976 1.58420 199 199 204
-5.83275 -6.67532 1.58634 201 199 203
-5.85192 -6.68089 1.58849 195 194 199
-5.87109 -6.68646 1.59063 189 192 202
-5.89027 -6.69203 1.59277 201 206 212
-5.90945 -6.69759 1.59492 207 210 217
-5.92862 -6.70316 1.59706 207 208 213
-5.94780 -6.70873 1.59920 200 197 201
-5.96698 -6.71430 1.60134 195 191 201
-5.98616 -6.71987 1.60349 198 194 211
-6.00534 -6.72544 1.60563 199 195 208
-6.02453 -6.73101 1.60778 197 198 206
-6.04371 -6.73658 1.60992 199 206 207
-6.06290 -6.74215 1.61206 209 215 209
-6.08208 -6.74772 1.61421 204 205 208
-6.10127 -6.75329 1.61635 200 198 202
-6.12046 -6.75887 1.61850 194 193 196
-6.13965 -6.76444 1.62064 195 199 200
-6.15884 -6.77001 1.62278 195 196 201
-6.17804 -6.77558 1.62493 193 192 200
-6.19723 -6.78116 1.62707 193 189 199
-6.21642 -6.78673 1.62922 191 190 194
-6.23562 -6.79230 1.63136 188 184 188
-6.25482 -6.79788 1.63351 189 189 189
-6.27402 -6.80345 1.63565 188 193 189
-6.29322 -6.80903 1.63780 187 189 189
-4.42153 -6.23824 1.40525 177 175 177
-4.44053 -6.24376 1.40737 181 186 185
-4.45953 -6.24927 1.40949 190 194 187
-4.47854 -6.25479 1.41162 193 193 191
-4.49754 -6.26031 1.41374 195 199 188
-4.51655 -6.26583 1.41586 190 187 182
-4.53555 -6.27134 1.41799 189 191 189
-4.55456 -6.27686 1.42011 194 195 192
-4.57357 -6.28238 1.42223 193 195 195
-4.59258 -6.28790 1.42436 197 206 208
-4.61159 -6.29342 1.42648 201 209 209
-4.63060 -6.29894 1.42860 203 203 207
-4.64961 -6.30446 1.43073 208 209 211
-4.66862 -6.30998 1.43285 204 208 213
-4.68764 -6.31550 1.43498 206 206 206
-4.70666 -6.32102 1.43710 196 193 197
-4.72567 -6.32654 1.43923 202 205 204
-4.74469 -6.33206 1.44135 208 213 213
-4.76371 -6.33758 1.44347 205 204 203
-4.78273 -6.34311 1.44560 192 198 200
-4.80175 -6.34863 1.44772 193 197 202
-4.82078 -6.35415 1.44985 190 197 202
-4.83980 -6.35968 1.45197 208 213 218
-4.85883 -6.36520 1.45410 206 213 219
-4.87785 -6.37072 1.45623 206 213 221
-4.89688 -6.37625 1.45835 206 209 218
-4.91591 -6.38177 1.46048 211 216 218
-4.93494 -6.38730 1.46260 207 207 210
-4.95397 -6.39282 1.46473 205 206 206
-4.97300 -6.39835 1.46685 192 196 204
-4.99204 -6.40387 1.46898 204 212 217
-5.01107 -6.40940 1.47111 216 216 217
-5.03011 -6.41493 1.47323 206 210 213
-5.04914 -6.42045 1.47536 200 202 207
-5.06818 -6.42598 1.47749 199 202 206
-5.08722 -6.43151 1.47961 201 203 203
-5.10626 -6.43704 1.48174 194 193 196
-5.12530 -6.44256 1.48387 188 193 191
-5.14435 -6.44809 1.48600 192 198 198
-5.16339 -6.45362 1.48812 196 197 200
-5.18243 -6.45915 1.49025 202 205 212
-5.20148 -6.46468 1.49238 204 210 216
-5.22053 -6.47021 1.49451 207 216 219
-5.23958 -6.47574 1.49663 210 216 215
-5.25863 -6.48127 1.49876 211 211 209
-5.27768 -6.48680 1.50089 216 218 220
-5.29673 -6.49233 1.50302 202 207 214
-5.31578 -6.49787 1.50515 194 204 207
-5.33484 -6.50340 1.50727 203 210 214
-5.35389 -6.50893 1.50940 211 219 215
-5.37295 -6.51446 1.51153 208 216 210
-5.39201 -6.52000 1.51366 202 204 213
-5.41106 -6.52553 1.51579 198 204 214
-5.43012 -6.53106 1.51792 199 205 209
-5.44919 -6.53660 1.52005 199 205 204
-5.46825 -6.54213 1.52218 194 203 197
-5.48731 -6.54766 1.52431 198 208 203
-5.50638 -6.55320 1.52644 197 197 203
-5.52544 -6.55873 1.52857 201 203 205
-5.54451 -6.56427 1.53070 209 214 211
-5.56358 -6.56981 1.53283 207 213 215
-5.58265 -6.57534 1.53496 200 206 210
-5.60172 -6.58088 1.53709 195 193 202
-5.62079 -6.58642 1.53922 192 195 201
-5.63986 -6.59195 1.54135 202 210 208
-5.65893 -6.59749 1.54348 207 209 210
-5.67801 -6.60303 1.54561 209 207 209
-5.69708 -6.60857 1.54774 202 204 206
-5.71616 -6.61411 1.54987 189 196 205
-5.73524 -6.61965 1.55200 184 190 203
-5.75432 -6.62518 1.55413 190 193 202
-5.77340 -6.63072 1.55627 197 198 203
-5.79248 -6.63626 1.55840 195 198 203
-5.81157 -6.64180 1.56053 193 198 204
-5.83065 -6.64735 1.56266 200 204 210
-5.84974 -6.65289 1.56479 204 208 212
-5.86882 -6.65843 1.56693 199 204 210
-5.88791 -6.66397 1.56906 201 205 214
-5.90700 -6.66951 1.57119 210 214 223
-5.92609 -6.67505 1.57332 215 216 221
-5.94518 -6.68060 1.57546 206 204 208
-5.96427 -6.68614 1.57759 195 199 208
-5.98337 -6.69168 1.57972 202 211 216
-6.00246 -6.69723 1.58185 205 205 210
-6.02155 -6.70277 1.58399 200 199 208
-6.04065 -6.70831 1.58612 200 203 211
-6.05975 -6.71386 1.58825 204 212 218
-6.07885 -6.71940 1.59039 202 208 215
-6.09795 -6.72495 1.59252 201 205 206
-6.11705 -6.73049 1.59466 198 200 200
-6.13615 -6.73604 1.59679 199 200 203
-6.15526 -6.74159 1.59892 198 199 201
-6.17436 -6.74713 1.60106 196 201 202
-6.19347 -6.75268 1.60319 203 210 216
-6.21258 -6.75823 1.60533 203 206 205
-6.23168 -6.76378 1.60746 193 190 190
-6.25079 -6.76932 1.60960 196 195 191
-6.26991 -6.77487 1.61173 188 189 189
-6.28902 -6.78042 1.61387 186 182 193
-4.40692 -6.20694 1.38043 180 182 176
-4.42584 -6.21243 1.38255 178 177 176
-4.44475 -6.21792 1.38466 179 184 178
-4.46366 -6.22341 1.38677 187 192 184
-4.48258 -6.22890 1.38888 192 192 190
-4.50150 -6.23439 1.39100 195 198 192
-4.52042 -6.23989 1.39311 193 191 187
-4.53934 -6.24538 1.39522 189 190 193
-4.55826 -6.25087 1.39733 195 197 196
-4.57718 -6.25636 1.39945 196 198 199
-4.59610 -6.26186 1.40156 201 208 207
-4.61503 -6.26735 1.40367 196 200 206
-4.63396 -6.27284 1.40579 203 205 207
-4.65288 -6.27834 1.40790 210 214 212
-4.67181 -6.28383 1.41002 199 204 211
-4.69074 -6.28933 1.41213 204 209 215
-4.70967 -6.29482 1.41424 206 204 211
-4.72860 -6.30032 1.41636 209 208 211
-4.74753 -6.30581 1.41847 207 209 210
-4.76647 -6.31131 1.42059 205 206 208
-4.78540 -6.31681 1.42270 194 197 198
-4.80434 -6.32230 1.42481 199 207 203
-4.82327 -6.32780 1.42693 189 190 197
-4.84221 -6.33330 1.42904 201 205 206
-4.86115 -6.33880 1.43116 209 211 215
-4.88009 -6.34429 1.43327 204 204 213
-4.89903 -6.34979 1.43539 201 207 215
-4.91798 -6.35529 1.43751 208 211 214
-4.93692 -6.36079 1.43962 211 212 213
-4.95587 -6.36629 1.44174 209 213 210
-4.97481 -6.37179 1.44385 199 205 209
-4.99376 -6.37729 1.44597 201 216 216
-5.01271 -6.38279 1.44808 214 217 220
-5.03166 -6.38829 1.45020 215 215 214
-5.05061 -6.39379 1.45232 209 208 202
-5.06956 -6.39929 1.45443 205 208 207
-5.08851 -6.40479 1.45655 206 208 209
-5.10747 -6.41030 1.45867 198 201 201
-5.12642 -6.41580 1.46078 193 199 199
-5.14538 -6.42130 1.46290 191 196 199
-5.16434 -6.42681 1.46502 195 201 201
-5.18329 -6.43231 1.46713 206 209 211
-5.20225 -6.43781 1.46925 207 204 201
-5.22122 -6.44332 1.47137 206 202 205
-5.24018 -6.44882 1.47349 210 211 217
-5.25914 -6.45433 1.47560 213 218 221
-5.27811 -6.45983 1.47772 222 226 223
-5.29707 -6.46534 1.47984 212 213 214
-5.31604 -6.47084 1.48196 205 205 210
-5.33501 -6.47635 1.48408 214 215 219
-5.35397 -6.48185 1.48619 215 214 216
-5.37294 -6.48736 1.48831 200 205 208
-5.39192 -6.49287 1.49043 189 187 199
-5.41089 -6.49837 1.49255 187 192 201
-5.42986 -6.50388 1.49467 198 201 202
-5.44884 -6.50939 1.49679 210 214 207
-5.46781 -6.51490 1.49891 214 216 209
-5.48679 -6.52041 1.50103 210 211 210
-5.50577 -6.52592 1.50315 205 205 209
-5.52475 -6.53143 1.50526 197 200 208
-5.54373 -6.53694 1.50738 203 209 214
-5.56271 -6.54245 1.50950 206 210 214
-5.58169 -6.54796 1.51162 205 211 213
-5.60068 -6.55347 1.51374 208 215 214
-5.61966 -6.55898 1.51586 207 210 215
-5.63865 -6.56449 1.51798 206 211 220
-5.65763 -6.57000 1.52010 204 209 220
-5.67662 -6.57551 1.52223 208 214 219
-5.69561 -6.58103 1.52435 207 205 208
-5.71460 -6.58654 1.52647 204 200 201
-5.73359 -6.59205 1.52859 195 200 198
-5.75259 -6.59756 1.53071 183 190 195
-5.77158 -6.60308 1.53283 187 195 200
-5.79058 -6.60859 1.53495 195 198 198
-5.80957 -6.61411 1.53707 196 197 201
-5.82857 -6.61962 1.53919 198 201 206
-5.84757 -6.62514 1.54132 198 198 200
-5.86657 -6.63065 1.54344 195 195 202
-5.88557 -6.63617 1.54556 195 201 209
-5.90457 -6.64168 1.54768 207 218 224
-5.92358 -6.64720 1.54980 215 222 229
-5.94258 -6.65272 1.55193 208 205 210
-5.96159 -6.65823 1.55405 195 193 203
-5.98059 -6.66375 1.55617 197 198 206
-5.99960 -6.66927 1.55829 202 197 206
-6.01861 -6.67479 1.56042 197 183 200
-6.03762 -6.68030 1.56254 199 188 200
-6.05663 -6.68582 1.56466 196 192 203
-6.07564 -6.69134 1.56679 191 191 201
-6.09466 -6.69686 1.56891 190 198 210
-6.11367 -6.70238 1.57103 194 201 207
-6.13269 -6.70790 1.57316 199 207 208
-6.15170 -6.71342 1.57528 198 202 204
-6.17072 -6.71894 1.57740 187 192 194
-6.18974 -6.72446 1.57953 191 193 206
-6.20876 -6.72998 1.58165 196 195 200
-6.22778 -6.73551 1.58378 193 194 198
-6.24681 -6.74103 1.58590 199 203 204
-6.26583 -6.74655 1.58802 203 206 200
-6.28486 -6.75207 1.59015 191 187 192
-4.39244 -6.17592 1.35584 176 180 175
-4.41127 -6.18139 1.35795 178 184 177
-4.43010 -6.18685 1.36005 185 183 181
-4.44893 -6.19232 1.36215 187 186 183
-4.46776 -6.19778 1.36425 184 186 185
-4.48659 -6.20325 1.36635 184 187 188
-4.50542 -6.20871 1.36846 189 189 190
-4.52426 -6.21418 1.37056 197 202 200
-4.54309 -6.21965 1.37266 194 200 201
-4.56193 -6.22511 1.37476 197 198 200
-4.58076 -6.23058 1.37687 199 199 201
-4.59960 -6.23605 1.37897 202 205 202
-4.61844 -6.24152 1.38107 196 196 202
-4.63728 -6.24698 1.38318 201 207 211
-4.65612 -6.25245 1.38528 208 217 214
-4.67497 -6.25792 1.38738 199 203 210
-4.69381 -6.26339 1.38949 199 207 213
-4.71265 -6.26886 1.39159 210 212 216
-4.73150 -6.27433 1.39370 215 213 217
-4.75035 -6.27980 1.39580 205 207 208
-4.76920 -6.28527 1.39790 200 207 209
-4.78805 -6.29074 1.40001 211 212 209
-4.80690 -6.29621 1.40211 216 222 216
-4.82575 -6.30169 1.40422 203 200 203
-4.84460 -6.30716 1.40632 206 211 206
-4.86346 -6.31263 1.40843 208 211 214
-4.88231 -6.31810 1.41053 208 209 209
-4.90117 -6.32358 1.41264 200 202 211
-4.92002 -6.32905 1.41474 203 209 214
-4.93888 -6.33452 1.41685 213 222 223
-4.95774 -6.34000 1.41895 214 216 214
-4.97660 -6.34547 1.42106 209 209 208
-4.99547 -6.35094 1.42316 192 199 203
-5.01433 -6.35642 1.42527 203 210 209
-5.03319 -6.36189 1.42737 210 213 210
-5.05206 -6.36737 1.42948 219 220 206
-5.07092 -6.37285 1.43159 207 211 201
-5.08979 -6.37832 1.43369 198 197 206
-5.10866 -6.38380 1.43580 197 200 203
-5.12753 -6.38928 1.43791 195 203 204
-5.14640 -6.39475 1.44001 188 197 202
-5.16527 -6.40023 1.44212 189 202 203
-5.18415 -6.40571 1.44423 205 211 215
-5.20302 -6.41119 1.44633 208 209 209
-5.22190 -6.41666 1.44844 205 208 207
-5.24077 -6.42214 1.45055 211 218 214
-5.25965 -6.42762 1.45266 210 213 212
-5.27853 -6.43310 1.45476 215 218 220
-5.29741 -6.43858 1.45687 217 217 218
-5.31629 -6.44406 1.45898 212 205 212
-5.33517 -6.44954 1.46109 209 210 217
-5.35406 -6.45502 1.46319 210 207 207
-5.37294 -6.46050 1.46530 212 204 206
-5.39183 -6.46598 1.46741 213 209 207
-5.41071 -6.47147 1.46952 214 215 210
-5.42960 -6.47695 1.47163 210 218 214
-5.44849 -6.48243 1.47374 208 214 215
-5.46738 -6.48791 1.47585 206 208 215
-5.48627 -6.49340 1.47796 205 207 213
-5.50517 -6.49888 1.48006 207 209 211
-5.52406 -6.50436 1.48217 202 205 204
-5.54295 -6.50985 1.48428 203 200 202
-5.56185 -6.51533 1.48639 208 206 211
-5.58075 -6.52082 1.48850 207 212 216
-5.59964 -6.52630 1.49061 203 205 210
-5.61854 -6.53179 1.49272 201 199 210
-5.63744 -6.53727 1.49483 207 208 216
-5.65635 -6.54276 1.49694 205 213 217
-5.67525 -6.54824 1.49905 206 212 218
-5.69415 -6.55373 1.50116 212 218 217
-5.71306 -6.55922 1.50327 206 210 206
-5.73196 -6.56471 1.50538 195 195 197
-5.75087 -6.57019 1.50749 192 194 199
-5.76978 -6.57568 1.50960 197 201 205
-5.78869 -6.58117 1.51172 204 208 207
-5.80760 -6.58666 1.51383 209 212 211
-5.82651 -6.59215 1.51594 207 208 210
-5.84542 -6.59764 1.51805 202 203 202
-5.86434 -6.60313 1.52016 201 204 206
-5.88325 -6.60862 1.52227 200 199 209
-5.90217 -6.61411 1.52438 209 209 215
-5.92109 -6.61960 1.52650 215 218 219
-5.94000 -6.62509 1.52861 208 209 212
-5.95892 -6.63058 1.53072 200 202 207
-5.97785 -6.63607 1.53283 203 207 209
-5.99677 -6.64156 1.53494 206 208 211
-6.01569 -6.64705 1.53706 204 204 213
-6.03461 -6.65255 1.53917 202 203 213
-6.05354 -6.65804 1.54128 194 200 208
-6.07247 -6.66353 1.54340 190 198 199
-6.09139 -6.66903 1.54551 187 187 196
-6.11032 -6.67452 1.54762 191 191 201
-6.12925 -6.68002 1.54973 197 203 206
-6.14818 -6.68551 1.55185 201 204 208
-6.16712 -6.69100 1.55396 201 200 205
-6.18605 -6.69650 1.55608 194 192 204
-6.20498 -6.70200 1.55819 197 190 198
-6.22392 -6.70749 1.56030 188 183 186
-6.24286 -6.71299 1.56242 186 189 187
-6.26179 -6.71848 1.56453 187 187 186
-6.28073 -6.72398 1.56665 183 176 183
-4.37810 -6.14519 1.33148 179 179 175
-4.39684 -6.15062 1.33357 180 183 178
-4.41558 -6.15606 1.33566 180 185 180
-4.43432 -6.16150 1.33775 188 189 183
-4.45307 -6.16694 1.33984 188 188 186
-4.47181 -6.17238 1.34193 179 181 182
-4.49056 -6.17782 1.34403 178 182 184
-4.50931 -6.18326 1.34612 184 187 185
-4.52806 -6.18870 1.34821 193 199 200
-4.54681 -6.19415 1.35030 191 198 200
-4.56556 -6.19959 1.35240 196 197 202
-4.58431 -6.20503 1.35449 203 203 205
-4.60307 -6.21047 1.35658 203 206 207
-4.62182 -6.21592 1.35868 201 204 206
-4.64058 -6.22136 1.36077 196 203 211
-4.65934 -6.22680 1.36286 201 209 214
-4.67809 -6.23224 1.36496 197 201 204
-4.69685 -6.23769 1.36705 193 201 196
-4.71561 -6.24313 1.36914 201 205 209
-4.73438 -6.24858 1.37124 207 208 211
-4.75314 -6.25402 1.37333 197 194 202
-4.77190 -6.25947 1.37542 189 196 196
-4.79067 -6.26491 1.37752 208 212 213
-4.80943 -6.27036 1.37961 215 215 214
-4.82820 -6.27581 1.38171 204 204 207
-4.84697 -6.28125 1.38380 209 214 210
-4.86574 -6.28670 1.38590 208 218 220
-4.88451 -6.29215 1.38799 210 214 213
-4.90328 -6.29759 1.39009 205 206 208
-4.92205 -6.30304 1.39218 204 209 215
-4.94083 -6.30849 1.39428 213 222 226
-4.95960 -6.31394 1.39637 210 212 216
-4.97838 -6.31939 1.39847 215 216 215
-4.99716 -6.32484 1.40056 201 203 205
-5.01594 -6.33029 1.40266 205 210 208
-5.03471 -6.33574 1.40475 207 205 206
-5.05350 -6.34119 1.40685 216 219 202
-5.07228 -6.34664 1.40895 208 206 193
-5.09106 -6.35209 1.41104 198 201 200
-5.10984 -6.35754 1.41314 200 203 201
-5.12863 -6.36299 1.41524 206 211 206
-5.14742 -6.36844 1.41733 203 208 205
-5.16620 -6.37389 1.41943 202 201 198
-5.18499 -6.37935 1.42153 208 208 210
-5.20378 -6.38480 1.42362 209 215 210
-5.22257 -6.39025 1.42572 203 205 209
-5.24136 -6.39570 1.42782 205 207 213
-5.26016 -6.40116 1.42991 207 214 214
-5.27895 -6.40661 1.43201 204 207 218
-5.29775 -6.41207 1.43411 209 213 219
-5.31654 -6.41752 1.43621 212 215 222
-5.33534 -6.42298 1.43830 207 210 218
-5.35414 -6.42843 1.44040 208 211 212
-5.37294 -6.43389 1.44250 208 208 212
-5.39174 -6.43934 1.44460 211 212 216
-5.41054 -6.44480 1.44670 210 212 213
-5.42934 -6.45026 1.44880 204 205 208
-5.44815 -6.45571 1.45089 205 206 211
-5.46695 -6.46117 1.45299 207 209 213
-5.48576 -6.46663 1.45509 206 207 212
-5.50457 -6.47209 1.45719 204 204 206
-5.52338 -6.47754 1.45929 194 195 191
-5.54219 -6.48300 1.46139 197 197 198
-5.56100 -6.48846 1.46349 205 209 210
-5.57981 -6.49392 1.46559 203 208 212
-5.59862 -6.49938 1.46769 199 204 208
-5.61744 -6.50484 1.46979 196 197 210
-5.63625 -6.51030 1.47189 200 209 216
-5.65507 -6.51576 1.47399 194 205 212
-5.67389 -6.52122 1.47609 197 208 215
-5.69271 -6.52668 1.47819 203 208 220
-5.71153 -6.53214 1.48029 201 199 211
-5.73035 -6.53761 1.48239 198 195 204
-5.74917 -6.54307 1.48449 201 200 207
-5.76799 -6.54853 1.48659 202 205 213
-5.78682 -6.55399 1.48869 199 202 215
-5.80564 -6.55946 1.49079 201 206 212
-5.82447 -6.56492 1.49289 204 207 212
-5.84330 -6.57038 1.49499 204 208 214
-5.86213 -6.57585 1.49709 203 206 216
-5.88096 -6.58131 1.49919 194 194 208
-5.89979 -6.58678 1.50130 196 198 205
-5.91862 -6.59224 1.50340 196 200 208
-5.93745 -6.59771 1.50550 195 197 209
-5.95629 -6.60317 1.50760 199 208 212
-5.97512 -6.60864 1.50970 203 211 215
-5.99396 -6.61411 1.51181 203 208 214
-6.01280 -6.61957 1.51391 201 208 215
-6.03164 -6.62504 1.51601 201 205 208
-6.05048 -6.63051 1.51811 195 201 201
-6.06932 -6.63598 1.52022 196 209 212
-6.08816 -6.64144 1.52232 198 200 205
-6.10700 -6.64691 1.52442 200 200 204
-6.12585 -6.65238 1.52653 201 199 202
-6.14469 -6.65785 1.52863 204 201 203
-6.16354 -6.66332 1.53073 206 202 207
-6.18239 -6.66879 1.53284 189 189 207
-6.20124 -6.67426 1.53494 188 192 210
-6.22009 -6.67973 1.53704 192 201 202
-6.23894 -6.68520 1.53915 194 197 198
-6.25779 -6.69067 1.54125 191 190 193
-6.27665 -6.69614 1.54335 189 180 192
-4.38253 -6.12014 1.30941 186 190 183
-4.40119 -6.12555 1.31149 187 190 186
-4.41985 -6.13097 1.31357 182 185 181
-4.43851 -6.13638 1.31565 181 185 178
-4.45717 -6.14180 1.31773 179 182 178
-4.47583 -6.14721 1.31982 176 179 177
-4.49450 -6.15263 1.32190 182 183 183
-4.51316 -6.15804 1.32398 187 192 186
-4.53183 -6.16346 1.32606 188 192 194
-4.55050 -6.16887 1.32815 187 190 193
-4.56916 -6.17429 1.33023 193 197 201
-4.58783 -6.17971 1.33231 198 201 205
-4.60650 -6.18512 1.33439 203 205 212
-4.62517 -6.19054 1.33648 201 204 208
-4.64385 -6.19596 1.33856 196 204 212
-4.66252 -6.20138 1.34064 202 206 211
-4.68120 -6.20680 1.34273 207 212 206
-4.69987 -6.21222 1.34481 205 212 200
-4.71855 -6.21763 1.34689 203 203 207
-4.73723 -6.22305 1.34898 207 206 206
-4.75590 -6.22847 1.35106 194 190 198
-4.77458 -6.23389 1.35315 189 197 197
-4.79327 -6.23932 1.35523 207 215 217
-4.81195 -6.24474 1.35732 214 211 211
-4.83063 -6.25016 1.35940 210 210 209
-4.84932 -6.25558 1.36148 209 212 211
-4.86800 -6.26100 1.36357 199 204 212
-4.88669 -6.26642 1.36565 200 203 206
-4.90538 -6.27184 1.36774 204 208 206
-4.92407 -6.27727 1.36982 213 219 216
-4.94276 -6.28269 1.37191 217 222 221
-4.96145 -6.28811 1.37399 211 213 214
-4.98014 -6.29354 1.37608 206 208 213
-4.99883 -6.29896 1.37816 200 203 209
-5.01753 -6.30439 1.38025 202 205 209
-5.03622 -6.30981 1.38234 207 210 211
-5.05492 -6.31524 1.38442 207 209 207
-5.07362 -6.32066 1.38651 212 220 202
-5.09232 -6.32609 1.38859 204 209 203
-5.11102 -6.33151 1.39068 200 201 200
-5.12972 -6.33694 1.39277 201 200 205
-5.14842 -6.34236 1.39485 208 215 213
-5.16712 -6.34779 1.39694 218 221 208
-5.18583 -6.35322 1.39903 213 213 210
-5.20453 -6.35865 1.40111 205 205 208
-5.22324 -6.36407 1.40320 198 200 202
-5.24195 -6.36950 1.40529 203 206 205
-5.26066 -6.37493 1.40738 211 213 214
-5.27937 -6.38036 1.40946 213 212 218
-5.29808 -6.38579 1.41155 216 216 219
-5.31679 -6.39122 1.41364 215 220 220
-5.33551 -6.39665 1.41573 215 215 215
-5.35422 -6.40208 1.41781 211 209 212
-5.37293 -6.40751 1.41990 206 203 212
-5.39165 -6.41294 1.42199 205 206 216
-5.41037 -6.41837 1.42408 209 214 214
-5.42909 -6.42380 1.42617 210 210 213
-5.44781 -6.42923 1.42825 211 215 214
-5.46653 -6.43467 1.43034 211 211 209
-5.48525 -6.44010 1.43243 208 206 208
-5.50398 -6.44553 1.43452 202 203 207
-5.52270 -6.45096 1.43661 200 208 209
-5.54143 -6.45640 1.43870 204 214 214
-5.56015 -6.46183 1.44079 207 213 213
-5.57888 -6.46727 1.44288 210 213 212
-5.59761 -6.47270 1.44497 216 220 214
-5.61634 -6.47813 1.44706 209 211 209
-5.63507 -6.48357 1.44915 201 201 197
-5.65380 -6.48900 1.45124 199 199 196
-5.67254 -6.49444 1.45333 195 198 202
-5.69127 -6.49988 1.45542 193 194 204
-5.71001 -6.50531 1.45751 198 198 210
-5.72874 -6.51075 1.45960 202 202 210
-5.74748 -6.51619 1.46169 197 195 204
-5.76622 -6.52162 1.46378 194 194 203
-5.78496 -6.52706 1.46587 200 203 207
-5.80370 -6.53250 1.46796 204 209 212
-5.82244 -6.53794 1.47005 204 208 213
-5.84119 -6.54338 1.47214 209 210 213
-5.85993 -6.54881 1.47423 206 209 213
-5.87868 -6.55425 1.47632 194 203 207
-5.89743 -6.55969 1.47842 193 201 204
-5.91617 -6.56513 1.48051 197 200 205
-5.93492 -6.57057 1.48260 201 200 204
-5.95367 -6.57601 1.48469 204 199 201
-5.97242 -6.58145 1.48678 201 200 203
-5.99118 -6.58690 1.48887 197 202 209
-6.00993 -6.59234 1.49097 192 199 204
-6.02869 -6.59778 1.49306 195 203 205
-6.04744 -6.60322 1.49515 196 206 207
-6.06620 -6.60866 1.49724 192 198 209
-6.08496 -6.61411 1.49934 188 191 204
-6.10371 -6.61955 1.50143 188 187 203
-6.12247 -6.62499 1.50352 195 194 201
-6.14124 -6.63044 1.50562 201 200 206
-6.16000 -6.63588 1.50771 202 203 211
-6.17876 -6.64132 1.50980 190 191 203
-6.19753 -6.64677 1.51190 191 198 208
-6.21629 -6.65221 1.51399 194 198 207
-6.23506 -6.65766 1.51608 199 205 205
-6.25383 -6.66311 1.51818 197 196 203
-6.27260 -6.66855 1.52027 202 199 204
-4.38693 -6.09531 1.28754 187 194 188
-4.40551 -6.10070 1.28961 189 192 187
-4.42408 -6.10609 1.29168 181 182 181
-4.44266 -6.11148 1.29375 174 178 179
-4.46124 -6.11687 1.29582 176 181 179
-4.47982 -6.12226 1.29790 184 188 187
-4.49840 -6.12765 1.29997 192 193 190
-4.51698 -6.13304 1.30204 192 195 189
-4.53556 -6.13843 1.30411 191 194 194
-4.55415 -6.14383 1.30619 192 196 198
-4.57273 -6.14922 1.30826 193 200 201
-4.59132 -6.15461 1.31033 192 192 198
-4.60991 -6.16000 1.31240 205 210 210
-4.62850 -6.16539 1.31448 202 203 207
-4.64709 -6.17079 1.31655 201 204 212
-4.66568 -6.17618 1.31862 205 209 213
-4.68427 -6.18157 1.32070 214 220 219
-4.70286 -6.18697 1.32277 212 219 212
-4.72145 -6.19236 1.32484 204 203 209
-4.74005 -6.19776 1.32692 207 209 207
-4.75865 -6.20315 1.32899 201 203 199
-4.77724 -6.20855 1.33107 198 202 202
-4.79584 -6.21394 1.33314 211 219 220
-4.81444 -6.21934 1.33522 212 213 216
-4.83304 -6.22474 1.33729 215 218 219
-4.85164 -6.23013 1.33936 213 218 215
-4.87024 -6.23553 1.34144 207 213 212
-4.88885 -6.24093 1.34351 205 208 211
-4.90745 -6.24632 1.34559 202 203 209
-4.92606 -6.25172 1.34766 208 213 211
-4.94467 -6.25712 1.34974 211 216 218
-4.96327 -6.26252 1.35181 212 216 214
-4.98188 -6.26792 1.35389 209 213 213
-5.00049 -6.27332 1.35597 201 203 205
-5.01911 -6.27872 1.35804 196 197 203
-5.03772 -6.28412 1.36012 206 215 216
-5.05633 -6.28952 1.36219 201 204 211
-5.07495 -6.29492 1.36427 206 211 203
-5.09356 -6.30032 1.36635 204 207 201
-5.11218 -6.30572 1.36842 201 202 195
-5.13080 -6.31112 1.37050 202 202 203
-5.14942 -6.31652 1.37257 210 213 214
-5.16804 -6.32192 1.37465 215 215 212
-5.18666 -6.32733 1.37673 212 211 208
-5.20528 -6.33273 1.37881 205 208 210
-5.22390 -6.33813 1.38088 212 215 214
-5.24253 -6.34353 1.38296 222 228 223
-5.26115 -6.34894 1.38504 218 220 219
-5.27978 -6.35434 1.38711 216 218 216
-5.29841 -6.35975 1.38919 207 213 213
-5.31704 -6.36515 1.39127 197 201 203
-5.33567 -6.37056 1.39335 199 202 207
-5.35430 -6.37596 1.39543 200 202 210
-5.37293 -6.38137 1.39750 204 203 209
-5.39157 -6.38677 1.39958 205 199 206
-5.41020 -6.39218 1.40166 211 213 215
-5.42884 -6.39758 1.40374 218 224 222
-5.44747 -6.40299 1.40582 214 216 218
-5.46611 -6.40840 1.40790 208 208 211
-5.48475 -6.41381 1.40997 205 204 206
-5.50339 -6.41921 1.41205 201 197 202
-5.52203 -6.42462 1.41413 195 192 197
-5.54067 -6.43003 1.41621 190 193 199
-5.55932 -6.43544 1.41829 194 205 214
-5.57796 -6.44085 1.42037 200 206 217
-5.59661 -6.44626 1.42245 209 211 212
-5.61525 -6.45167 1.42453 211 214 208
-5.63390 -6.45708 1.42661 203 205 202
-5.65255 -6.46249 1.42869 195 196 199
-5.67120 -6.46790 1.43077 188 193 197
-5.68985 -6.47331 1.43285 190 196 198
-5.70850 -6.47872 1.43493 194 197 204
-5.72716 -6.48413 1.43701 196 196 204
-5.74581 -6.48954 1.43909 194 195 202
-5.76447 -6.49496 1.44117 195 199 206
-5.78312 -6.50037 1.44325 199 202 208
-5.80178 -6.50578 1.44533 194 193 195
-5.82044 -6.51120 1.44741 191 190 193
-5.83910 -6.51661 1.44949 199 207 210
-5.85776 -6.52202 1.45158 204 214 218
-5.87642 -6.52744 1.45366 193 200 208
-5.89509 -6.53285 1.45574 191 198 204
-5.91375 -6.53827 1.45782 199 203 206
-5.93242 -6.54368 1.45990 203 205 209
-5.95108 -6.54910 1.46198 203 204 208
-5.96975 -6.55451 1.46407 206 203 204
-5.98842 -6.55993 1.46615 207 205 206
-6.00709 -6.56534 1.46823 205 201 197
-6.02576 -6.57076 1.47031 192 184 190
-6.04443 -6.57618 1.47239 191 191 193
-6.06310 -6.58160 1.47448 197 201 198
-6.08178 -6.58701 1.47656 198 199 208
-6.10045 -6.59243 1.47864 195 193 203
-6.11913 -6.59785 1.48073 193 191 197
-6.13781 -6.60327 1.48281 199 203 208
-6.15649 -6.60869 1.48489 200 206 210
-6.17517 -6.61411 1.48698 195 199 203
-6.19385 -6.61953 1.48906 194 201 201
-6.21253 -6.62495 1.49114 194 197 199
-6.23121 -6.63037 1.49323 197 199 202
-6.24990 -6.63579 1.49531 195 196 201
-6.26858 -6.64121 1.49739 198 197 202
-4.39129 -6.07071 1.26586 181 186 184
-4.40979 -6.07607 1.26792 182 186 183
-4.42828 -6.08144 1.26998 178 180 181
-4.44678 -6.08680 1.27204 171 176 179
-4.46527 -6.09217 1.27411 172 180 182
-4.48377 -6.09753 1.27617 185 191 194
-4.50227 -6.10290 1.27823 194 201 200
-4.52077 -6.10827 1.28029 194 196 193
-4.53927 -6.11363 1.28236 193 193 195
-4.55777 -6.11900 1.28442 190 193 194
-4.57627 -6.12437 1.28648 193 198 195
-4.59478 -6.12973 1.28855 196 196 195
-4.61328 -6.13510 1.29061 205 211 209
-4.63179 -6.14047 1.29267 201 201 205
-4.65030 -6.14584 1.29473 202 202 204
-4.66880 -6.15121 1.29680 199 203 207
-4.68731 -6.15658 1.29886 196 200 206
-4.70582 -6.16195 1.30093 198 202 205
-4.72434 -6.16732 1.30299 207 211 211
-4.74285 -6.17268 1.30505 213 218 212
-4.76136 -6.17806 1.30712 210 210 206
-4.77988 -6.18343 1.30918 202 210 212
-4.79839 -6.18880 1.31125 210 213 216
-4.81691 -6.19417 1.31331 203 207 210
-4.83543 -6.19954 1.31538 199 205 210
-4.85395 -6.20491 1.31744 210 218 213
-4.87247 -6.21028 1.31951 210 213 209
-4.89099 -6.21566 1.32157 198 193 206
-4.90951 -6.22103 1.32364 195 193 204
-4.92803 -6.22640 1.32570 201 204 202
-4.94656 -6.23178 1.32777 201 201 206
-4.96509 -6.23715 1.32983 210 214 216
-4.98361 -6.24252 1.33190 212 220 222
-5.00214 -6.24790 1.33396 201 208 206
-5.02067 -6.25327 1.33603 189 196 195
-5.03920 -6.25865 1.33810 199 206 210
-5.05773 -6.26402 1.34016 210 212 213
-5.07626 -6.26940 1.34223 213 213 213
-5.09480 -6.27478 1.34429 205 203 204
-5.11333 -6.28015 1.34636 199 197 198
-5.13187 -6.28553 1.34843 200 201 202
-5.15040 -6.29091 1.35049 204 211 213
-5.16894 -6.29628 1.35256 214 220 219
-5.18748 -6.30166 1.35463 214 220 216
-5.20602 -6.30704 1.35669 210 215 215
-5.22456 -6.31242 1.35876 213 219 222
-5.24310 -6.31780 1.36083 219 226 227
-5.26165 -6.32317 1.36290 214 214 217
-5.28019 -6.32855 1.36496 213 210 211
-5.29874 -6.33393 1.36703 209 210 208
-5.31728 -6.33931 1.36910 198 196 202
-5.33583 -6.34469 1.37117 200 202 203
-5.35438 -6.35007 1.37324 204 206 207
-5.37293 -6.35545 1.37530 211 215 217
-5.39148 -6.36084 1.37737 215 220 220
-5.41003 -6.36622 1.37944 218 224 220
-5.42859 -6.37160 1.38151 208 208 211
-5.44714 -6.37698 1.38358 202 201 207
-5.46569 -6.38236 1.38565 205 208 212
-5.48425 -6.38775 1.38772 205 206 214
-5.50281 -6.39313 1.38978 210 215 216
-5.52137 -6.39851 1.39185 203 210 208
-5.53993 -6.40390 1.39392 188 194 196
-5.55849 -6.40928 1.39599 186 196 204
-5.57705 -6.41466 1.39806 195 205 210
-5.59561 -6.42005 1.40013 201 211 209
-5.61418 -6.42543 1.40220 197 202 203
-5.63274 -6.43082 1.40427 190 193 194
-5.65131 -6.43620 1.40634 191 196 195
-5.66987 -6.44159 1.40841 194 198 198
-5.68844 -6.44698 1.41048 196 198 197
-5.70701 -6.45236 1.41255 195 193 193
-5.72558 -6.45775 1.41462 196 194 196
-5.74415 -6.46314 1.41669 189 193 197
-5.76273 -6.46852 1.41876 181 184 195
-5.78130 -6.47391 1.42083 186 190 202
-5.79988 -6.47930 1.42291 194 200 203
-5.81845 -6.48469 1.42498 199 202 200
-5.83703 -6.49008 1.42705 205 205 207
-5.85561 -6.49547 1.42912 205 208 212
-5.87419 -6.50086 1.43119 201 202 209
-5.89277 -6.50625 1.43326 201 200 207
-5.91135 -6.51164 1.43533 203 204 206
-5.92993 -6.51703 1.43741 200 201 204
-5.94851 -6.52242 1.43948 196 197 204
-5.96710 -6.52781 1.44155 206 205 205
-5.98569 -6.53320 1.44362 208 204 206
-6.00427 -6.53859 1.44569 201 198 202
-6.02286 -6.54398 1.44777 191 189 194
-6.04145 -6.54938 1.44984 193 193 194
-6.06004 -6.55477 1.45191 194 198 197
-6.07863 -6.56016 1.45399 186 185 197
-6.09722 -6.56555 1.45606 191 188 201
-6.11582 -6.57095 1.45813 194 192 198
-6.13441 -6.57634 1.46020 196 202 205
-6.15301 -6.58173 1.46228 196 202 206
-6.17160 -6.58713 1.46435 195 199 204
-6.19020 -6.59252 1.46642 192 198 203
-6.20880 -6.59792 1.46850 200 208 209
-6.22740 -6.60331 1.47057 202 206 208
-6.24600 -6.60871 1.47265 197 194 197
-6.26461 -6.61411 1.47472 194 194 199
-4.41403 -6.05166 1.24642 178 186 182
-4.43244 -6.05700 1.24848 183 187 184
-4.45085 -6.06234 1.25053 184 187 184
-4.46927 -6.06768 1.25258 173 178 180
-4.48768 -6.07302 1.25463 178 183 189
-4.50610 -6.07836 1.25669 188 192 197
-4.52452 -6.08371 1.25874 196 198 197
-4.54294 -6.08905 1.26079 203 203 202
-4.56136 -6.09439 1.26284 193 192 188
-4.57978 -6.09973 1.26490 187 193 190
-4.59820 -6.10508 1.26695 191 200 202
-4.61663 -6.11042 1.26900 188 196 196
-4.63505 -6.11576 1.27106 196 202 204
-4.65348 -6.12111 1.27311 203 210 213
-4.67190 -6.12645 1.27517 201 204 202
-4.69033 -6.13180 1.27722 189 190 186
-4.70876 -6.13714 1.27927 184 190 199
-4.72719 -6.14249 1.28133 207 214 210
-4.74562 -6.14783 1.28338 210 214 212
-4.76405 -6.15318 1.28544 212 217 211
-4.78249 -6.15853 1.28749 202 210 215
-4.80092 -6.16387 1.28955 199 206 209
-4.81936 -6.16922 1.29160 191 195 195
-4.83779 -6.17457 1.29366 188 194 199
-4.85623 -6.17991 1.29571 205 210 206
-4.87467 -6.18526 1.29777 211 215 214
-4.89311 -6.19061 1.29982 204 208 208
-4.91155 -6.19596 1.30188 210 206 208
-4.92999 -6.20131 1.30393 214 211 209
-4.94844 -6.20666 1.30599 206 207 209
-4.96688 -6.21201 1.30804 203 207 214
-4.98533 -6.21736 1.31010 208 214 219
-5.00377 -6.22271 1.31216 201 207 205
-5.02222 -6.22806 1.31421 199 199 192
-5.04067 -6.23341 1.31627 207 216 212
-5.05912 -6.23876 1.31832 208 220 221
-5.07757 -6.24411 1.32038 205 216 219
-5.09602 -6.24946 1.32244 206 212 216
-5.11447 -6.25481 1.32449 204 210 206
