ply
format ascii 1.0
element face 0
property list uchar int vertex_indices
element vertex 1284
property float x
property float y
property float z
property uchar diffuse_red
property uchar diffuse_green
property uchar diffuse_blue
end_header
-3.94079 -5.04592 1.17999 131 127 101
-3.94921 -5.06412 1.18483 131 127 98
-3.95766 -5.08239 1.18970 130 129 90
-3.96614 -5.10074 1.19459 131 129 102
-3.97467 -5.11917 1.19949 131 128 112
-3.98323 -5.13768 1.20442 128 129 102
-3.99183 -5.15627 1.20937 130 128 95
-4.00047 -5.17495 1.21435 133 129 95
-4.00914 -5.19370 1.21934 133 130 95
-4.01785 -5.21254 1.22436 129 132 95
-4.02660 -5.23146 1.22939 131 130 99
-4.03539 -5.25046 1.23445 132 129 101
-4.04422 -5.26955 1.23954 132 130 103
-4.05309 -5.28872 1.24464 132 131 102
-4.06200 -5.30797 1.24977 130 132 103
-4.07094 -5.32732 1.25492 132 131 104
-4.07993 -5.34674 1.26009 132 131 104
-4.08895 -5.36626 1.26529 133 131 103
-4.09802 -5.38586 1.27051 134 129 111
-4.10713 -5.40555 1.27575 136 131 116
-4.11627 -5.42533 1.28102 135 132 109
-3.53823 -4.19290 0.93577 121 113 85
-3.54503 -4.20762 0.93966 120 114 90
-3.55185 -4.22240 0.94356 124 118 93
-3.55869 -4.23724 0.94748 123 118 88
-3.56557 -4.25213 0.95141 120 116 88
-3.57247 -4.26709 0.95536 120 116 87
-3.57940 -4.28210 0.95932 119 116 87
-3.58635 -4.29717 0.96330 120 116 92
-3.59334 -4.31231 0.96730 121 115 87
-3.60035 -4.32750 0.97131 121 116 81
-3.60738 -4.34275 0.97533 122 116 86
-3.61445 -4.35806 0.97938 123 116 86
-3.62154 -4.37343 0.98343 122 118 82
-3.62866 -4.38886 0.98751 123 119 76
-3.63581 -4.40436 0.99160 124 119 80
-3.64299 -4.41991 0.99571 123 118 94
-3.65020 -4.43553 0.99983 123 118 88
-3.65744 -4.45121 1.00397 124 119 89
-3.66470 -4.46695 1.00813 122 120 91
-3.67200 -4.48276 1.01230 124 121 95
-3.67932 -4.49863 1.01649 129 118 90
-3.68667 -4.51457 1.02070 125 120 91
-3.69406 -4.53056 1.02492 122 122 91
-3.70147 -4.54663 1.02916 123 121 96
-3.70891 -4.56276 1.03342 124 121 101
-3.71638 -4.57895 1.03770 125 121 87
-3.72389 -4.59521 1.04199 126 123 95
-3.73142 -4.61154 1.04630 126 122 91
-3.73899 -4.62793 1.05063 124 121 93
-3.74658 -4.64439 1.05498 125 121 96
-3.75421 -4.66092 1.05934 126 122 95
-3.76187 -4.67752 1.06372 127 123 89
-3.76956 -4.69418 1.06812 129 122 90
-3.77728 -4.71092 1.07254 128 121 95
-3.78504 -4.72772 1.07698 126 122 93
-3.79282 -4.74459 1.08143 125 122 93
-3.80064 -4.76153 1.08591 127 123 98
-3.80849 -4.77855 1.09040 128 124 100
-3.81638 -4.79563 1.09491 128 124 97
-3.82429 -4.81279 1.09944 127 124 92
-3.83224 -4.83002 1.10399 127 124 93
-3.84023 -4.84732 1.10855 128 125 99
-3.84824 -4.86469 1.11314 128 125 101
-3.85629 -4.88214 1.11775 128 126 98
-3.86438 -4.89966 1.12237 128 125 93
-3.87250 -4.91725 1.12702 129 123 94
-3.88065 -4.93492 1.13169 130 124 103
-3.88884 -4.95267 1.13637 130 125 105
-3.89707 -4.97049 1.14108 131 126 101
-3.90532 -4.98839 1.14580 130 128 103
-3.91362 -5.00636 1.15055 130 128 99
-3.92195 -5.02441 1.15531 132 128 101
-3.93031 -5.04254 1.16010 131 127 101
-3.93872 -5.06075 1.16491 130 127 100
-3.94715 -5.07903 1.16973 130 127 97
-3.95563 -5.09739 1.17458 131 129 91
-3.96414 -5.11584 1.17945 131 129 101
-3.97269 -5.13436 1.18434 130 129 103
-3.98127 -5.15297 1.18926 131 130 99
-3.98990 -5.17165 1.19419 132 130 93
-3.99856 -5.19042 1.19914 135 130 93
-4.00726 -5.20927 1.20412 132 131 96
-4.01599 -5.22821 1.20912 131 130 99
-4.02477 -5.24722 1.21414 133 130 99
-4.03359 -5.26632 1.21918 135 128 102
-4.04244 -5.28551 1.22425 134 129 103
-4.05133 -5.30478 1.22934 132 131 105
-4.06026 -5.32414 1.23445 129 132 103
-4.06924 -5.34358 1.23958 130 131 105
-4.07825 -5.36311 1.24474 131 132 107
-4.08730 -5.38273 1.24992 133 132 108
-4.09639 -5.40243 1.25512 133 131 108
-4.10553 -5.42222 1.26035 132 131 103
-4.11470 -5.44211 1.26560 134 131 104
-3.53519 -4.20374 0.92148 121 113 87
-3.54200 -4.21853 0.92535 119 113 91
-3.54883 -4.23338 0.92923 123 117 92
-3.55569 -4.24828 0.93314 124 119 88
-3.56258 -4.26324 0.93705 120 117 87
-3.56950 -4.27826 0.94098 120 116 89
-3.57644 -4.29334 0.94493 120 116 89
-3.58341 -4.30848 0.94890 120 116 91
-3.59041 -4.32368 0.95287 121 115 90
-3.59743 -4.33894 0.95687 121 115 88
-3.60449 -4.35425 0.96088 122 116 90
-3.61157 -4.36963 0.96490 123 117 90
-3.61867 -4.38508 0.96895 122 118 88
-3.62581 -4.40058 0.97300 121 120 82
-3.63298 -4.41614 0.97708 123 118 87
-3.64017 -4.43177 0.98117 125 117 97
-3.64740 -4.44746 0.98528 124 118 92
-3.65465 -4.46321 0.98940 124 117 92
-3.66193 -4.47902 0.99354 122 117 96
-3.66924 -4.49490 0.99770 125 119 102
-3.67658 -4.51085 1.00187 126 120 90
-3.68395 -4.52685 1.00606 124 120 90
-3.69135 -4.54293 1.01027 122 122 90
-3.69878 -4.55906 1.01449 123 122 92
-3.70624 -4.57527 1.01873 125 122 94
-3.71373 -4.59154 1.02299 124 122 89
-3.72125 -4.60787 1.02727 125 122 93
-3.72881 -4.62428 1.03156 127 121 90
-3.73639 -4.64075 1.03587 127 120 90
-3.74400 -4.65728 1.04020 128 120 97
-3.75165 -4.67389 1.04455 128 122 103
-3.75933 -4.69057 1.04892 128 122 97
-3.76703 -4.70731 1.05330 128 123 92
-3.77478 -4.72412 1.05770 127 123 93
-3.78255 -4.74101 1.06212 128 123 93
-3.79035 -4.75796 1.06656 128 124 95
-3.79819 -4.77498 1.07101 126 124 96
-3.80606 -4.79208 1.07549 126 124 96
-3.81397 -4.80925 1.07998 130 124 95
-3.82190 -4.82649 1.08450 130 124 94
-3.82987 -4.84380 1.08903 127 124 96
-3.83788 -4.86118 1.09358 126 125 98
-3.84592 -4.87864 1.09815 126 126 100
-3.85399 -4.89617 1.10274 127 125 99
-3.86209 -4.91378 1.10735 128 125 96
-3.87024 -4.93146 1.11198 130 124 98
-3.87841 -4.94922 1.11662 132 125 105
-3.88662 -4.96705 1.12129 131 125 107
-3.89487 -4.98496 1.12598 129 125 103
-3.90315 -5.00294 1.13069 129 127 105
-3.91146 -5.02101 1.13542 131 128 98
-3.91982 -5.03915 1.14017 132 127 96
-3.92820 -5.05737 1.14493 131 126 99
-3.93663 -5.07566 1.14972 130 126 104
-3.94509 -5.09404 1.15453 129 129 105
-3.95359 -5.11250 1.15937 133 129 95
-3.96212 -5.13104 1.16422 131 129 94
-3.97069 -5.14966 1.16909 130 129 87
-3.97930 -5.16836 1.17399 130 131 95
-3.98795 -5.18714 1.17890 132 130 92
-3.99664 -5.20600 1.18384 133 129 92
-4.00536 -5.22495 1.18880 132 129 102
-4.01412 -5.24398 1.19378 131 131 108
-4.02292 -5.26309 1.19879 132 131 103
-4.03176 -5.28230 1.20381 133 130 100
-4.04064 -5.30158 1.20886 132 130 101
-4.04956 -5.32095 1.21393 131 131 105
-4.05852 -5.34041 1.21903 132 133 97
-4.06752 -5.35995 1.22414 133 132 101
-4.07656 -5.37959 1.22928 133 131 106
-4.08564 -5.39931 1.23444 133 130 111
-4.09476 -5.41911 1.23963 133 131 112
-4.10392 -5.43901 1.24484 134 130 105
-4.11312 -5.45900 1.25007 138 128 106
-3.53213 -4.21465 0.90710 125 111 89
-3.53895 -4.22950 0.91096 122 113 93
-3.54580 -4.24441 0.91483 123 117 94
-3.55267 -4.25938 0.91871 123 119 92
-3.55958 -4.27441 0.92261 121 118 87
-3.56651 -4.28950 0.92653 121 116 86
-3.57346 -4.30465 0.93046 121 115 90
-3.58045 -4.31985 0.93440 121 115 94
-3.58746 -4.33512 0.93837 122 115 95
-3.59450 -4.35044 0.94234 122 116 93
-3.60157 -4.36583 0.94634 121 117 90
-3.60867 -4.38128 0.95035 122 117 88
-3.61579 -4.39679 0.95437 122 118 87
-3.62294 -4.41236 0.95841 121 119 87
-3.63013 -4.42800 0.96247 122 118 94
-3.63734 -4.44370 0.96654 126 118 99
-3.64458 -4.45946 0.97063 125 117 90
-3.65184 -4.47528 0.97474 125 118 90
-3.65914 -4.49117 0.97886 124 118 90
-3.66647 -4.50712 0.98300 126 120 91
-3.67383 -4.52314 0.98716 124 119 86
-3.68121 -4.53922 0.99133 123 121 91
-3.68863 -4.55536 0.99552 123 122 93
-3.69608 -4.57158 0.99973 124 121 90
-3.70356 -4.58786 1.00395 126 122 93
-3.71106 -4.60420 1.00820 126 121 91
-3.71860 -4.62061 1.01246 125 122 91
-3.72617 -4.63709 1.01673 125 123 87
-3.73377 -4.65364 1.02103 125 122 83
-3.74141 -4.67026 1.02534 126 121 91
-3.74907 -4.68694 1.02967 127 122 98
-3.75677 -4.70370 1.03402 128 123 94
-3.76449 -4.72052 1.03838 128 124 88
-3.77225 -4.73741 1.04277 127 124 90
-3.78005 -4.75438 1.04717 127 124 97
-3.78787 -4.77141 1.05159 127 124 101
-3.79573 -4.78852 1.05603 125 125 99
-3.80362 -4.80570 1.06049 124 125 94
-3.81154 -4.82295 1.06496 127 125 90
-3.81950 -4.84027 1.06946 128 124 87
-3.82749 -4.85766 1.07397 126 124 88
-3.83552 -4.87513 1.07851 128 125 96
-3.84357 -4.89268 1.08306 130 125 104
-3.85167 -4.91030 1.08763 129 125 106
-3.85979 -4.92799 1.09222 129 124 96
-3.86796 -4.94576 1.09683 130 123 98
-3.87615 -4.96360 1.10146 131 125 110
-3.88439 -4.98152 1.10612 131 125 113
-3.89265 -4.99952 1.11079 131 125 102
-3.90096 -5.01760 1.11548 129 126 100
-3.90929 -5.03575 1.12019 131 127 99
-3.91767 -5.05398 1.12492 128 128 102
-3.92608 -5.07229 1.12967 129 127 100
-3.93453 -5.09068 1.13444 128 127 96
-3.94301 -5.10915 1.13924 127 128 90
-3.95153 -5.12770 1.14405 135 130 97
-3.96009 -5.14634 1.14889 131 131 102
-3.96869 -5.16505 1.15374 129 129 97
-3.97732 -5.18384 1.15862 130 129 100
-3.98599 -5.20272 1.16352 131 128 97
-3.99470 -5.22168 1.16844 131 128 99
-4.00345 -5.24073 1.17338 131 128 104
-4.01224 -5.25986 1.17835 131 130 108
-4.02106 -5.27907 1.18333 132 130 103
-4.02993 -5.29837 1.18834 134 130 104
-4.03883 -5.31776 1.19337 131 130 102
-4.04778 -5.33723 1.19843 132 131 104
-4.05676 -5.35679 1.20350 133 131 100
-4.06579 -5.37644 1.20860 133 131 102
-4.07485 -5.39617 1.21372 134 131 104
-4.08396 -5.41600 1.21887 134 129 108
-4.09311 -5.43591 1.22403 132 129 112
-4.10230 -5.45592 1.22923 134 128 106
-4.11153 -5.47601 1.23444 136 127 104
-3.52905 -4.22563 0.89264 122 113 88
-3.53588 -4.24054 0.89648 122 113 92
-3.54275 -4.25552 0.90034 124 117 96
-3.54964 -4.27056 0.90420 123 119 98
-3.55655 -4.28565 0.90809 119 116 87
-3.56350 -4.30080 0.91198 117 115 85
-3.57047 -4.31602 0.91590 117 116 89
-3.57747 -4.33129 0.91983 120 115 92
-3.58450 -4.34663 0.92377 121 116 93
-3.59155 -4.36202 0.92773 122 117 92
-3.59864 -4.37748 0.93171 122 118 89
-3.60575 -4.39300 0.93570 123 117 88
-3.61289 -4.40858 0.93971 123 117 88
-3.62006 -4.42422 0.94373 123 118 88
-3.62725 -4.43993 0.94777 123 118 89
-3.63448 -4.45569 0.95183 122 119 88
-3.64174 -4.47153 0.95590 122 118 82
-3.64902 -4.48742 0.95999 124 120 92
-3.65634 -4.50338 0.96410 125 119 87
-3.66368 -4.51941 0.96822 124 121 86
-3.67106 -4.53550 0.97236 122 122 85
-3.67846 -4.55166 0.97651 123 122 86
-3.68589 -4.56788 0.98069 124 122 84
-3.69336 -4.58417 0.98488 124 120 90
-3.70085 -4.60052 0.98908 125 122 97
-3.70838 -4.61694 0.99331 125 122 91
-3.71594 -4.63343 0.99755 126 122 88
-3.72352 -4.64999 1.00181 125 122 88
-3.73114 -4.66662 1.00609 125 123 86
-3.73879 -4.68331 1.01038 127 122 87
-3.74648 -4.70008 1.01469 127 122 92
-3.75419 -4.71691 1.01902 126 123 92
-3.76194 -4.73381 1.02337 126 124 91
-3.76972 -4.75079 1.02774 127 123 93
-3.77753 -4.76783 1.03212 127 123 97
-3.78537 -4.78495 1.03653 127 123 98
-3.79325 -4.80214 1.04095 127 125 94
-3.80116 -4.81940 1.04539 127 126 86
-3.80910 -4.83673 1.04985 128 125 85
-3.81708 -4.85414 1.05433 129 124 89
-3.82509 -4.87162 1.05882 128 124 91
-3.83314 -4.88918 1.06334 129 125 95
-3.84122 -4.90681 1.06787 130 125 99
-3.84933 -4.92451 1.07243 129 125 101
-3.85748 -4.94229 1.07700 129 124 104
-3.86566 -4.96015 1.08159 130 123 109
-3.87388 -4.97808 1.08621 131 124 104
-3.88214 -4.99609 1.09084 130 126 102
-3.89042 -5.01418 1.09549 128 126 100
-3.89875 -5.03234 1.10017 126 127 103
-3.90711 -5.05059 1.10486 131 127 97
-3.91551 -5.06891 1.10957 131 128 97
-3.92394 -5.08732 1.11431 131 128 100
-3.93241 -5.10580 1.11906 130 128 97
-3.94092 -5.12436 1.12384 130 128 93
-3.94947 -5.14301 1.12863 132 128 98
-3.95805 -5.16173 1.13345 130 130 103
-3.96667 -5.18054 1.13829 130 129 100
-3.97532 -5.19944 1.14315 134 127 105
-3.98402 -5.21841 1.14803 132 128 99
-3.99276 -5.23747 1.15293 128 127 97
-4.00153 -5.25661 1.15786 130 127 102
-4.01034 -5.27584 1.16281 131 128 108
-4.01919 -5.29516 1.16777 131 129 103
-4.02808 -5.31456 1.17276 131 129 102
-4.03701 -5.33404 1.17778 131 129 102
-4.04599 -5.35362 1.18281 132 129 101
-4.05500 -5.37328 1.18787 134 129 101
-4.06405 -5.39303 1.19295 135 130 103
-4.07314 -5.41287 1.19806 135 130 101
-4.08227 -5.43280 1.20318 134 129 100
-4.09145 -5.45282 1.20833 132 129 107
-4.10067 -5.47294 1.21351 133 130 107
-4.10992 -5.49314 1.21870 133 131 107
-3.53280 -4.25165 0.88192 122 109 89
-3.53968 -4.26669 0.88576 122 114 92
-3.54658 -4.28179 0.88961 121 117 94
-3.55351 -4.29695 0.89347 119 115 90
-3.56047 -4.31218 0.89735 118 115 90
-3.56746 -4.32746 0.90125 119 116 90
-3.57447 -4.34280 0.90516 119 117 88
-3.58152 -4.35820 0.90909 121 116 91
-3.58859 -4.37367 0.91303 123 116 93
-3.59569 -4.38919 0.91699 123 117 91
-3.60281 -4.40478 0.92097 122 118 90
-3.60997 -4.42043 0.92496 120 118 88
-3.61715 -4.43615 0.92896 121 117 89
-3.62437 -4.45193 0.93299 121 117 89
-3.63161 -4.46777 0.93702 119 119 86
-3.63888 -4.48367 0.94108 122 119 83
-3.64618 -4.49964 0.94515 126 118 87
-3.65351 -4.51568 0.94924 125 118 88
-3.66088 -4.53178 0.95334 124 119 88
-3.66827 -4.54794 0.95747 125 120 87
-3.67569 -4.56417 0.96160 125 122 84
-3.68314 -4.58047 0.96576 125 121 82
-3.69062 -4.59683 0.96993 123 120 88
-3.69813 -4.61327 0.97412 125 120 86
-3.70568 -4.62976 0.97833 128 119 87
-3.71325 -4.64633 0.98255 127 120 83
-3.72086 -4.66297 0.98679 128 121 90
-3.72850 -4.67967 0.99105 127 122 91
-3.73617 -4.69645 0.99533 125 122 82
-3.74387 -4.71329 0.99962 126 122 90
-3.75160 -4.73020 1.00394 125 123 87
-3.75937 -4.74719 1.00827 126 124 87
-3.76716 -4.76425 1.01262 128 123 91
-3.77500 -4.78137 1.01698 127 122 95
-3.78286 -4.79857 1.02137 127 123 96
-3.79076 -4.81584 1.02577 128 124 93
-3.79869 -4.83319 1.03019 127 124 91
-3.80665 -4.85061 1.03464 128 124 92
-3.81465 -4.86810 1.03910 129 123 96
-3.82268 -4.88567 1.04357 129 124 97
-3.83075 -4.90331 1.04807 130 125 97
-3.83885 -4.92102 1.05259 131 125 96
-3.84698 -4.93882 1.05713 130 125 96
-3.85515 -4.95668 1.06168 130 123 101
-3.86336 -4.97463 1.06626 130 123 101
-3.87160 -4.99265 1.07085 129 124 94
-3.87987 -5.01075 1.07547 129 125 94
-3.88818 -5.02893 1.08010 131 125 94
-3.89653 -5.04719 1.08476 130 125 94
-3.90491 -5.06552 1.08943 129 127 95
-3.91333 -5.08394 1.09413 130 127 94
-3.92179 -5.10244 1.09884 130 127 102
-3.93028 -5.12101 1.10358 129 127 102
-3.93881 -5.13967 1.10834 130 127 98
-3.94738 -5.15841 1.11312 132 126 98
-3.95599 -5.17724 1.11791 129 127 104
-3.96463 -5.19614 1.12274 130 127 107
-3.97332 -5.21513 1.12758 129 129 113
-3.98204 -5.23420 1.13244 131 127 100
-3.99080 -5.25336 1.13732 132 127 90
-3.99959 -5.27261 1.14223 133 127 95
-4.00843 -5.29193 1.14716 132 129 101
-4.01731 -5.31135 1.15211 131 129 95
-4.02623 -5.33085 1.15708 132 130 92
-4.03518 -5.35044 1.16208 133 128 98
-4.04418 -5.37012 1.16709 133 128 100
-4.05322 -5.38989 1.17213 133 129 97
-4.06229 -5.40974 1.17720 135 129 103
-4.07141 -5.42969 1.18228 136 130 106
-4.08058 -5.44972 1.18739 134 129 109
-4.08978 -5.46985 1.19252 135 130 107
-4.09902 -5.49007 1.19768 134 130 106
-4.10831 -5.51038 1.20286 133 130 105
-3.54351 -4.29310 0.87492 121 118 91
-3.55045 -4.30833 0.87877 120 117 88
-3.55743 -4.32362 0.88264 119 116 88
-3.56443 -4.33897 0.88651 119 115 88
-3.57146 -4.35438 0.89041 119 114 90
-3.57852 -4.36985 0.89432 121 115 95
-3.58560 -4.38539 0.89824 124 115 96
-3.59272 -4.40098 0.90219 122 115 95
-3.59986 -4.41664 0.90614 124 117 93
-3.60703 -4.43236 0.91012 124 118 86
-3.61423 -4.44815 0.91410 121 118 87
-3.62146 -4.46400 0.91811 120 118 87
-3.62872 -4.47991 0.92213 120 121 88
-3.63601 -4.49589 0.92617 121 121 85
-3.64333 -4.51193 0.93022 123 119 83
-3.65068 -4.52804 0.93429 125 120 89
-3.65805 -4.54422 0.93838 124 120 87
-3.66546 -4.56046 0.94248 123 122 87
-3.67290 -4.57677 0.94660 124 121 82
-3.68037 -4.59314 0.95074 127 120 83
-3.68787 -4.60958 0.95489 123 119 101
-3.69540 -4.62609 0.95907 125 119 96
-3.70296 -4.64267 0.96325 128 119 96
-3.71055 -4.65931 0.96746 127 118 89
-3.71818 -4.67603 0.97168 126 120 91
-3.72583 -4.69281 0.97593 126 121 93
-3.73352 -4.70966 0.98018 124 122 89
-3.74124 -4.72659 0.98446 124 123 92
-3.74899 -4.74358 0.98876 126 123 89
-3.75678 -4.76065 0.99307 127 124 88
-3.76460 -4.77779 0.99740 126 124 89
-3.77245 -4.79500 1.00175 126 123 94
-3.78033 -4.81228 1.00611 126 123 97
-3.78825 -4.82964 1.01050 127 123 93
-3.79620 -4.84707 1.01490 128 123 91
-3.80418 -4.86457 1.01933 129 123 93
-3.81220 -4.88215 1.02377 129 123 95
-3.82025 -4.89980 1.02823 128 125 97
-3.82834 -4.91753 1.03271 129 126 99
-3.83646 -4.93533 1.03721 129 125 97
-3.84461 -4.95321 1.04173 129 125 91
-3.85281 -4.97117 1.04626 130 124 94
-3.86103 -4.98921 1.05082 130 123 92
-3.86929 -5.00732 1.05540 126 124 92
-3.87759 -5.02551 1.05999 128 125 97
-3.88593 -5.04378 1.06461 130 123 96
-3.89429 -5.06213 1.06925 129 125 96
-3.90270 -5.08056 1.07390 127 126 97
-3.91114 -5.09907 1.07858 129 125 100
-3.91962 -5.11766 1.08328 129 126 109
-3.92814 -5.13633 1.08800 130 126 102
-3.93670 -5.15508 1.09273 131 126 96
-3.94529 -5.17392 1.09749 134 126 93
-3.95392 -5.19284 1.10227 132 127 99
-3.96259 -5.21184 1.10708 133 126 100
-3.97129 -5.23093 1.11190 131 127 105
-3.98004 -5.25010 1.11674 131 126 99
-3.98882 -5.26936 1.12161 132 127 92
-3.99765 -5.28870 1.12650 135 127 97
-4.00651 -5.30814 1.13141 132 128 98
-4.01541 -5.32765 1.13634 131 129 95
-4.02435 -5.34726 1.14129 131 130 90
-4.03334 -5.36695 1.14627 132 128 95
-4.04236 -5.38673 1.15127 132 129 100
-4.05142 -5.40660 1.15629 132 130 101
-4.06053 -5.42657 1.16133 136 128 106
-4.06968 -5.44662 1.16640 135 128 106
-4.07887 -5.46676 1.17149 134 128 108
-4.08810 -5.48700 1.17660 137 129 106
-4.09737 -5.50732 1.18174 135 129 110
-4.10668 -5.52775 1.18690 133 129 105
-3.54041 -4.30447 0.86015 124 117 86
-3.54738 -4.31977 0.86398 122 116 82
-3.55436 -4.33512 0.86783 118 115 85
-3.56138 -4.35054 0.87169 118 114 87
-3.56843 -4.36602 0.87557 119 113 84
-3.57550 -4.38157 0.87946 121 115 85
-3.58260 -4.39717 0.88337 121 117 89
-3.58973 -4.41284 0.88729 120 116 88
-3.59689 -4.42857 0.89123 123 115 85
-3.60408 -4.44437 0.89518 124 116 80
-3.61129 -4.46022 0.89915 120 118 80
-3.61854 -4.47615 0.90314 119 119 89
-3.62581 -4.49213 0.90714 121 121 90
-3.63312 -4.50819 0.91116 122 120 89
-3.64045 -4.52430 0.91520 123 120 92
-3.64782 -4.54049 0.91925 126 120 97
-3.65521 -4.55674 0.92332 124 120 89
-3.66264 -4.57305 0.92741 122 122 85
-3.67009 -4.58944 0.93151 122 120 87
-3.67758 -4.60589 0.93563 125 119 88
-3.68510 -4.62241 0.93976 124 118 98
-3.69265 -4.63899 0.94392 125 119 97
-3.70022 -4.65565 0.94809 124 120 97
-3.70784 -4.67237 0.95228 124 121 91
-3.71548 -4.68917 0.95648 126 120 91
-3.72315 -4.70603 0.96070 126 121 90
-3.73086 -4.72297 0.96494 127 122 86
-3.73860 -4.73997 0.96920 127 122 87
-3.74637 -4.75705 0.97348 127 122 90
-3.75417 -4.77420 0.97777 127 123 97
-3.76201 -4.79142 0.98208 126 123 96
-3.76988 -4.80871 0.98641 126 123 92
-3.77778 -4.82608 0.99076 125 123 95
-3.78572 -4.84352 0.99513 126 123 98
-3.79369 -4.86103 0.99952 128 124 96
-3.80169 -4.87862 1.00392 129 123 93
-3.80973 -4.89629 1.00834 128 124 99
-3.81781 -4.91403 1.01278 127 125 103
-3.82591 -4.93184 1.01725 127 126 100
-3.83406 -4.94974 1.02173 128 127 97
-3.84223 -4.96771 1.02622 127 126 93
-3.85045 -4.98575 1.03074 128 124 97
-3.85869 -5.00388 1.03528 128 123 96
-3.86698 -5.02208 1.03984 127 125 99
-3.87530 -5.04036 1.04442 127 126 101
-3.88365 -5.05873 1.04902 127 125 91
-3.89205 -5.07717 1.05363 127 125 97
-3.90047 -5.09569 1.05827 128 124 100
-3.90894 -5.11429 1.06293 131 125 99
-3.91744 -5.13298 1.06761 129 126 102
-3.92598 -5.15175 1.07231 128 126 100
-3.93456 -5.17060 1.07703 129 126 96
-3.94318 -5.18953 1.08177 131 126 97
-3.95183 -5.20855 1.08653 130 126 98
-3.96053 -5.22765 1.09131 128 127 99
-3.96926 -5.24684 1.09612 128 126 99
-3.97803 -5.26611 1.10094 129 127 94
-3.98684 -5.28547 1.10579 131 127 92
-3.99568 -5.30491 1.11066 129 128 104
-4.00457 -5.32444 1.11555 129 129 100
-4.01350 -5.34407 1.12046 128 130 99
-4.02247 -5.36377 1.12540 129 129 93
-4.03148 -5.38357 1.13035 132 128 91
-4.04053 -5.40346 1.13533 131 128 99
-4.04962 -5.42344 1.14034 131 129 106
-4.05875 -5.44350 1.14536 132 127 113
-4.06793 -5.46366 1.15041 133 127 110
-4.07714 -5.48392 1.15548 132 128 111
-4.08640 -5.50426 1.16057 133 128 107
-4.09570 -5.52470 1.16569 132 128 110
-3.53730 -4.31591 0.84530 123 118 91
-3.54428 -4.33127 0.84911 120 117 90
-3.55128 -4.34670 0.85294 117 114 92
-3.55832 -4.36219 0.85678 117 115 91
-3.56538 -4.37774 0.86064 117 115 88
-3.57246 -4.39336 0.86451 119 116 86
-3.57958 -4.40903 0.86840 122 117 82
-3.58673 -4.42477 0.87230 124 117 77
-3.59390 -4.44057 0.87622 123 117 78
-3.60110 -4.45644 0.88016 124 116 87
-3.60834 -4.47237 0.88411 123 118 92
-3.61560 -4.48837 0.88808 123 119 99
-3.62289 -4.50443 0.89207 123 120 91
-3.63021 -4.52056 0.89607 125 119 89
-3.63756 -4.53675 0.90009 124 119 93
-3.64494 -4.55301 0.90412 124 119 98
-3.65236 -4.56933 0.90817 123 119 90
-3.65980 -4.58573 0.91224 120 119 84
-3.66727 -4.60219 0.91632 122 118 91
-3.67477 -4.61871 0.92042 126 120 90
-3.68231 -4.63531 0.92454 124 120 91
-3.68987 -4.65198 0.92867 124 120 98
-3.69747 -4.66871 0.93282 122 121 101
-3.70510 -4.68551 0.93699 124 120 89
-3.71276 -4.70239 0.94118 125 121 88
-3.72046 -4.71934 0.94538 126 120 91
-3.72818 -4.73635 0.94961 128 119 89
-3.73594 -4.75344 0.95385 127 121 88
-3.74373 -4.77060 0.95810 127 121 90
-3.75155 -4.78783 0.96238 127 122 94
-3.75941 -4.80514 0.96667 126 123 91
-3.76730 -4.82251 0.97098 127 123 88
-3.77522 -4.83997 0.97531 128 123 90
-3.78318 -4.85749 0.97966 129 123 93
-3.79117 -4.87509 0.98403 129 124 93
-3.79919 -4.89277 0.98841 128 124 91
-3.80725 -4.91052 0.99282 127 123 95
-3.81534 -4.92835 0.99724 126 123 99
-3.82347 -4.94625 1.00168 126 124 96
-3.83164 -4.96423 1.00614 126 124 91
-3.83984 -4.98229 1.01062 126 124 89
-3.84807 -5.00043 1.01512 127 123 98
-3.85634 -5.01865 1.01964 127 123 99
-3.86465 -5.03694 1.02418 129 124 96
-3.87299 -5.05532 1.02874 129 125 99
-3.88137 -5.07377 1.03332 129 125 92
-3.88978 -5.09231 1.03792 129 126 94
-3.89823 -5.11092 1.04254 127 125 93
-3.90672 -5.12962 1.04718 127 125 97
-3.91525 -5.14840 1.05184 127 127 103
-3.92381 -5.16727 1.05652 130 127 101
-3.93241 -5.18621 1.06122 129 126 90
-3.94105 -5.20525 1.06594 128 126 105
-3.94973 -5.22436 1.07068 130 127 101
-3.95845 -5.24356 1.07544 130 128 107
-3.96721 -5.26285 1.08023 129 128 102
-3.97600 -5.28222 1.08504 130 127 97
-3.98484 -5.30168 1.08986 132 127 99
-3.99371 -5.32123 1.09471 130 126 105
-4.00262 -5.34087 1.09958 129 127 104
-4.01158 -5.36059 1.10448 129 129 106
-4.02057 -5.38040 1.10939 130 128 98
-4.02961 -5.40031 1.11433 130 128 94
-4.03869 -5.42030 1.11929 130 129 97
-4.04780 -5.44038 1.12427 128 129 103
-4.05696 -5.46056 1.12928 129 128 110
-4.06617 -5.48083 1.13431 132 128 101
-4.07541 -5.50119 1.13936 131 128 88
-4.08470 -5.52164 1.14443 132 127 98
-3.53417 -4.32742 0.83035 123 116 89
-3.54116 -4.34285 0.83414 122 115 91
-3.54818 -4.35835 0.83795 120 114 91
-3.55523 -4.37391 0.84177 120 114 90
-3.56231 -4.38953 0.84561 119 115 89
-3.56941 -4.40522 0.84947 119 115 88
-3.57654 -4.42096 0.85334 121 116 85
-3.58370 -4.43677 0.85723 122 116 84
-3.59089 -4.45265 0.86113 121 116 86
-3.59811 -4.46859 0.86505 122 116 89
-3.60536 -4.48459 0.86898 123 116 84
-3.61264 -4.50066 0.87293 124 118 93
-3.61995 -4.51680 0.87690 123 119 91
-3.62729 -4.53300 0.88088 123 119 87
-3.63465 -4.54927 0.88488 126 118 85
-3.64205 -4.56560 0.88889 125 118 93
-3.64948 -4.58201 0.89292 122 119 93
-3.65694 -4.59848 0.89697 122 118 91
-3.66443 -4.61502 0.90104 122 119 96
-3.67195 -4.63162 0.90512 123 119 97
-3.67950 -4.64830 0.90922 123 120 88
-3.68709 -4.66504 0.91333 123 121 91
-3.69470 -4.68186 0.91747 124 122 97
-3.70235 -4.69874 0.92162 126 121 90
-3.71003 -4.71570 0.92578 126 120 94
-3.71774 -4.73272 0.92997 127 120 102
-3.72548 -4.74982 0.93417 127 120 94
-3.73326 -4.76699 0.93839 126 121 89
-3.74107 -4.78424 0.94263 127 121 91
-3.74891 -4.80155 0.94689 127 122 92
-3.75679 -4.81894 0.95116 127 123 92
-3.76470 -4.83640 0.95545 128 122 92
-3.77264 -4.85394 0.95976 129 122 93
-3.78062 -4.87155 0.96409 127 123 94
-3.78863 -4.88924 0.96844 126 124 92
-3.79667 -4.90700 0.97281 126 124 90
-3.80475 -4.92484 0.97719 126 124 92
-3.81287 -4.94276 0.98159 125 123 94
-3.82102 -4.96075 0.98602 126 123 96
-3.82920 -4.97882 0.99046 127 122 96
-3.83742 -4.99697 0.99492 129 122 93
-3.84568 -5.01520 0.99940 129 122 102
-3.85397 -5.03351 1.00390 129 123 105
-3.86230 -5.05190 1.00842 131 122 101
-3.87066 -5.07037 1.01296 129 123 106
-3.87906 -5.08892 1.01752 128 125 97
-3.88750 -5.10755 1.02210 128 127 97
-3.89598 -5.12626 1.02670 127 125 92
-3.90449 -5.14505 1.03132 128 125 96
-3.91304 -5.16393 1.03596 128 125 101
-3.92163 -5.18289 1.04062 132 126 102
-3.93025 -5.20194 1.04530 130 125 92
-3.93892 -5.22107 1.05000 126 127 102
-3.94762 -5.24028 1.05472 128 125 98
-3.95636 -5.25958 1.05947 131 125 98
-3.96514 -5.27897 1.06423 129 126 104
-3.97396 -5.29845 1.06902 128 127 106
-3.98282 -5.31801 1.07383 128 126 102
-3.99172 -5.33766 1.07866 129 125 103
-4.00066 -5.35740 1.08351 128 125 102
-4.00964 -5.37723 1.08838 131 127 101
-4.01866 -5.39715 1.09328 131 126 97
-4.02773 -5.41715 1.09820 128 124 96
-4.03683 -5.43725 1.10314 127 126 97
-4.04598 -5.45745 1.10810 127 128 101
-4.05516 -5.47773 1.11309 129 127 103
-4.06439 -5.49811 1.11810 130 127 98
-4.07366 -5.51858 1.12313 130 127 90
-4.08298 -5.53915 1.12818 131 126 101
-4.09234 -5.55981 1.13326 130 127 110
-3.53103 -4.33900 0.81531 121 117 93
-3.53803 -4.35450 0.81908 121 116 94
-3.54507 -4.37007 0.82288 121 114 92
-3.55213 -4.38570 0.82668 122 114 89
-3.55922 -4.40139 0.83050 120 115 88
-3.56634 -4.41715 0.83434 119 115 88
-3.57348 -4.43297 0.83819 121 116 84
-3.58066 -4.44885 0.84206 121 116 80
-3.58787 -4.46480 0.84594 119 116 81
-3.59510 -4.48081 0.84984 122 115 86
-3.60237 -4.49689 0.85375 124 116 85
-3.60966 -4.51304 0.85769 124 117 91
-3.61699 -4.52925 0.86163 121 118 94
-3.62434 -4.54553 0.86560 122 118 94
-3.63173 -4.56187 0.86958 122 119 98
-3.63914 -4.57828 0.87357 123 119 95
-3.64659 -4.59476 0.87758 122 119 96
-3.65406 -4.61131 0.88161 123 118 91
-3.66157 -4.62792 0.88566 124 118 94
-3.66911 -4.64461 0.88972 123 119 93
-3.67668 -4.66136 0.89380 123 119 82
-3.68428 -4.67819 0.89790 124 121 87
-3.69192 -4.69508 0.90201 125 122 92
-3.69958 -4.71205 0.90614 126 121 90
-3.70728 -4.72909 0.91029 125 120 91
-3.71501 -4.74620 0.91446 125 120 96
-3.72277 -4.76338 0.91864 125 121 88
-3.73057 -4.78063 0.92284 125 122 90
-3.73840 -4.79796 0.92706 126 121 98
-3.74626 -4.81536 0.93130 127 122 94
-3.75415 -4.83283 0.93555 126 122 92
-3.76208 -4.85038 0.93982 126 121 95
-3.77005 -4.86800 0.94411 126 120 97
-3.77804 -4.88570 0.94842 125 122 99
-3.78607 -4.90348 0.95275 124 123 95
-3.79414 -4.92133 0.95710 125 123 90
-3.80224 -4.93926 0.96146 126 123 92
-3.81038 -4.95726 0.96585 125 123 91
-3.81855 -4.97535 0.97025 125 124 93
-3.82675 -4.99351 0.97467 126 123 94
-3.83499 -5.01175 0.97911 126 123 92
-3.84327 -5.03007 0.98358 126 123 98
-3.85159 -5.04847 0.98806 127 123 98
-3.85994 -5.06695 0.99256 130 123 95
-3.86832 -5.08552 0.99707 128 122 100
-3.87675 -5.10416 1.00161 127 124 93
-3.88521 -5.12289 1.00617 129 125 91
-3.89371 -5.14169 1.01075 128 125 91
-3.90224 -5.16059 1.01535 129 125 93
-3.91081 -5.17956 1.01997 128 123 96
-3.91943 -5.19862 1.02461 131 125 104
-3.92808 -5.21776 1.02927 129 125 86
-3.93676 -5.23699 1.03396 127 127 96
-3.94549 -5.25631 1.03866 128 125 96
-3.95426 -5.27571 1.04338 129 125 94
-3.96306 -5.29520 1.04813 128 125 101
-3.97191 -5.31478 1.05290 127 124 105
-3.98080 -5.33444 1.05768 126 123 106
-3.98972 -5.35420 1.06249 127 124 108
-3.99869 -5.37404 1.06733 128 124 101
-4.00769 -5.39398 1.07218 131 124 92
-4.01674 -5.41400 1.07706 129 124 95
-4.02583 -5.43412 1.08195 125 124 96
-4.03496 -5.45433 1.08687 127 125 97
-4.04413 -5.47463 1.09182 128 126 102
-4.05335 -5.49502 1.09678 131 126 100
-4.06261 -5.51551 1.10177 130 125 97
-4.07191 -5.53609 1.10678 129 124 98
-4.08125 -5.55677 1.11182 129 124 105
-4.09064 -5.57755 1.11688 127 125 107
-3.53488 -4.36622 0.80394 123 118 90
-3.54193 -4.38186 0.80771 121 117 91
-3.54901 -4.39756 0.81149 121 117 91
-3.55611 -4.41332 0.81530 121 116 93
-3.56325 -4.42915 0.81911 121 116 89
-3.57041 -4.44504 0.82295 121 117 84
-3.57760 -4.46100 0.82680 120 117 86
-3.58482 -4.47702 0.83066 121 118 84
-3.59207 -4.49311 0.83454 122 117 78
-3.59936 -4.50927 0.83843 123 117 77
-3.60667 -4.52549 0.84235 123 116 89
-3.61401 -4.54177 0.84627 122 118 93
-3.62138 -4.55813 0.85022 124 120 94
-3.62878 -4.57455 0.85418 122 120 96
-3.63621 -4.59104 0.85815 122 119 91
-3.64368 -4.60759 0.86215 122 118 89
-3.65117 -4.62422 0.86616 124 120 82
-3.65869 -4.64091 0.87018 125 118 92
-3.66625 -4.65768 0.87423 124 119 91
-3.67384 -4.67451 0.87829 124 120 84
-3.68146 -4.69142 0.88236 126 122 86
-3.68911 -4.70840 0.88646 125 123 90
-3.69679 -4.72544 0.89057 125 121 93
-3.70451 -4.74256 0.89470 125 121 92
-3.71226 -4.75976 0.89884 126 120 95
-3.72004 -4.77702 0.90301 126 121 94
-3.72786 -4.79436 0.90719 126 123 92
-3.73570 -4.81177 0.91139 128 122 90
-3.74359 -4.82925 0.91560 127 122 85
-3.75150 -4.84681 0.91984 125 122 88
-3.75945 -4.86445 0.92409 126 121 97
-3.76743 -4.88216 0.92836 126 120 96
-3.77545 -4.89995 0.93265 126 121 96
-3.78350 -4.91781 0.93696 126 121 97
-3.79159 -4.93575 0.94129 127 121 96
-3.79971 -4.95377 0.94563 128 121 96
-3.80787 -4.97186 0.95000 125 122 88
-3.81606 -4.99004 0.95438 125 123 89
-3.82429 -5.00829 0.95878 124 124 94
-3.83255 -5.02663 0.96320 124 124 93
-3.84085 -5.04504 0.96765 125 123 96
-3.84919 -5.06353 0.97211 127 123 96
-3.85756 -5.08211 0.97658 130 123 95
-3.86597 -5.10077 0.98108 128 123 99
-3.87441 -5.11951 0.98560 127 124 99
-3.88290 -5.13833 0.99014 130 124 92
-3.89142 -5.15723 0.99470 129 125 95
-3.89998 -5.17622 0.99928 128 125 99
-3.90858 -5.19530 1.00388 127 124 97
-3.91721 -5.21445 1.00850 128 123 103
-3.92588 -5.23370 1.01314 128 124 90
-3.93460 -5.25303 1.01780 128 125 95
-3.94335 -5.27245 1.02249 128 124 99
-3.95214 -5.29195 1.02719 128 125 94
-3.96097 -5.31154 1.03192 128 125 98
-3.96984 -5.33122 1.03666 126 124 104
-3.97875 -5.35099 1.04143 128 123 105
-3.98771 -5.37085 1.04622 128 123 108
-3.99670 -5.39080 1.05103 127 123 101
-4.00573 -5.41084 1.05586 130 122 94
-4.01481 -5.43098 1.06072 128 123 97
-4.02392 -5.45120 1.06560 125 125 99
-4.03308 -5.47152 1.07050 127 124 97
-4.04228 -5.49193 1.07542 127 124 101
-4.05152 -5.51243 1.08036 127 124 100
-4.06081 -5.53304 1.08533 127 124 99
-4.07014 -5.55373 1.09032 126 123 102
-4.07951 -5.57452 1.09534 125 123 102
-4.08892 -5.59541 1.10038 124 123 97
-3.53171 -4.37801 0.78870 120 119 85
-3.53877 -4.39372 0.79245 120 118 88
-3.54586 -4.40949 0.79622 119 117 89
-3.55298 -4.42533 0.80000 120 117 92
-3.56013 -4.44123 0.80380 122 116 90
-3.56731 -4.45720 0.80761 122 116 87
-3.57452 -4.47323 0.81144 122 117 88
-3.58176 -4.48932 0.81528 122 117 86
-3.58903 -4.50549 0.81914 123 117 85
-3.59632 -4.52172 0.82302 123 117 86
-3.60365 -4.53801 0.82691 123 116 87
-3.61101 -4.55437 0.83082 121 117 92
-3.61840 -4.57081 0.83474 119 119 94
-3.62582 -4.58730 0.83868 121 120 89
-3.63327 -4.60387 0.84264 124 119 87
-3.64075 -4.62051 0.84662 124 118 89
-3.64826 -4.63721 0.85061 123 117 92
-3.65580 -4.65399 0.85461 124 116 100
-3.66337 -4.67083 0.85863 123 118 93
-3.67098 -4.68775 0.86268 123 120 91
-3.67862 -4.70473 0.86673 124 121 92
-3.68629 -4.72179 0.87081 123 121 91
-3.69399 -4.73892 0.87490 124 120 90
-3.70173 -4.75612 0.87901 124 120 88
-3.70949 -4.77340 0.88313 125 119 91
-3.71729 -4.79075 0.88728 124 121 91
-3.72513 -4.80817 0.89144 124 122 83
-3.73300 -4.82567 0.89562 125 123 83
-3.74090 -4.84324 0.89981 125 123 89
-3.74883 -4.86089 0.90403 125 122 92
-3.75680 -4.87861 0.90826 126 120 95
-3.76480 -4.89641 0.91251 127 120 96
-3.77284 -4.91428 0.91678 126 120 95
-3.78091 -4.93224 0.92107 126 121 97
-3.78902 -4.95027 0.92538 126 121 98
-3.79716 -4.96837 0.92970 125 121 96
-3.80534 -4.98656 0.93404 122 122 90
-3.81355 -5.00483 0.93841 123 124 90
-3.82180 -5.02317 0.94279 125 124 95
-3.83009 -5.04160 0.94719 126 124 97
-3.83841 -5.06011 0.95161 126 123 100
-3.84677 -5.07869 0.95605 126 123 100
-3.85516 -5.09737 0.96051 127 123 98
-3.86360 -5.11612 0.96499 125 125 90
-3.87207 -5.13495 0.96949 125 126 97
-3.88057 -5.15387 0.97400 128 125 91
-3.88912 -5.17288 0.97854 128 123 89
-3.89770 -5.19196 0.98310 128 122 94
-3.90632 -5.21114 0.98768 127 123 90
-3.91498 -5.23039 0.99228 127 124 97
-3.92368 -5.24974 0.99690 128 124 94
-3.93242 -5.26917 1.00154 127 124 97
-3.94119 -5.28869 1.00620 127 123 96
-3.95001 -5.30830 1.01089 127 124 94
-3.95887 -5.32799 1.01559 127 125 93
-3.96776 -5.34778 1.02032 124 124 96
-3.97670 -5.36766 1.02506 129 122 99
-3.98568 -5.38762 1.02983 127 122 103
-3.99470 -5.40768 1.03462 125 123 100
-4.00376 -5.42783 1.03944 126 123 96
-4.01286 -5.44807 1.04427 124 123 98
-4.02200 -5.46840 1.04913 123 123 98
-4.03119 -5.48883 1.05401 124 123 92
-4.04041 -5.50935 1.05891 125 122 96
-4.04968 -5.52997 1.06383 123 123 99
-3.53560 -4.40565 0.77710 120 118 85
-3.54270 -4.42150 0.78084 120 117 84
-3.54984 -4.43741 0.78461 121 116 87
-3.55700 -4.45338 0.78839 122 115 93
-3.56420 -4.46942 0.79218 122 116 92
-3.57142 -4.48553 0.79599 121 117 89
-3.57868 -4.50170 0.79981 123 118 87
-3.58596 -4.51794 0.80365 124 118 87
-3.59328 -4.53424 0.80751 123 118 86
-3.60062 -4.55062 0.81138 123 118 83
-3.60799 -4.56706 0.81527 122 118 89
-3.61540 -4.58356 0.81917 121 119 90
-3.62283 -4.60014 0.82309 122 120 84
-3.63030 -4.61679 0.82703 122 120 80
-3.63780 -4.63350 0.83098 122 118 85
-3.64533 -4.65029 0.83495 123 117 93
-3.65289 -4.66714 0.83894 123 117 96
-3.66048 -4.68407 0.84294 123 119 91
-3.66810 -4.70106 0.84696 123 120 90
-3.67576 -4.71813 0.85100 123 120 89
-3.68345 -4.73527 0.85506 124 120 91
-3.69117 -4.75249 0.85913 124 120 92
-3.69892 -4.76977 0.86321 122 119 85
-3.70671 -4.78713 0.86732 124 119 88
-3.71453 -4.80457 0.87144 125 120 88
-3.72238 -4.82207 0.87558 125 121 81
-3.73027 -4.83966 0.87974 125 122 83
-3.73819 -4.85732 0.88392 126 122 89
-3.74615 -4.87505 0.88811 126 121 90
-3.75413 -4.89286 0.89233 126 120 93
-3.76216 -4.91075 0.89656 127 121 97
-3.77022 -4.92871 0.90080 126 121 97
-3.77831 -4.94675 0.90507 126 122 101
-3.78644 -4.96488 0.90936 126 123 101
-3.79460 -4.98307 0.91366 125 124 97
-3.80280 -5.00135 0.91799 123 124 95
-3.81103 -5.01971 0.92233 124 124 91
-3.81931 -5.03815 0.92669 126 123 92
-3.82761 -5.05667 0.93107 126 121 97
-3.83596 -5.07527 0.93547 127 122 100
-3.84434 -5.09396 0.93989 127 123 100
-3.85275 -5.11272 0.94433 128 124 100
-3.86121 -5.13157 0.94878 123 125 95
-3.86970 -5.15050 0.95326 124 125 99
-3.87823 -5.16952 0.95776 128 125 94
-3.88680 -5.18862 0.96228 127 123 93
-3.89541 -5.20781 0.96681 126 122 92
-3.90405 -5.22708 0.97137 126 123 89
-3.91273 -5.24644 0.97595 125 124 93
-3.92146 -5.26589 0.98055 124 123 92
-3.93022 -5.28542 0.98517 125 123 101
-3.93902 -5.30505 0.98981 126 122 88
-3.94786 -5.32476 0.99447 125 123 93
-3.95675 -5.34456 0.99916 126 124 90
-3.96567 -5.36445 1.00386 124 124 88
-3.97463 -5.38443 1.00859 126 123 92
-3.98363 -5.40450 1.01333 125 123 97
-3.99268 -5.42467 1.01810 122 124 99
-4.00177 -5.44493 1.02289 123 123 95
-4.01089 -5.46528 1.02771 121 121 96
-4.02006 -5.48572 1.03254 120 121 96
-4.02928 -5.50626 1.03740 120 121 93
-4.03853 -5.52689 1.04228 119 122 95
-3.53240 -4.41766 0.76165 119 117 91
-3.53952 -4.43358 0.76538 120 117 88
-3.54667 -4.44956 0.76912 119 117 84
-3.55386 -4.46561 0.77288 120 116 83
-3.56107 -4.48173 0.77665 120 117 85
-3.56831 -4.49791 0.78044 121 118 88
-3.57558 -4.51415 0.78425 123 118 87
-3.58288 -4.53047 0.78807 123 118 86
-3.59021 -4.54685 0.79190 122 119 85
-3.59757 -4.56330 0.79575 124 120 82
-3.60496 -4.57982 0.79962 123 120 85
-3.61238 -4.59640 0.80351 123 120 87
-3.61983 -4.61306 0.80741 123 120 86
-3.62732 -4.62978 0.81132 123 120 82
-3.63483 -4.64658 0.81526 122 119 87
-3.64238 -4.66344 0.81921 123 117 92
-3.64996 -4.68038 0.82317 123 119 90
-3.65757 -4.69739 0.82715 123 118 86
-3.66521 -4.71447 0.83115 124 119 90
-3.67288 -4.73162 0.83517 124 119 90
-3.68059 -4.74884 0.83920 124 119 91
-3.68833 -4.76614 0.84325 124 119 91
-3.69610 -4.78351 0.84732 123 120 88
-3.70391 -4.80095 0.85141 124 120 90
-3.71175 -4.81847 0.85551 125 120 86
-3.71962 -4.83607 0.85963 125 120 76
-3.72753 -4.85374 0.86377 125 120 81
-3.73547 -4.87148 0.86792 127 120 89
-3.74344 -4.88931 0.87210 127 119 90
-3.75145 -4.90720 0.87629 126 120 94
-3.75949 -4.92518 0.88050 126 121 99
-3.76757 -4.94324 0.88472 126 121 99
-3.77569 -4.96137 0.88897 125 122 98
-3.78384 -4.97958 0.89324 125 123 98
-3.79202 -4.99787 0.89752 125 123 97
-3.80024 -5.01624 0.90182 124 124 96
-3.80850 -5.03470 0.90614 124 123 90
-3.81679 -5.05323 0.91048 125 122 87
-3.82512 -5.07184 0.91484 125 120 93
-3.83349 -5.09054 0.91922 124 122 95
-3.84189 -5.10932 0.92362 125 123 95
-3.85033 -5.12818 0.92803 126 122 98
-3.85881 -5.14713 0.93247 124 122 97
-3.86732 -5.16616 0.93693 125 123 98
-3.87588 -5.18528 0.94140 126 124 93
-3.88447 -5.20448 0.94590 125 123 94
-3.89310 -5.22377 0.95042 122 122 92
-3.90177 -5.24314 0.95495 125 122 96
-3.91047 -5.26260 0.95951 125 123 97
-3.91922 -5.28215 0.96409 124 123 96
-3.92801 -5.30179 0.96869 124 124 101
-3.93684 -5.32151 0.97331 126 123 93
-3.94570 -5.34133 0.97795 125 123 100
-3.95461 -5.36124 0.98261 125 122 93
-3.96356 -5.38123 0.98729 123 122 90
-3.97255 -5.40132 0.99200 122 122 93
-3.98158 -5.42150 0.99672 123 121 96
-3.99065 -5.44178 1.00147 122 122 97
-3.99976 -5.46215 1.00624 123 121 96
-3.52919 -4.42974 0.74611 117 115 88
-3.53632 -4.44573 0.74982 118 116 86
-3.54349 -4.46179 0.75354 119 117 84
-3.55069 -4.47791 0.75728 120 117 82
-3.55791 -4.49410 0.76103 121 117 84
-3.56517 -4.51036 0.76480 122 118 88
-3.57246 -4.52668 0.76858 123 118 88
-3.57977 -4.54307 0.77238 123 118 88
-3.58712 -4.55953 0.77620 122 118 89
-3.59450 -4.57606 0.78003 123 120 85
-3.60190 -4.59266 0.78388 121 120 86
-3.60934 -4.60932 0.78774 121 120 92
-3.61681 -4.62606 0.79162 122 119 96
-3.62431 -4.64286 0.79552 123 119 88
-3.63185 -4.65974 0.79943 122 118 92
-3.63941 -4.67668 0.80336 122 118 96
-3.64701 -4.69370 0.80730 123 118 89
-3.65463 -4.71079 0.81126 122 119 89
-3.66229 -4.72795 0.81524 123 118 95
-3.66999 -4.74519 0.81924 123 119 92
-3.67771 -4.76250 0.82325 124 118 89
-3.68547 -4.77988 0.82728 125 119 86
-3.69326 -4.79733 0.83133 123 119 94
-3.70109 -4.81486 0.83539 123 119 95
-3.70895 -4.83247 0.83947 124 120 89
-3.71684 -4.85015 0.84357 125 120 83
-3.72476 -4.86791 0.84769 124 120 86
-3.73272 -4.88574 0.85182 125 119 91
-3.74072 -4.90365 0.85597 125 119 93
-3.74875 -4.92164 0.86014 125 120 95
-3.75681 -4.93971 0.86433 126 121 97
-3.76491 -4.95785 0.86854 126 121 97
-3.77305 -4.97608 0.87276 125 122 96
-3.78122 -4.99438 0.87701 124 122 95
-3.78942 -5.01277 0.88127 124 120 95
-3.79766 -5.03123 0.88555 124 121 95
-3.80594 -5.04978 0.88985 124 122 93
-3.81426 -5.06841 0.89417 125 122 91
-3.82261 -5.08712 0.89850 125 122 92
-3.83100 -5.10591 0.90286 124 123 95
-3.83942 -5.12479 0.90724 125 124 98
-3.84789 -5.14375 0.91163 124 122 97
-3.85639 -5.16279 0.91605 125 120 96
-3.86493 -5.18192 0.92048 126 120 93
-3.87350 -5.20114 0.92494 126 122 89
-3.88212 -5.22044 0.92941 124 122 93
-3.89077 -5.23983 0.93391 122 122 94
-3.89947 -5.25930 0.93842 124 122 99
-3.90820 -5.27887 0.94296 124 123 100
-3.91697 -5.29852 0.94751 125 123 97
-3.92578 -5.31826 0.95209 123 123 97
-3.93463 -5.33809 0.95669 123 121 97
-3.94353 -5.35802 0.96131 124 120 101
-3.95246 -5.37803 0.96595 122 119 94
-3.96143 -5.39814 0.97061 121 119 94
-3.97045 -5.41833 0.97529 119 119 93
-3.97951 -5.43862 0.97999 122 118 93
-3.98860 -5.45901 0.98472 121 119 97
-3.52595 -4.44190 0.73047 114 114 87
-3.53310 -4.45796 0.73416 115 114 83
-3.54029 -4.47409 0.73786 118 115 85
-3.54750 -4.49029 0.74158 120 115 88
-3.55474 -4.50656 0.74531 121 117 88
-3.56201 -4.52289 0.74906 122 118 87
-3.56932 -4.53929 0.75282 123 118 88
-3.57665 -4.55576 0.75660 123 118 90
-3.58401 -4.57230 0.76039 123 119 89
-3.59141 -4.58890 0.76421 122 119 86
-3.59883 -4.60558 0.76803 120 119 88
-3.60629 -4.62232 0.77187 120 119 91
-3.61377 -4.63914 0.77573 122 118 95
-3.62129 -4.65602 0.77961 120 118 88
-3.62884 -4.67298 0.78350 121 118 88
-3.63642 -4.69001 0.78741 122 118 92
-3.64404 -4.70711 0.79133 124 118 87
-3.65168 -4.72428 0.79527 123 118 87
-3.65936 -4.74153 0.79923 123 117 90
-3.66707 -4.75885 0.80320 122 119 90
-3.67482 -4.77624 0.80719 121 119 87
-3.68259 -4.79371 0.81120 122 119 86
-3.69041 -4.81125 0.81523 122 119 91
-3.69825 -4.82886 0.81927 122 119 89
-3.70613 -4.84656 0.82333 122 120 88
-3.71404 -4.86433 0.82741 123 121 88
-3.72198 -4.88217 0.83150 123 121 89
-3.72996 -4.90009 0.83562 124 120 89
-3.73798 -4.91810 0.83975 124 119 91
-3.74603 -4.93617 0.84389 124 120 95
-3.75411 -4.95433 0.84806 125 120 98
-3.76223 -4.97257 0.85225 126 120 102
-3.77039 -4.99089 0.85645 124 120 100
-3.77858 -5.00928 0.86067 124 120 93
-3.78681 -5.02776 0.86491 124 120 91
-3.79507 -5.04632 0.86917 124 120 91
-3.80337 -5.06496 0.87345 124 122 92
-3.81171 -5.08368 0.87774 123 122 93
-3.82008 -5.10249 0.88206 124 122 93
-3.82849 -5.12138 0.88639 126 122 96
-3.83694 -5.14036 0.89075 125 123 99
-3.84543 -5.15942 0.89512 123 121 98
-3.85395 -5.17856 0.89952 125 120 95
-3.86251 -5.19779 0.90393 127 120 92
-3.87111 -5.21711 0.90836 125 121 93
-3.87975 -5.23651 0.91281 123 121 97
-3.88843 -5.25600 0.91729 123 123 96
-3.89715 -5.27558 0.92178 123 123 101
-3.90591 -5.29525 0.92629 122 122 96
-3.91470 -5.31500 0.93083 123 122 93
-3.92354 -5.33485 0.93538 122 120 93
-3.93242 -5.35479 0.93996 121 119 97
-3.94134 -5.37482 0.94455 122 116 95
-3.95030 -5.39494 0.94917 119 116 91
-3.52270 -4.45412 0.71474 113 114 85
-3.52987 -4.47027 0.71840 115 115 81
-3.53706 -4.48647 0.72208 118 116 84
-3.54429 -4.50275 0.72578 120 115 89
-3.55155 -4.51909 0.72949 121 116 90
-3.55884 -4.53550 0.73322 121 117 86
-3.56616 -4.55198 0.73696 122 117 83
-3.57351 -4.56853 0.74072 121 117 83
-3.58089 -4.58514 0.74449 121 119 84
-3.58830 -4.60183 0.74828 120 119 82
-3.59574 -4.61858 0.75209 118 119 89
-3.60321 -4.63541 0.75591 120 119 87
-3.61071 -4.65230 0.75975 123 119 88
-3.61825 -4.66927 0.76360 122 118 87
-3.62582 -4.68631 0.76747 123 118 88
-3.63342 -4.70342 0.77135 123 118 89
-3.64105 -4.72060 0.77526 123 117 86
-3.64871 -4.73786 0.77918 123 118 86
-3.65641 -4.75519 0.78311 123 118 87
-3.66414 -4.77259 0.78706 121 118 88
-3.67190 -4.79007 0.79103 120 120 88
-3.67970 -4.80762 0.79502 121 119 87
-3.68753 -4.82525 0.79902 122 119 89
-3.69539 -4.84295 0.80305 122 119 88
-3.70329 -4.86074 0.80708 122 119 89
-3.71122 -4.87859 0.81114 123 119 91
-3.71919 -4.89653 0.81521 123 119 94
-3.72719 -4.91454 0.81930 124 120 92
-3.73522 -4.93263 0.82341 124 120 92
-3.74329 -4.95080 0.82754 125 119 95
-3.75140 -4.96905 0.83168 125 119 98
-3.75954 -4.98738 0.83585 125 120 102
-3.76771 -5.00579 0.84003 125 120 100
-3.77593 -5.02428 0.84423 124 119 90
-3.78418 -5.04285 0.84844 124 119 85
-3.79246 -5.06151 0.85268 124 121 87
-3.80078 -5.08025 0.85694 123 123 90
-3.80914 -5.09907 0.86121 123 122 91
-3.81754 -5.11797 0.86550 123 121 95
-3.82597 -5.13696 0.86982 124 121 99
-3.83444 -5.15603 0.87415 123 121 96
-3.84295 -5.17519 0.87850 122 121 96
-3.85150 -5.19443 0.88287 124 120 95
-3.86009 -5.21376 0.88726 126 119 95
-3.86871 -5.23318 0.89167 124 118 97
-3.87737 -5.25269 0.89610 122 120 99
-3.88608 -5.27228 0.90055 122 120 96
-3.89482 -5.29197 0.90502 121 121 97
-3.92128 -5.35155 0.91855 121 117 91
-3.51942 -4.46643 0.69891 114 114 81
-3.52661 -4.48265 0.70255 115 115 78
-3.53382 -4.49893 0.70621 118 117 81
-3.54106 -4.51528 0.70989 120 116 87
-3.54834 -4.53170 0.71358 120 115 90
-3.55564 -4.54819 0.71728 121 115 88
-3.56298 -4.56475 0.72100 123 114 84
-3.57034 -4.58137 0.72474 122 115 84
-3.57774 -4.59807 0.72849 121 117 82
-3.58517 -4.61483 0.73226 119 118 81
-3.59263 -4.63167 0.73604 119 118 87
-3.60012 -4.64857 0.73984 121 118 85
-3.60764 -4.66555 0.74366 123 116 86
-3.61519 -4.68260 0.74749 122 116 88
-3.62278 -4.69972 0.75134 122 116 93
-3.63039 -4.71691 0.75520 122 117 96
-3.63804 -4.73418 0.75908 122 118 90
-3.64573 -4.75152 0.76298 123 117 90
-3.65344 -4.76894 0.76689 124 117 89
-3.66119 -4.78642 0.77082 121 117 88
-3.66897 -4.80399 0.77477 122 118 88
-3.67679 -4.82163 0.77873 123 118 89
-3.68463 -4.83934 0.78272 122 118 91
-3.69252 -4.85714 0.78672 121 118 94
-3.70043 -4.87501 0.79073 121 119 93
-3.70838 -4.89295 0.79476 123 118 96
-3.71637 -4.91098 0.79882 122 118 98
-3.72439 -4.92908 0.80288 122 119 95
-3.73245 -4.94726 0.80697 123 119 92
-3.74054 -4.96553 0.81107 125 119 93
-3.74866 -4.98387 0.81520 125 118 96
-3.75682 -5.00229 0.81934 124 118 98
-3.76502 -5.02079 0.82350 125 119 96
-3.77326 -5.03938 0.82767 124 119 89
-3.78153 -5.05805 0.83187 124 119 86
-3.78983 -5.07680 0.83608 125 120 88
-3.79818 -5.09563 0.84032 122 122 88
-3.80656 -5.11455 0.84457 122 121 87
-3.81498 -5.13355 0.84884 121 120 93
-3.82343 -5.15264 0.85313 122 120 97
-3.83193 -5.17181 0.85744 123 119 93
-3.84046 -5.19107 0.86176 125 119 95
-3.84903 -5.21042 0.86611 124 118 99
-3.85764 -5.22985 0.87048 124 116 96
-3.86629 -5.24937 0.87487 123 117 95
-3.87498 -5.26898 0.87927 121 118 94
-3.88370 -5.28868 0.88370 121 115 93
-3.89247 -5.30846 0.88815 119 115 93
-3.90128 -5.32834 0.89262 117 116 87
-3.91012 -5.34831 0.89710 116 115 82
-3.51613 -4.47881 0.68298 112 113 83
-3.52333 -4.49511 0.68660 113 115 83
-3.53056 -4.51147 0.69024 117 116 83
-3.53782 -4.52790 0.69389 119 115 84
-3.54511 -4.54439 0.69756 119 114 89
-3.55243 -4.56096 0.70124 121 113 88
-3.55978 -4.57759 0.70494 122 114 82
-3.56716 -4.59430 0.70866 122 115 80
-3.57457 -4.61107 0.71239 121 117 81
-3.58202 -4.62792 0.71613 119 118 80
-3.58949 -4.64483 0.71989 120 118 84
-3.59700 -4.66182 0.72367 121 116 85
-3.60454 -4.67888 0.72747 122 113 86
-3.61211 -4.69601 0.73127 122 114 87
-3.61971 -4.71322 0.73510 120 116 90
-3.62735 -4.73049 0.73894 120 117 94
-3.63502 -4.74785 0.74280 120 117 87
-3.64272 -4.76527 0.74668 124 117 91
-3.65045 -4.78277 0.75057 124 116 87
-3.65822 -4.80035 0.75448 121 116 85
-3.66602 -4.81800 0.75840 123 117 89
-3.67385 -4.83573 0.76234 123 117 90
-3.68172 -4.85353 0.76630 122 117 93
-3.68962 -4.87141 0.77028 121 118 96
-3.69756 -4.88937 0.77427 122 119 94
-3.70553 -4.90741 0.77828 123 118 94
-3.71354 -4.92552 0.78231 122 119 95
-3.72158 -4.94372 0.78636 122 119 95
-3.72965 -4.96199 0.79042 123 118 92
-3.73776 -4.98035 0.79450 123 117 91
-3.74591 -4.99878 0.79860 123 117 93
-3.75409 -5.01730 0.80272 123 118 93
-3.76231 -5.03590 0.80686 123 119 92
-3.77057 -5.05458 0.81101 123 119 92
-3.77886 -5.07334 0.81518 123 118 96
-3.78719 -5.09219 0.81937 124 119 94
-3.79556 -5.11112 0.82358 123 120 92
-3.80396 -5.13014 0.82781 123 119 87
-3.81240 -5.14924 0.83206 121 118 90
-3.82088 -5.16843 0.83632 122 117 91
-3.82940 -5.18770 0.84061 123 118 91
-3.83795 -5.20706 0.84492 125 117 93
-3.84655 -5.22651 0.84924 122 115 97
-3.85518 -5.24604 0.85358 121 115 94
-3.86385 -5.26567 0.85795 120 115 90
-3.87256 -5.28538 0.86233 118 113 90
-3.88131 -5.30518 0.86674 121 111 87
-3.51281 -4.49127 0.66695 112 111 85
-3.52003 -4.50764 0.67055 114 112 86
-3.52727 -4.52408 0.67416 116 114 84
-3.53455 -4.54059 0.67780 118 114 84
-3.54185 -4.55716 0.68144 119 114 89
-3.54919 -4.57381 0.68510 120 113 89
-3.55656 -4.59052 0.68878 121 114 80
-3.56396 -4.60731 0.69247 121 115 77
-3.57139 -4.62416 0.69618 122 117 79
-3.57885 -4.64109 0.69990 120 118 78
-3.58634 -4.65809 0.70364 120 118 83
-3.59387 -4.67516 0.70740 121 115 87
-3.60142 -4.69230 0.71117 121 112 91
-3.60901 -4.70951 0.71496 122 114 84
-3.61663 -4.72680 0.71876 121 116 80
-3.62428 -4.74416 0.72258 120 117 86
-3.63197 -4.76160 0.72642 120 116 84
-3.63969 -4.77911 0.73027 123 115 89
-3.64744 -4.79670 0.73414 122 115 88
-3.65523 -4.81436 0.73802 121 116 86
-3.66305 -4.83210 0.74192 121 117 90
-3.67090 -4.84992 0.74584 122 117 92
-3.67879 -4.86781 0.74978 121 117 92
-3.68671 -4.88578 0.75373 120 118 93
-3.69467 -4.90383 0.75770 122 119 91
-3.70266 -4.92196 0.76169 123 118 90
-3.71068 -4.94017 0.76570 123 117 92
-3.71874 -4.95845 0.76972 122 117 95
-3.72684 -4.97682 0.77376 122 117 92
-3.73497 -4.99527 0.77782 122 116 92
