ply
format ascii 1.0
element face 0
property list uchar int vertex_indices
element vertex 1279
property float x
property float y
property float z
property uchar diffuse_red
property uchar diffuse_green
property uchar diffuse_blue
end_header
-0.66747 -3.83976 2.20886 170 157 155
-0.67857 -3.84248 2.21035 168 155 155
-0.68965 -3.84521 2.21184 167 154 157
-0.70071 -3.84793 2.21333 167 153 157
-0.71176 -3.85064 2.21482 165 152 158
-0.72280 -3.85335 2.21630 164 151 158
-0.73382 -3.85606 2.21779 164 153 154
-0.74482 -3.85877 2.21927 164 152 153
-0.75581 -3.86147 2.22075 164 149 155
-0.76679 -3.86417 2.22222 162 147 153
-0.77776 -3.86686 2.22370 160 146 148
-0.78870 -3.86955 2.22517 159 144 148
-0.79964 -3.87224 2.22665 158 142 146
-0.81056 -3.87492 2.22812 157 141 146
-0.82147 -3.87760 2.22958 157 140 143
-0.83236 -3.88028 2.23105 155 140 138
-0.84324 -3.88295 2.23251 151 134 132
-0.86495 -3.88829 2.23544 136 121 114
-0.45625 -3.77176 2.16625 186 177 180
-0.46757 -3.77455 2.16778 187 177 178
-0.47888 -3.77734 2.16931 186 176 178
-0.49017 -3.78013 2.17084 185 175 177
-0.50145 -3.78291 2.17237 185 174 176
-0.51272 -3.78569 2.17389 183 172 176
-0.52397 -3.78847 2.17542 184 172 176
-0.53520 -3.79124 2.17694 184 171 177
-0.54642 -3.79401 2.17846 182 170 176
-0.55763 -3.79677 2.17998 182 169 173
-0.56882 -3.79953 2.18149 180 169 169
-0.58000 -3.80229 2.18301 178 167 167
-0.59116 -3.80504 2.18452 178 165 164
-0.60231 -3.80779 2.18603 179 164 167
-0.61344 -3.81054 2.18753 179 164 172
-0.62456 -3.81328 2.18904 178 163 174
-0.63566 -3.81602 2.19054 176 164 172
-0.64675 -3.81876 2.19205 176 163 167
-0.65782 -3.82149 2.19355 175 161 165
-0.66888 -3.82422 2.19504 174 161 162
-0.67993 -3.82694 2.19654 172 160 160
-0.69096 -3.82966 2.19803 170 157 159
-0.70197 -3.83238 2.19953 169 156 160
-0.71298 -3.83509 2.20102 168 154 160
-0.72396 -3.83781 2.20250 169 153 159
-0.73494 -3.84051 2.20399 165 155 157
-0.74589 -3.84322 2.20547 165 154 155
-0.75684 -3.84592 2.20696 166 153 157
-0.76777 -3.84861 2.20844 164 152 156
-0.77869 -3.85131 2.20991 163 152 152
-0.78959 -3.85400 2.21139 163 150 150
-0.80048 -3.85668 2.21287 162 146 149
-0.81135 -3.85936 2.21434 161 144 149
-0.82221 -3.86204 2.21581 160 143 149
-0.84389 -3.86739 2.21874 156 140 141
-0.85471 -3.87006 2.22021 152 135 133
-0.87630 -3.87539 2.22313 141 123 118
-0.48111 -3.76196 2.15557 185 178 181
-0.49235 -3.76475 2.15711 187 177 179
-0.50358 -3.76753 2.15864 187 175 177
-0.51480 -3.77031 2.16016 184 174 175
-0.52600 -3.77308 2.16169 183 174 175
-0.53718 -3.77585 2.16321 183 173 176
-0.54835 -3.77861 2.16474 182 172 173
-0.55951 -3.78138 2.16626 182 171 171
-0.57065 -3.78414 2.16777 182 170 169
-0.58178 -3.78689 2.16929 182 168 169
-0.59289 -3.78964 2.17080 181 166 166
-0.60399 -3.79239 2.17232 181 164 169
-0.61507 -3.79514 2.17383 179 164 175
-0.62614 -3.79788 2.17534 178 164 177
-0.63720 -3.80062 2.17684 177 165 174
-0.64824 -3.80335 2.17835 178 166 169
-0.65926 -3.80608 2.17985 177 165 170
-0.67028 -3.80881 2.18135 176 164 169
-0.68127 -3.81153 2.18285 176 162 167
-0.69226 -3.81425 2.18434 174 160 165
-0.70323 -3.81697 2.18584 172 158 164
-0.71418 -3.81968 2.18733 173 158 162
-0.72512 -3.82239 2.18882 173 156 159
-0.73605 -3.82509 2.19031 170 156 158
-0.74696 -3.82780 2.19180 169 156 156
-0.75786 -3.83049 2.19328 168 155 158
-0.76874 -3.83319 2.19476 166 155 159
-0.77961 -3.83588 2.19625 166 156 157
-0.79047 -3.83857 2.19772 166 155 155
-0.80131 -3.84125 2.19920 166 151 152
-0.81213 -3.84394 2.20068 165 149 152
-0.82295 -3.84661 2.20215 164 147 152
-0.83375 -3.84929 2.20362 164 145 151
-0.88754 -3.86261 2.21095 146 125 123
-0.50569 -3.75227 2.14502 186 177 181
-0.51686 -3.75505 2.14655 184 176 179
-0.52801 -3.75782 2.14808 185 174 176
-0.53914 -3.76059 2.14961 184 172 173
-0.55027 -3.76336 2.15113 183 172 170
-0.56137 -3.76612 2.15265 183 172 170
-0.57247 -3.76887 2.15417 183 171 171
-0.58355 -3.77163 2.15569 183 169 173
-0.59461 -3.77438 2.15721 183 167 171
-0.60566 -3.77712 2.15872 182 166 171
-0.61670 -3.77987 2.16024 181 165 173
-0.62772 -3.78261 2.16175 180 165 175
-0.63872 -3.78534 2.16326 180 166 172
-0.64972 -3.78807 2.16476 179 166 170
-0.66070 -3.79080 2.16627 178 165 172
-0.67166 -3.79353 2.16777 177 165 173
-0.68261 -3.79625 2.16927 177 165 172
-0.69355 -3.79897 2.17077 176 164 168
-0.70447 -3.80168 2.17227 175 162 167
-0.71537 -3.80439 2.17376 176 161 164
-0.72627 -3.80710 2.17525 175 160 161
-0.73715 -3.80981 2.17675 173 159 157
-0.74801 -3.81251 2.17824 173 158 154
-0.75886 -3.81520 2.17972 171 156 160
-0.76970 -3.81790 2.18121 169 155 159
-0.78052 -3.82059 2.18269 169 156 156
-0.79133 -3.82327 2.18417 168 156 159
-0.80213 -3.82596 2.18565 168 154 156
-0.81291 -3.82864 2.18713 168 153 154
-0.82368 -3.83131 2.18861 166 151 154
-0.83443 -3.83399 2.19008 166 150 154
-0.84517 -3.83666 2.19155 165 148 153
-0.89867 -3.84995 2.19889 153 131 123
-0.53000 -3.74270 2.13458 186 176 178
-0.54109 -3.74546 2.13611 186 174 175
-0.55216 -3.74822 2.13764 185 174 175
-0.56322 -3.75098 2.13917 184 174 176
-0.57427 -3.75374 2.14069 184 173 178
-0.58530 -3.75649 2.14221 184 171 177
-0.59632 -3.75924 2.14373 183 169 174
-0.60732 -3.76198 2.14524 183 169 176
-0.61831 -3.76472 2.14676 183 168 176
-0.62928 -3.76746 2.14827 183 168 178
-0.64024 -3.77020 2.14978 183 168 178
-0.65118 -3.77293 2.15129 181 167 174
-0.66211 -3.77565 2.15280 180 167 174
-0.67303 -3.77838 2.15431 179 167 172
-0.68393 -3.78110 2.15581 179 166 171
-0.69482 -3.78381 2.15731 177 167 167
-0.70570 -3.78653 2.15881 178 165 169
-0.71656 -3.78924 2.16031 178 164 169
-0.72741 -3.79194 2.16180 178 163 166
-0.73824 -3.79465 2.16330 177 163 161
-0.74906 -3.79734 2.16479 176 162 158
-0.75986 -3.80004 2.16628 174 160 163
-0.77066 -3.80273 2.16776 172 158 160
-0.78143 -3.80542 2.16925 171 157 155
-0.79220 -3.80811 2.17073 170 156 160
-0.80295 -3.81079 2.17222 170 155 160
-0.81368 -3.81347 2.17370 171 155 157
-0.82440 -3.81614 2.17518 167 154 153
-0.83511 -3.81881 2.17665 167 153 151
-0.84581 -3.82148 2.17813 166 153 155
-0.85649 -3.82415 2.17960 166 151 152
-0.55404 -3.73322 2.12426 185 176 180
-0.56506 -3.73598 2.12579 185 175 179
-0.57605 -3.73873 2.12732 185 173 182
-0.58704 -3.74148 2.12884 184 172 179
-0.59800 -3.74423 2.13036 184 172 176
-0.60896 -3.74697 2.13188 185 171 181
-0.61990 -3.74971 2.13340 185 171 180
-0.63083 -3.75245 2.13491 184 171 180
-0.64174 -3.75518 2.13643 184 171 181
-0.65264 -3.75791 2.13794 182 170 177
-0.66352 -3.76063 2.13945 182 169 176
-0.67439 -3.76335 2.14095 181 168 173
-0.68525 -3.76607 2.14246 180 167 170
-0.69609 -3.76879 2.14396 179 166 168
-0.70692 -3.77150 2.14546 179 164 172
-0.71773 -3.77421 2.14696 180 164 173
-0.72854 -3.77691 2.14846 179 165 173
-0.73932 -3.77961 2.14996 179 167 173
-0.75010 -3.78231 2.15145 178 165 170
-0.76086 -3.78500 2.15294 176 164 167
-0.77160 -3.78769 2.15443 175 162 163
-0.78233 -3.79038 2.15592 174 159 160
-0.79305 -3.79306 2.15741 172 158 165
-0.80376 -3.79575 2.15889 172 156 164
-0.81445 -3.79842 2.16038 173 156 161
-0.82512 -3.80110 2.16186 169 155 153
-0.83579 -3.80377 2.16334 168 155 148
-0.84644 -3.80643 2.16481 167 155 158
-0.85707 -3.80910 2.16629 169 154 158
-0.86770 -3.81175 2.16776 167 152 153
-0.87831 -3.81441 2.16923 164 152 152
-0.57782 -3.72385 2.11406 185 174 179
-0.58876 -3.72660 2.11558 185 173 178
-0.59968 -3.72934 2.11711 186 173 180
-0.61059 -3.73209 2.11863 187 173 183
-0.62148 -3.73482 2.12015 187 173 178
-0.63236 -3.73756 2.12166 185 173 175
-0.64323 -3.74029 2.12318 184 172 176
-0.65408 -3.74301 2.12469 183 171 181
-0.66492 -3.74574 2.12620 183 170 177
-0.67574 -3.74846 2.12771 182 170 175
-0.68655 -3.75117 2.12922 182 169 175
-0.69735 -3.75389 2.13073 182 168 173
-0.70813 -3.75660 2.13223 182 165 174
-0.71890 -3.75930 2.13373 182 164 175
-0.72965 -3.76200 2.13523 181 165 176
-0.74040 -3.76470 2.13673 179 167 179
-0.75112 -3.76740 2.13823 179 167 179
-0.76184 -3.77009 2.13972 178 166 173
-0.77254 -3.77278 2.14121 178 166 168
-0.78323 -3.77547 2.14270 177 163 167
-0.79390 -3.77815 2.14419 175 160 170
-0.80456 -3.78083 2.14568 175 160 169
-0.81520 -3.78350 2.14716 174 159 164
-0.82584 -3.78617 2.14865 171 156 158
-0.83646 -3.78884 2.15013 169 156 155
-0.84706 -3.79151 2.15161 167 156 160
-0.85765 -3.79417 2.15308 169 156 163
-0.86823 -3.79683 2.15456 168 155 155
-0.87880 -3.79948 2.15603 167 155 155
-0.88935 -3.80213 2.15751 166 153 158
-0.89989 -3.80478 2.15898 165 151 151
-0.60134 -3.71458 2.10396 186 173 181
-0.61220 -3.71732 2.10548 187 174 181
-0.62305 -3.72006 2.10701 186 174 177
-0.63388 -3.72279 2.10853 185 173 174
-0.64470 -3.72552 2.11004 184 173 176
-0.65551 -3.72824 2.11156 184 171 183
-0.66630 -3.73097 2.11307 183 172 177
-0.67708 -3.73368 2.11458 183 172 177
-0.68784 -3.73640 2.11609 184 171 180
-0.69859 -3.73911 2.11760 184 171 177
-0.70933 -3.74182 2.11911 184 169 177
-0.72006 -3.74452 2.12061 184 167 177
-0.73076 -3.74722 2.12211 182 167 177
-0.74146 -3.74992 2.12361 179 167 177
-0.75214 -3.75261 2.12511 179 168 178
-0.76281 -3.75530 2.12661 180 167 176
-0.77347 -3.75799 2.12810 180 169 172
-0.78411 -3.76067 2.12960 179 169 172
-0.79474 -3.76335 2.13109 177 166 176
-0.80535 -3.76603 2.13258 178 164 172
-0.81596 -3.76871 2.13406 178 162 167
-0.82654 -3.77138 2.13555 174 160 165
-0.83712 -3.77404 2.13703 171 158 161
-0.84768 -3.77671 2.13851 169 157 161
-0.85823 -3.77937 2.13999 169 158 158
-0.86876 -3.78202 2.14147 167 157 152
-0.87929 -3.78468 2.14294 168 156 155
-0.88979 -3.78733 2.14442 167 154 156
-0.90029 -3.78997 2.14589 167 153 152
-0.62461 -3.70542 2.09397 183 176 180
-0.63539 -3.70815 2.09550 185 175 181
-0.64617 -3.71087 2.09702 185 174 180
-0.65693 -3.71360 2.09853 185 173 183
-0.66767 -3.71632 2.10005 184 173 179
-0.67841 -3.71903 2.10156 184 173 179
-0.68913 -3.72174 2.10307 186 172 183
-0.69983 -3.72445 2.10458 185 172 178
-0.71052 -3.72716 2.10609 183 172 179
-0.72120 -3.72986 2.10760 183 172 177
-0.73187 -3.73256 2.10910 182 171 175
-0.74252 -3.73526 2.11060 180 170 174
-0.75316 -3.73795 2.11210 179 169 175
-0.76378 -3.74064 2.11360 180 168 172
-0.77439 -3.74332 2.11510 180 168 173
-0.78499 -3.74600 2.11659 180 169 173
-0.79557 -3.74868 2.11809 179 169 177
-0.80614 -3.75136 2.11958 179 167 173
-0.81670 -3.75403 2.12107 179 166 170
-0.82725 -3.75670 2.12255 177 163 170
-0.83778 -3.75936 2.12404 176 161 167
-0.84830 -3.76202 2.12552 173 160 164
-0.85880 -3.76468 2.12701 171 160 157
-0.86929 -3.76734 2.12848 168 159 151
-0.87977 -3.76999 2.12996 168 156 157
-0.89023 -3.77264 2.13144 168 155 155
-0.90069 -3.77528 2.13291 168 154 153
-0.64762 -3.69635 2.08410 185 174 184
-0.65833 -3.69907 2.08562 187 174 183
-0.66903 -3.70179 2.08713 186 174 181
-0.67972 -3.70450 2.08865 185 173 184
-0.69040 -3.70721 2.09016 186 171 185
-0.70106 -3.70992 2.09167 185 172 179
-0.71170 -3.71262 2.09318 184 173 180
-0.72234 -3.71532 2.09469 184 175 178
-0.73296 -3.71802 2.09620 183 174 175
-0.74356 -3.72071 2.09770 181 171 174
-0.75416 -3.72340 2.09920 182 170 174
-0.76474 -3.72609 2.10071 183 170 170
-0.77531 -3.72877 2.10220 182 169 173
-0.78586 -3.73145 2.10370 181 167 173
-0.79640 -3.73413 2.10520 180 166 172
-0.80693 -3.73680 2.10669 179 167 172
-0.81744 -3.73947 2.10818 179 169 171
-0.82794 -3.74214 2.10967 177 167 173
-0.83843 -3.74480 2.11116 179 164 174
-0.84890 -3.74746 2.11264 177 163 168
-0.85937 -3.75012 2.11412 174 162 164
-0.86981 -3.75277 2.11561 172 161 159
-0.88025 -3.75542 2.11709 171 159 160
-0.89067 -3.75807 2.11856 171 156 158
-0.90108 -3.76071 2.12004 171 155 158
-0.68103 -3.69009 2.07584 185 175 184
-0.69166 -3.69280 2.07736 186 174 187
-0.70227 -3.69550 2.07887 186 174 184
-0.71288 -3.69821 2.08038 185 175 179
-0.72346 -3.70090 2.08189 185 175 175
-0.73404 -3.70360 2.08340 184 173 178
-0.74460 -3.70629 2.08491 182 172 179
-0.75515 -3.70898 2.08641 183 171 176
-0.76569 -3.71166 2.08791 185 171 173
-0.77621 -3.71435 2.08941 183 172 177
-0.78672 -3.71702 2.09091 182 168 179
-0.79722 -3.71970 2.09241 183 166 172
-0.80770 -3.72237 2.09390 181 167 170
-0.81817 -3.72504 2.09540 179 168 172
-0.82863 -3.72770 2.09689 177 167 173
-0.83908 -3.73036 2.09838 180 165 176
-0.84951 -3.73302 2.09986 177 166 168
-0.85993 -3.73568 2.10135 176 163 171
-0.87033 -3.73833 2.10283 175 162 167
-0.88072 -3.74098 2.10431 174 161 164
-0.89110 -3.74362 2.10579 172 160 161
-0.90147 -3.74626 2.10727 174 157 159
-0.69291 -3.67850 2.06466 185 177 186
-0.70348 -3.68121 2.06617 187 176 187
-0.71404 -3.68391 2.06768 185 175 180
-0.72458 -3.68660 2.06920 184 176 176
-0.73511 -3.68930 2.07071 184 172 181
-0.74563 -3.69199 2.07221 184 172 182
-0.75614 -3.69467 2.07372 185 172 178
-0.76663 -3.69735 2.07522 185 172 175
-0.77711 -3.70003 2.07673 183 172 180
-0.78758 -3.70271 2.07823 182 171 184
-0.79803 -3.70538 2.07972 184 169 176
-0.80847 -3.70805 2.08122 182 168 171
-0.81890 -3.71072 2.08272 180 168 173
-0.82932 -3.71338 2.08421 179 167 172
-0.83972 -3.71604 2.08570 179 166 172
-0.85011 -3.71870 2.08719 179 167 167
-0.86048 -3.72135 2.08868 177 165 173
-0.87085 -3.72400 2.09016 178 164 169
-0.88120 -3.72665 2.09165 177 162 168
-0.89153 -3.72929 2.09313 173 162 166
-0.90186 -3.73193 2.09461 175 158 163
-0.71519 -3.66972 2.05509 183 176 180
-0.72569 -3.67242 2.05660 185 176 179
-0.73618 -3.67511 2.05811 186 172 181
-0.74666 -3.67780 2.05962 184 173 182
-0.75712 -3.68048 2.06113 185 172 180
-0.76757 -3.68316 2.06264 184 173 178
-0.77801 -3.68584 2.06414 183 173 180
-0.78843 -3.68851 2.06564 182 173 182
-0.79884 -3.69118 2.06714 183 171 180
-0.80924 -3.69385 2.06864 183 170 180
-0.81962 -3.69651 2.07014 182 170 175
-0.83000 -3.69918 2.07163 179 168 176
-0.84035 -3.70183 2.07313 179 168 176
-0.85070 -3.70449 2.07462 180 168 172
-0.86104 -3.70714 2.07611 177 167 172
-0.87136 -3.70979 2.07759 179 166 171
-0.88166 -3.71243 2.07908 178 166 171
-0.89196 -3.71507 2.08056 176 165 169
-0.90224 -3.71771 2.08204 176 161 168
-0.74767 -3.66372 2.04714 184 175 182
-0.75809 -3.66640 2.04865 185 174 181
-0.76850 -3.66908 2.05015 185 173 179
-0.77889 -3.67176 2.05166 183 173 180
-0.78927 -3.67443 2.05316 181 172 178
-0.79964 -3.67710 2.05466 182 171 178
-0.81000 -3.67976 2.05616 184 171 178
-0.82034 -3.68243 2.05766 182 173 172
-0.83067 -3.68508 2.05916 180 172 178
-0.84099 -3.68774 2.06065 181 171 181
-0.85129 -3.69039 2.06215 182 170 179
-0.86158 -3.69304 2.06364 180 169 173
-0.87186 -3.69569 2.06513 180 168 172
-0.88213 -3.69833 2.06661 179 167 176
-0.89238 -3.70097 2.06810 180 167 170
-0.90262 -3.70360 2.06958 179 166 171
-0.75905 -3.65244 2.03626 183 174 182
-0.76942 -3.65512 2.03777 186 173 178
-0.77977 -3.65779 2.03928 184 172 174
-0.79011 -3.66046 2.04078 182 171 173
-0.80043 -3.66313 2.04229 183 171 178
-0.81075 -3.66579 2.04379 183 173 177
-0.82105 -3.66845 2.04529 182 174 168
-0.83134 -3.67111 2.04679 182 173 178
-0.84161 -3.67376 2.04828 182 171 180
-0.85188 -3.67641 2.04978 183 172 180
-0.86213 -3.67906 2.05127 183 170 170
-0.87236 -3.68170 2.05276 182 170 171
-0.88259 -3.68434 2.05425 181 169 179
-0.89280 -3.68698 2.05573 182 167 165
-0.90300 -3.68961 2.05722 180 165 166
-0.80122 -3.64926 2.03001 185 172 178
-0.81149 -3.65193 2.03151 184 173 181
-0.82175 -3.65458 2.03301 182 173 174
-0.83200 -3.65724 2.03451 183 172 180
-0.84223 -3.65989 2.03601 183 170 179
-0.85246 -3.66254 2.03750 184 170 176
-0.86267 -3.66518 2.03900 183 171 173
-0.87286 -3.66783 2.04049 182 171 175
-0.88305 -3.67046 2.04198 181 170 174
-0.89322 -3.67310 2.04347 184 168 162
-0.90338 -3.67573 2.04496 181 167 168
-0.81223 -3.63817 2.01933 185 173 182
-0.82245 -3.64083 2.02083 182 173 177
-0.83266 -3.64348 2.02233 184 171 181
-0.84285 -3.64613 2.02383 184 170 179
-0.85303 -3.64878 2.02533 183 170 176
-0.86320 -3.65142 2.02682 182 170 177
-0.87336 -3.65406 2.02832 183 170 180
-0.88350 -3.65670 2.02981 183 170 178
-0.89363 -3.65933 2.03130 184 169 176
-0.90375 -3.66196 2.03279 182 169 175
-0.82315 -3.62718 2.00875 185 175 177
-0.83331 -3.62983 2.01025 185 173 177
-0.84346 -3.63248 2.01175 184 172 177
-0.85360 -3.63513 2.01325 184 172 173
-0.86373 -3.63777 2.01475 183 170 173
-0.87385 -3.64040 2.01624 184 169 175
-0.88395 -3.64304 2.01774 184 170 177
-0.89404 -3.64567 2.01923 186 170 180
-0.90412 -3.64830 2.02072 183 170 180
-0.84407 -3.61894 1.99977 184 175 174
-0.85417 -3.62158 2.00127 185 174 172
-0.86426 -3.62422 2.00276 184 171 175
-0.87433 -3.62685 2.00426 182 170 177
-0.88440 -3.62949 2.00576 183 169 179
-0.89445 -3.63212 2.00725 185 171 179
-0.90449 -3.63474 2.00874 183 169 182
-0.87481 -3.61341 1.99237 182 172 181
-0.88484 -3.61604 1.99387 182 171 181
-0.89485 -3.61867 1.99536 184 170 174
-0.90485 -3.62129 1.99686 183 169 178
-0.88528 -3.60270 1.98208 183 172 180
-0.89525 -3.60533 1.98357 186 172 177
-0.90521 -3.60795 1.98507 184 170 179
-0.90557 -3.59471 1.97337 184 171 177
1.44989 -2.53055 1.37768 162 141 136
1.46262 -2.53104 1.36384 165 142 137
1.45484 -2.53874 1.36485 164 145 136
1.47539 -2.53153 1.34994 165 144 140
1.46762 -2.53925 1.35093 167 145 131
1.45983 -2.54699 1.35193 167 146 134
1.49598 -2.52432 1.33500 164 143 136
1.48822 -2.53203 1.33598 166 145 132
1.48045 -2.53977 1.33696 168 146 139
1.47266 -2.54752 1.33794 169 147 134
1.46485 -2.55529 1.33893 168 147 137
1.51660 -2.51709 1.32005 164 142 132
1.50886 -2.52480 1.32101 166 144 134
1.50110 -2.53253 1.32197 166 146 137
1.49333 -2.54028 1.32294 168 146 134
1.48554 -2.54805 1.32390 170 147 136
1.47773 -2.55584 1.32487 170 146 136
1.46990 -2.56365 1.32584 169 147 143
1.55263 -2.49448 1.30319 164 141 134
1.54495 -2.50215 1.30413 158 135 120
1.53725 -2.50984 1.30507 162 138 132
1.52953 -2.51755 1.30601 164 141 131
1.52179 -2.52528 1.30696 162 144 134
1.51404 -2.53303 1.30790 165 146 137
1.50626 -2.54080 1.30885 167 145 136
1.49847 -2.54859 1.30981 168 145 138
1.49066 -2.55639 1.31076 168 147 141
1.48283 -2.56421 1.31172 169 147 138
1.47498 -2.57206 1.31268 170 147 140
1.56561 -2.49490 1.28914 154 129 120
1.55793 -2.50259 1.29007 157 134 127
1.55023 -2.51030 1.29099 159 136 123
1.54251 -2.51803 1.29192 161 141 131
1.53477 -2.52577 1.29285 163 143 129
1.52702 -2.53354 1.29378 165 145 132
1.51925 -2.54132 1.29472 166 145 133
1.51145 -2.54912 1.29565 167 146 130
1.50364 -2.55694 1.29659 168 146 135
1.49581 -2.56478 1.29753 169 148 138
1.48796 -2.57264 1.29848 170 148 137
1.48009 -2.58052 1.29942 173 149 137
1.47221 -2.58842 1.30037 172 148 135
1.57864 -2.49533 1.27504 152 132 124
1.57096 -2.50303 1.27595 155 132 131
1.56326 -2.51076 1.27686 160 135 128
1.55555 -2.51850 1.27777 159 137 129
1.54781 -2.52626 1.27869 161 141 134
1.54005 -2.53404 1.27960 163 144 128
1.53228 -2.54184 1.28052 168 144 128
1.52449 -2.54966 1.28144 167 144 129
1.51668 -2.55750 1.28237 166 144 129
1.50885 -2.56535 1.28329 167 146 134
1.50100 -2.57323 1.28422 169 147 137
1.49313 -2.58112 1.28515 170 148 141
1.48524 -2.58904 1.28608 172 149 141
1.47733 -2.59697 1.28702 171 148 137
1.59173 -2.49575 1.26088 158 139 126
1.58405 -2.50347 1.26177 154 137 129
1.57635 -2.51122 1.26267 158 138 129
1.56863 -2.51897 1.26357 161 137 127
1.56090 -2.52675 1.26446 160 138 125
1.55314 -2.53455 1.26537 161 140 131
1.54537 -2.54237 1.26627 163 143 130
1.53758 -2.55020 1.26718 166 144 129
1.52977 -2.55805 1.26808 165 144 130
1.52194 -2.56593 1.26899 165 144 133
1.51409 -2.57382 1.26991 166 145 136
1.50622 -2.58173 1.27082 168 146 140
1.49833 -2.58966 1.27174 170 147 143
1.49042 -2.59761 1.27266 172 149 141
1.48250 -2.60558 1.27358 171 149 136
1.60486 -2.49618 1.24666 160 138 127
1.59718 -2.50392 1.24754 159 140 128
1.58949 -2.51168 1.24842 158 139 132
1.58177 -2.51945 1.24930 159 139 127
1.57404 -2.52725 1.25019 161 138 128
1.56628 -2.53506 1.25107 159 137 128
1.55851 -2.54289 1.25196 160 138 133
1.55072 -2.55074 1.25285 162 141 131
1.54291 -2.55861 1.25374 165 143 126
1.53508 -2.56650 1.25464 163 143 126
1.52723 -2.57441 1.25554 165 145 136
1.51936 -2.58234 1.25644 167 145 139
1.51147 -2.59029 1.25734 169 146 142
1.50356 -2.59825 1.25824 170 147 143
1.49564 -2.60624 1.25915 172 151 142
1.48769 -2.61425 1.26005 173 151 136
1.63336 -2.48116 1.23067 157 135 136
1.62571 -2.48888 1.23153 160 135 134
1.61805 -2.49661 1.23239 160 136 132
1.61038 -2.50437 1.23325 159 138 131
1.60268 -2.51214 1.23412 159 138 128
1.59496 -2.51993 1.23498 159 139 131
1.58723 -2.52774 1.23585 161 138 128
1.57947 -2.53557 1.23672 162 138 128
1.57170 -2.54342 1.23760 161 139 132
1.56391 -2.55129 1.23847 161 140 135
1.55610 -2.55917 1.23935 161 141 133
1.54827 -2.56708 1.24023 165 142 127
1.54042 -2.57500 1.24111 165 143 126
1.53255 -2.58295 1.24199 167 146 137
1.52467 -2.59091 1.24288 168 146 143
1.51676 -2.59890 1.24376 169 147 141
1.50883 -2.60690 1.24465 170 148 139
1.50089 -2.61492 1.24555 172 152 140
1.49292 -2.62297 1.24644 172 153 136
1.64660 -2.48156 1.21638 158 139 138
1.63896 -2.48930 1.21722 159 137 135
1.63130 -2.49705 1.21806 160 137 133
1.62362 -2.50482 1.21891 160 138 134
1.61592 -2.51260 1.21976 159 139 138
1.60821 -2.52041 1.22061 159 139 128
1.60047 -2.52824 1.22146 159 139 129
1.59272 -2.53608 1.22231 160 137 127
1.58495 -2.54395 1.22317 162 138 125
1.57716 -2.55183 1.22403 162 139 133
1.56935 -2.55974 1.22489 162 140 138
1.56152 -2.56766 1.22575 160 141 134
1.55367 -2.57560 1.22662 163 141 131
1.54580 -2.58356 1.22749 166 142 130
1.53791 -2.59154 1.22836 167 146 135
1.53001 -2.59955 1.22923 168 148 141
1.52208 -2.60757 1.23010 170 149 138
1.51414 -2.61561 1.23098 173 148 137
1.50617 -2.62367 1.23186 173 151 136
1.49819 -2.63175 1.23274 172 152 135
1.65989 -2.48197 1.20202 164 143 136
1.65225 -2.48971 1.20285 162 141 138
1.64459 -2.49748 1.20368 161 139 133
1.63691 -2.50527 1.20451 161 138 133
1.62922 -2.51307 1.20534 160 139 132
1.62150 -2.52089 1.20617 160 138 130
1.61377 -2.52874 1.20701 160 138 130
1.60602 -2.53660 1.20785 161 138 133
1.59825 -2.54448 1.20869 160 138 132
1.59046 -2.55238 1.20953 161 137 128
1.58265 -2.56030 1.21038 163 139 132
1.57482 -2.56824 1.21122 164 140 132
1.56697 -2.57620 1.21207 162 142 133
1.55910 -2.58418 1.21292 163 141 133
1.55122 -2.59218 1.21378 165 140 132
1.54331 -2.60020 1.21463 166 144 132
1.53539 -2.60823 1.21549 167 148 138
1.52744 -2.61629 1.21635 169 150 139
1.51947 -2.62437 1.21721 173 147 139
1.51149 -2.63247 1.21807 173 151 135
1.50349 -2.64058 1.21894 172 152 135
1.67324 -2.48237 1.18761 162 141 135
1.66560 -2.49013 1.18842 163 143 137
1.65794 -2.49792 1.18923 164 142 139
1.65026 -2.50572 1.19005 162 140 131
1.64257 -2.51354 1.19086 160 138 128
1.63486 -2.52138 1.19168 159 138 131
1.62712 -2.52924 1.19250 161 138 129
1.61937 -2.53712 1.19332 161 137 131
1.61160 -2.54502 1.19415 161 138 131
1.60381 -2.55293 1.19497 158 139 125
1.59600 -2.56087 1.19580 159 137 131
1.58817 -2.56883 1.19663 163 138 133
1.58033 -2.57680 1.19747 165 140 130
1.57246 -2.58480 1.19830 164 143 130
1.56457 -2.59281 1.19914 163 141 132
1.55667 -2.60085 1.19998 164 141 134
1.54874 -2.60890 1.20082 165 144 130
1.54080 -2.61698 1.20166 167 148 134
1.53283 -2.62507 1.20251 169 149 138
1.52485 -2.63319 1.20335 172 148 138
1.51684 -2.64132 1.20420 172 151 134
1.50882 -2.64948 1.20506 172 151 136
1.50078 -2.65766 1.20591 172 150 137
1.67900 -2.49055 1.17393 162 142 137
1.67134 -2.49835 1.17473 162 142 139
1.66367 -2.50617 1.17553 165 142 144
1.65597 -2.51401 1.17633 163 141 136
1.64826 -2.52187 1.17713 159 139 131
1.64053 -2.52974 1.17793 160 137 133
1.63278 -2.53764 1.17874 162 137 133
1.62501 -2.54555 1.17955 162 136 135
1.61722 -2.55349 1.18036 161 138 137
1.60941 -2.56144 1.18117 158 139 124
1.60158 -2.56941 1.18199 160 137 130
1.59374 -2.57741 1.18280 163 137 136
1.58587 -2.58542 1.18362 165 141 135
1.57798 -2.59345 1.18444 164 143 134
1.57008 -2.60150 1.18526 164 141 130
1.56215 -2.60958 1.18609 163 142 129
1.55421 -2.61767 1.18691 165 144 130
1.54625 -2.62578 1.18774 167 146 132
1.53826 -2.63391 1.18857 169 147 134
1.53026 -2.64207 1.18941 171 147 134
1.52223 -2.65024 1.19024 172 150 135
1.51419 -2.65843 1.19108 173 151 140
1.50612 -2.66665 1.19192 174 151 143
1.49804 -2.67488 1.19276 172 146 139
1.68480 -2.49879 1.16017 163 142 135
1.67713 -2.50663 1.16095 162 141 136
1.66943 -2.51448 1.16173 162 142 142
1.66172 -2.52236 1.16252 162 140 139
1.65399 -2.53025 1.16331 160 139 132
1.64624 -2.53816 1.16410 161 138 128
1.63847 -2.54609 1.16489 163 138 132
1.63068 -2.55404 1.16568 161 137 133
1.62287 -2.56201 1.16648 160 137 137
1.61505 -2.57000 1.16728 160 138 129
1.60720 -2.57801 1.16808 161 137 134
1.59934 -2.58604 1.16888 162 138 143
1.59145 -2.59409 1.16968 163 141 138
1.58355 -2.60216 1.17049 166 142 136
1.57562 -2.61025 1.17130 165 140 129
1.56768 -2.61836 1.17211 163 141 126
1.55971 -2.62649 1.17292 165 143 131
1.55173 -2.63464 1.17373 167 144 132
1.54373 -2.64281 1.17455 169 145 134
1.53570 -2.65100 1.17537 171 146 133
1.52766 -2.65922 1.17619 172 148 136
1.51959 -2.66745 1.17701 176 150 141
1.51151 -2.67570 1.17783 175 149 143
1.50340 -2.68397 1.17866 173 146 138
1.69064 -2.50709 1.14631 164 141 135
1.68295 -2.51496 1.14708 162 141 134
1.67523 -2.52285 1.14785 162 142 138
1.66750 -2.53075 1.14862 164 141 136
1.65976 -2.53868 1.14939 162 140 130
1.65199 -2.54663 1.15017 160 140 125
1.64420 -2.55460 1.15095 161 140 130
1.63639 -2.56259 1.15173 160 138 128
1.62857 -2.57059 1.15251 160 137 130
1.62072 -2.57862 1.15329 162 137 128
1.61286 -2.58667 1.15408 162 137 137
1.60497 -2.59473 1.15486 161 139 144
1.59707 -2.60282 1.15565 161 142 139
1.58914 -2.61093 1.15644 165 142 135
1.58120 -2.61906 1.15724 165 141 130
1.57324 -2.62720 1.15803 164 140 131
1.56525 -2.63537 1.15883 165 142 135
1.55725 -2.64356 1.15963 166 143 130
1.54923 -2.65177 1.16043 168 146 133
1.54118 -2.66000 1.16123 170 147 134
1.53312 -2.66825 1.16204 172 148 137
1.52503 -2.67652 1.16284 174 148 139
1.51693 -2.68481 1.16365 174 148 139
1.50881 -2.69313 1.16446 173 146 135
1.50066 -2.70146 1.16528 171 144 130
1.68880 -2.52334 1.13312 162 142 135
1.68107 -2.53126 1.13388 163 142 137
1.67333 -2.53921 1.13463 166 141 135
1.66556 -2.54717 1.13539 163 140 131
1.65777 -2.55516 1.13615 161 140 129
1.64997 -2.56316 1.13691 160 141 128
1.64214 -2.57119 1.13768 159 139 128
1.63430 -2.57923 1.13845 159 136 126
1.62643 -2.58730 1.13921 161 136 125
1.61855 -2.59538 1.13998 161 137 134
1.61065 -2.60349 1.14076 161 138 139
1.60272 -2.61161 1.14153 162 140 138
1.59478 -2.61976 1.14231 164 143 133
1.58682 -2.62792 1.14308 165 142 129
1.57883 -2.63611 1.14386 165 140 128
1.57083 -2.64431 1.14465 166 141 133
1.56281 -2.65254 1.14543 166 143 128
1.55476 -2.66079 1.14622 167 146 132
1.54670 -2.66906 1.14700 170 149 137
1.53862 -2.67735 1.14779 171 149 141
1.53051 -2.68566 1.14858 171 147 136
1.52239 -2.69399 1.14938 172 148 137
1.51424 -2.70234 1.15017 171 146 135
1.50608 -2.71071 1.15097 173 145 132
1.49789 -2.71911 1.15177 172 145 130
1.69470 -2.53178 1.11907 164 143 137
1.68695 -2.53974 1.11981 163 141 138
1.67919 -2.54772 1.12055 166 140 135
1.67140 -2.55572 1.12130 163 139 132
1.66360 -2.56374 1.12204 161 139 132
1.65577 -2.57178 1.12279 159 139 131
1.64793 -2.57985 1.12354 158 138 131
1.64006 -2.58793 1.12429 158 135 127
1.63218 -2.59603 1.12504 158 134 125
1.62428 -2.60415 1.12580 160 137 132
1.61636 -2.61229 1.12655 161 137 135
1.60841 -2.62046 1.12731 162 138 134
1.60045 -2.62864 1.12807 165 143 131
1.59247 -2.63684 1.12884 167 143 130
1.58447 -2.64507 1.12960 166 142 126
1.57644 -2.65331 1.13037 166 142 130
1.56840 -2.66158 1.13114 164 142 131
1.56034 -2.66987 1.13191 166 143 134
1.55225 -2.67817 1.13268 170 146 140
1.54415 -2.68650 1.13345 171 147 142
1.53603 -2.69485 1.13423 171 146 135
1.52788 -2.70322 1.13501 171 147 137
1.51972 -2.71162 1.13579 170 148 136
1.51153 -2.72003 1.13657 173 147 136
1.50332 -2.72847 1.13735 173 147 138
1.49509 -2.73692 1.13814 167 142 129
1.69287 -2.54827 1.10565 163 140 138
1.68509 -2.55629 1.10638 166 139 132
1.67728 -2.56432 1.10711 165 139 132
1.66946 -2.57238 1.10784 163 137 132
1.66161 -2.58046 1.10857 160 136 132
1.65375 -2.58856 1.10930 158 137 131
1.64587 -2.59668 1.11004 157 135 128
1.63797 -2.60482 1.11078 156 134 128
1.63005 -2.61298 1.11152 159 136 131
1.62211 -2.62116 1.11226 161 137 132
1.61414 -2.62936 1.11300 162 139 132
1.60616 -2.63758 1.11375 164 142 130
1.59816 -2.64583 1.11450 167 143 137
1.59014 -2.65409 1.11524 167 141 132
1.58210 -2.66237 1.11599 166 141 131
1.57403 -2.67068 1.11675 166 141 131
1.56595 -2.67901 1.11750 166 141 133
1.55785 -2.68735 1.11826 170 143 137
1.54972 -2.69572 1.11902 171 145 136
1.54158 -2.70411 1.11978 171 145 135
1.53341 -2.71252 1.12054 171 146 137
1.52523 -2.72095 1.12130 171 148 136
1.51702 -2.72941 1.12207 172 147 139
1.50879 -2.73788 1.12284 172 148 142
1.50054 -2.74638 1.12361 170 144 128
1.69102 -2.56491 1.09211 164 139 130
1.68320 -2.57299 1.09283 165 140 131
1.67536 -2.58108 1.09354 166 136 130
1.66750 -2.58920 1.09426 162 135 130
1.65962 -2.59734 1.09498 160 137 126
1.65171 -2.60549 1.09570 158 136 119
1.64379 -2.61367 1.09642 157 136 127
1.63585 -2.62187 1.09714 160 137 129
1.62789 -2.63009 1.09787 164 139 129
1.61991 -2.63833 1.09860 164 140 130
1.61191 -2.64659 1.09933 164 140 129
1.60389 -2.65487 1.10006 166 142 141
1.59585 -2.66317 1.10079 167 142 136
1.58779 -2.67150 1.10153 166 141 133
1.57970 -2.67984 1.10226 166 140 130
1.57160 -2.68821 1.10300 166 141 130
1.56348 -2.69659 1.10374 168 143 132
1.55533 -2.70500 1.10448 171 145 130
1.54717 -2.71343 1.10523 171 145 134
1.53898 -2.72188 1.10598 170 146 136
1.53077 -2.73036 1.10672 172 148 135
1.52255 -2.73885 1.10747 172 148 140
1.51430 -2.74737 1.10823 173 148 140
1.50603 -2.75591 1.10898 171 146 132
1.49774 -2.76447 1.10974 159 137 133
1.69700 -2.57359 1.07775 163 139 133
1.68916 -2.58170 1.07845 164 140 129
1.68130 -2.58984 1.07915 165 137 128
1.67342 -2.59799 1.07985 162 136 128
1.66552 -2.60617 1.08055 161 136 123
1.65760 -2.61436 1.08126 160 137 116
1.64966 -2.62258 1.08196 160 140 124
1.64170 -2.63082 1.08267 161 139 127
1.63372 -2.63907 1.08338 165 139 126
1.62572 -2.64735 1.08409 165 140 128
1.61770 -2.65565 1.08481 165 140 130
1.60966 -2.66397 1.08552 166 143 137
1.60160 -2.67232 1.08624 167 145 135
1.59351 -2.68068 1.08696 165 142 136
1.58541 -2.68906 1.08768 164 141 132
1.57729 -2.69747 1.08840 165 142 131
1.56914 -2.70590 1.08913 167 144 132
1.56098 -2.71434 1.08985 170 146 134
1.55279 -2.72282 1.09058 170 146 139
1.54459 -2.73131 1.09131 170 146 138
1.53636 -2.73982 1.09204 171 147 137
1.52811 -2.74836 1.09278 172 148 142
1.51984 -2.75692 1.09351 173 149 139
1.51155 -2.76550 1.09425 172 148 135
1.50324 -2.77410 1.09499 163 141 135
1.70302 -2.58233 1.06329 164 139 135
1.69516 -2.59048 1.06398 164 141 130
1.68728 -2.59865 1.06466 164 140 131
1.67938 -2.60684 1.06534 161 137 131
1.67146 -2.61506 1.06603 159 136 128
1.66352 -2.62329 1.06672 160 138 124
1.65556 -2.63155 1.06741 160 141 127
1.64758 -2.63982 1.06810 160 140 132
1.63958 -2.64812 1.06880 163 139 127
1.63156 -2.65644 1.06949 164 140 126
1.62352 -2.66478 1.07019 163 141 132
1.61546 -2.67314 1.07089 164 144 138
1.60738 -2.68152 1.07159 166 146 136
1.59928 -2.68992 1.07229 166 145 140
1.59116 -2.69835 1.07300 164 141 134
1.58301 -2.70679 1.07370 164 141 131
1.57485 -2.71526 1.07441 166 144 133
1.56666 -2.72375 1.07512 168 146 138
1.55846 -2.73226 1.07583 169 147 143
1.55023 -2.74080 1.07655 170 146 140
1.54198 -2.74935 1.07726 170 146 139
1.53371 -2.75793 1.07798 172 148 141
1.52542 -2.76653 1.07870 173 150 140
1.51711 -2.77515 1.07942 173 148 140
1.50878 -2.78379 1.08014 167 144 135
1.70120 -2.59931 1.04941 163 140 132
1.69330 -2.60752 1.05007 164 140 136
1.68538 -2.61576 1.05074 162 137 133
1.67744 -2.62401 1.05141 158 136 134
1.66948 -2.63228 1.05209 160 139 132
1.66151 -2.64058 1.05276 160 140 129
1.65351 -2.64889 1.05344 160 140 134
1.64549 -2.65723 1.05411 162 139 129
1.63745 -2.66559 1.05479 162 140 127
1.62939 -2.67396 1.05547 162 140 134
1.62131 -2.68237 1.05616 164 142 137
1.61321 -2.69079 1.05684 167 144 138
1.60509 -2.69923 1.05753 167 145 143
1.59694 -2.70770 1.05821 164 142 137
1.58878 -2.71618 1.05890 164 140 133
1.58059 -2.72469 1.05960 165 142 134
1.57239 -2.73322 1.06029 166 144 136
1.56416 -2.74178 1.06098 168 145 140
1.55591 -2.75035 1.06168 168 146 139
1.54765 -2.75895 1.06238 169 146 140
1.53935 -2.76757 1.06308 170 146 142
1.53104 -2.77621 1.06378 172 148 142
1.52271 -2.78487 1.06449 174 149 143
1.51435 -2.79356 1.06519 172 147 136
1.69936 -2.61646 1.03539 164 140 137
1.69142 -2.62473 1.03604 162 139 130
1.68346 -2.63302 1.03670 159 137 135
1.67549 -2.64133 1.03735 160 138 135
1.66749 -2.64967 1.03801 161 139 129
1.65947 -2.65802 1.03867 162 139 130
1.65143 -2.66640 1.03933 162 140 130
1.64337 -2.67479 1.03999 160 140 132
1.63529 -2.68321 1.04066 161 140 136
1.62719 -2.69166 1.04132 164 141 132
1.61907 -2.70012 1.04199 167 143 137
1.61093 -2.70860 1.04266 167 144 144
1.60277 -2.71711 1.04333 166 142 136
1.59458 -2.72564 1.04401 165 140 131
1.58638 -2.73419 1.04468 164 140 133
1.57815 -2.74276 1.04536 166 142 133
1.56991 -2.75135 1.04603 168 144 138
1.56164 -2.75997 1.04671 167 146 137
1.55335 -2.76861 1.04740 168 146 137
1.54503 -2.77727 1.04808 169 144 139
1.53670 -2.78595 1.04877 170 144 139
1.52835 -2.79466 1.04945 172 147 139
1.51997 -2.80339 1.05014 171 149 138
1.70546 -2.62545 1.02061 163 140 136
1.69750 -2.63376 1.02124 162 141 129
1.68953 -2.64209 1.02188 160 138 135
1.68153 -2.65044 1.02252 160 137 135
1.67351 -2.65882 1.02316 161 138 133
1.66548 -2.66721 1.02380 163 138 132
1.65742 -2.67563 1.02445 161 139 133
1.64934 -2.68407 1.02509 160 140 135
1.64124 -2.69253 1.02574 161 141 137
1.63312 -2.70101 1.02639 164 142 132
1.62498 -2.70951 1.02704 166 143 139
1.61682 -2.71804 1.02769 167 144 144
1.60863 -2.72658 1.02835 167 144 135
1.60043 -2.73515 1.02900 166 141 130
1.59220 -2.74375 1.02966 164 140 132
1.58396 -2.75236 1.03032 167 140 134
1.57569 -2.76100 1.03098 168 142 136
1.56740 -2.76965 1.03164 167 144 133
1.55909 -2.77834 1.03231 167 145 132
1.55075 -2.78704 1.03298 168 144 135
1.54240 -2.79577 1.03364 170 144 135
1.53402 -2.80452 1.03431 170 145 137
1.52562 -2.81329 1.03498 170 148 141
1.71160 -2.63450 1.00572 163 140 132
1.70363 -2.64285 1.00634 162 141 130
1.69563 -2.65122 1.00696 161 139 136
1.68762 -2.65962 1.00759 160 137 133
1.67958 -2.66803 1.00821 160 137 132
1.67152 -2.67647 1.00884 161 137 134
1.66344 -2.68492 1.00946 160 138 136
1.65535 -2.69340 1.01009 159 139 133
1.64723 -2.70190 1.01072 160 140 131
1.63909 -2.71043 1.01135 164 140 132
1.63092 -2.71897 1.01199 166 142 136
1.62274 -2.72754 1.01262 168 143 140
1.61454 -2.73613 1.01326 168 145 136
1.60631 -2.74474 1.01390 166 142 137
1.59807 -2.75337 1.01454 165 141 135
1.58980 -2.76203 1.01518 166 140 135
1.58151 -2.77071 1.01582 167 141 135
1.57320 -2.77941 1.01647 168 143 134
1.56487 -2.78813 1.01712 168 144 130
1.55651 -2.79688 1.01777 168 143 135
1.54814 -2.80565 1.01842 169 143 139
1.53974 -2.81444 1.01907 168 145 136
1.53132 -2.82326 1.01972 168 146 137
1.70979 -2.65201 0.99134 162 142 130
1.70178 -2.66042 0.99195 161 140 133
1.69374 -2.66885 0.99255 160 137 131
1.68569 -2.67731 0.99316 159 136 127
1.67761 -2.68578 0.99377 161 138 133
1.66951 -2.69428 0.99438 161 138 134
1.66139 -2.70280 0.99499 158 137 130
1.65325 -2.71134 0.99560 159 137 126
1.64509 -2.71991 0.99622 163 138 131
1.63691 -2.72849 0.99683 164 141 134
1.62871 -2.73710 0.99745 166 143 137
1.62048 -2.74573 0.99807 167 145 139
1.61224 -2.75439 0.99869 167 143 142
1.60397 -2.76306 0.99931 165 141 136
1.59568 -2.77176 0.99994 164 141 135
1.58737 -2.78048 1.00056 164 141 135
1.57904 -2.78923 1.00119 166 144 137
1.57069 -2.79800 1.00182 167 144 135
1.56231 -2.80678 1.00245 167 143 138
1.55391 -2.81560 1.00308 167 143 137
1.54549 -2.82443 1.00372 166 143 133
1.53705 -2.83329 1.00435 165 144 137
1.71600 -2.66123 0.97624 161 142 133
1.70796 -2.66968 0.97683 162 141 137
1.69991 -2.67815 0.97741 161 138 135
1.69183 -2.68665 0.97800 159 137 131
1.68374 -2.69516 0.97859 162 138 133
1.67562 -2.70370 0.97919 162 138 133
1.66748 -2.71226 0.97978 158 137 129
1.65932 -2.72085 0.98038 158 134 125
1.65114 -2.72945 0.98097 163 137 129
1.64294 -2.73808 0.98157 163 141 133
1.63472 -2.74673 0.98217 165 143 138
1.62647 -2.75541 0.98277 168 144 140
1.61821 -2.76410 0.98338 168 143 141
1.60992 -2.77282 0.98398 165 141 135
1.60161 -2.78156 0.98459 163 141 134
1.59328 -2.79033 0.98520 164 141 136
1.58492 -2.79912 0.98580 165 143 136
1.57655 -2.80793 0.98642 165 143 137
1.56815 -2.81676 0.98703 165 143 141
1.55973 -2.82562 0.98764 164 141 137
1.55129 -2.83450 0.98826 164 141 134
1.54283 -2.84340 0.98888 162 140 137
1.72225 -2.67051 0.96103 162 140 134
1.71419 -2.67900 0.96160 162 140 140
1.70612 -2.68751 0.96217 161 138 135
1.69802 -2.69605 0.96274 160 137 130
1.68991 -2.70461 0.96332 161 138 133
1.68177 -2.71319 0.96389 161 137 137
1.67361 -2.72179 0.96447 160 136 130
1.66543 -2.73042 0.96505 159 135 128
1.65723 -2.73907 0.96562 163 137 132
1.64901 -2.74774 0.96620 163 140 136
1.64077 -2.75643 0.96679 164 143 142
1.63250 -2.76515 0.96737 166 144 143
1.62421 -2.77389 0.96796 168 144 145
1.61590 -2.78265 0.96854 165 140 139
1.60757 -2.79143 0.96913 163 140 134
1.59922 -2.80024 0.96972 163 139 135
1.59085 -2.80907 0.97031 165 141 134
1.58245 -2.81793 0.97090 165 141 136
1.57403 -2.82681 0.97150 164 141 141
1.56559 -2.83571 0.97209 164 140 138
1.55713 -2.84463 0.97269 163 139 134
1.54864 -2.85358 0.97329 161 137 135
1.54013 -2.86255 0.97389 159 134 137
1.72047 -2.68838 0.94627 163 138 137
1.71237 -2.69694 0.94683 163 137 132
1.70426 -2.70552 0.94738 162 136 128
1.69612 -2.71412 0.94793 161 136 131
1.68796 -2.72274 0.94849 162 136 139
1.67979 -2.73139 0.94905 161 137 130
1.67159 -2.74006 0.94961 160 137 125
1.66336 -2.74875 0.95017 161 136 132
1.65512 -2.75746 0.95073 163 138 136
1.64686 -2.76620 0.95130 165 141 139
1.63857 -2.77496 0.95186 165 144 142
1.63026 -2.78374 0.95243 167 146 148
1.62193 -2.79254 0.95300 165 143 140
1.61358 -2.80137 0.95357 162 140 133
1.60521 -2.81023 0.95414 162 140 128
1.59681 -2.81910 0.95471 165 140 128
1.58839 -2.82800 0.95528 165 140 133
1.57995 -2.83692 0.95586 164 139 139
1.57149 -2.84587 0.95644 163 138 139
1.56300 -2.85484 0.95702 161 138 136
1.55450 -2.86383 0.95760 159 136 134
1.54596 -2.87285 0.95818 156 135 135
1.53741 -2.88189 0.95876 153 133 137
1.72678 -2.69783 0.93084 164 139 138
1.71867 -2.70643 0.93137 163 138 133
1.71053 -2.71505 0.93191 162 135 127
1.70238 -2.72370 0.93245 161 134 126
1.69420 -2.73236 0.93298 162 135 132
1.68600 -2.74105 0.93352 162 138 126
1.67778 -2.74976 0.93406 161 138 119
1.66954 -2.75849 0.93461 161 137 129
1.66128 -2.76725 0.93515 161 138 133
1.65299 -2.77603 0.93570 164 141 135
1.64468 -2.78483 0.93624 165 143 139
1.63635 -2.79366 0.93679 166 145 144
1.62800 -2.80251 0.93734 165 146 140
1.61963 -2.81138 0.93789 161 140 138
1.61124 -2.82028 0.93844 161 140 134
1.60282 -2.82920 0.93900 163 140 128
1.59438 -2.83814 0.93955 163 140 128
1.58592 -2.84711 0.94011 162 140 133
1.57743 -2.85610 0.94067 161 137 137
1.56892 -2.86512 0.94123 160 136 140
1.56039 -2.87416 0.94179 158 135 138
1.55184 -2.88322 0.94235 156 136 138
1.54326 -2.89231 0.94292 154 135 140
1.53466 -2.90142 0.94348 154 136 141
1.72501 -2.71599 0.91581 161 139 135
1.71685 -2.72465 0.91633 161 137 131
1.70868 -2.73334 0.91685 160 134 130
1.70048 -2.74205 0.91737 161 136 131
1.69226 -2.75078 0.91789 162 137 128
1.68402 -2.75953 0.91841 161 138 124
1.67576 -2.76831 0.91894 160 137 128
1.66747 -2.77711 0.91946 159 137 128
1.65917 -2.78593 0.91999 160 139 132
1.65084 -2.79478 0.92052 163 142 138
1.64249 -2.80365 0.92104 164 144 145
1.63412 -2.81254 0.92158 164 145 142
1.62572 -2.82146 0.92211 161 142 139
1.61731 -2.83040 0.92264 161 139 133
1.60887 -2.83937 0.92318 163 139 127
1.60040 -2.84836 0.92371 163 139 126
1.59192 -2.85737 0.92425 161 139 128
1.58341 -2.86641 0.92479 161 138 132
1.57488 -2.87547 0.92533 161 136 135
1.56633 -2.88455 0.92587 159 135 135
1.55776 -2.89366 0.92642 156 135 140
1.54916 -2.90280 0.92696 154 135 141
1.54054 -2.91196 0.92751 154 136 139
1.53189 -2.92114 0.92805 155 136 138
1.73139 -2.72561 0.90015 162 139 136
1.72322 -2.73432 0.90064 162 137 134
1.71502 -2.74305 0.90114 161 137 133
1.70680 -2.75180 0.90165 160 138 133
1.69856 -2.76057 0.90215 161 138 131
1.69030 -2.76937 0.90265 161 137 127
1.68202 -2.77819 0.90316 160 136 131
1.67371 -2.78704 0.90366 158 133 131
1.66539 -2.79590 0.90417 159 136 134
1.65704 -2.80480 0.90468 163 140 137
1.64867 -2.81371 0.90519 165 143 141
1.64027 -2.82265 0.90570 164 144 141
1.63186 -2.83161 0.90621 163 143 141
1.62342 -2.84060 0.90673 162 140 136
1.61496 -2.84961 0.90724 163 140 131
1.60648 -2.85864 0.90776 162 139 131
1.59797 -2.86770 0.90828 160 139 133
1.58944 -2.87678 0.90880 160 138 134
1.58089 -2.88589 0.90932 161 136 134
1.57231 -2.89502 0.90984 160 135 135
1.56371 -2.90418 0.91036 158 134 137
1.55509 -2.91336 0.91089 156 134 136
1.54645 -2.92257 0.91142 155 135 137
1.53778 -2.93180 0.91194 156 135 137
1.52909 -2.94105 0.91247 155 134 137
1.72962 -2.74405 0.88485 161 136 136
1.72141 -2.75283 0.88533 162 137 136
1.71317 -2.76162 0.88581 160 139 132
1.70491 -2.77044 0.88629 160 139 136
1.69663 -2.77928 0.88678 161 138 133
1.68832 -2.78815 0.88726 160 137 136
1.68000 -2.79703 0.88775 158 133 136
1.67165 -2.80595 0.88824 159 136 136
1.66328 -2.81488 0.88873 162 139 139
1.65489 -2.82384 0.88922 163 142 138
1.64647 -2.83283 0.88971 164 144 141
1.63804 -2.84183 0.89020 165 143 146
1.62958 -2.85087 0.89070 163 140 139
1.62109 -2.85992 0.89119 162 139 134
1.61259 -2.86900 0.89169 161 138 135
1.60406 -2.87811 0.89219 159 137 139
1.59551 -2.88724 0.89269 160 138 138
1.58693 -2.89639 0.89319 159 137 136
1.57834 -2.90557 0.89369 158 136 137
1.56972 -2.91477 0.89420 157 135 137
1.56107 -2.92400 0.89470 155 133 133
1.55240 -2.93325 0.89521 156 134 132
1.54371 -2.94253 0.89572 157 135 135
1.53500 -2.95184 0.89623 158 134 137
1.73608 -2.75386 0.86894 160 137 136
1.72784 -2.76267 0.86940 163 137 137
1.71958 -2.77151 0.86987 162 139 125
1.71130 -2.78037 0.87033 161 139 132
1.70300 -2.78926 0.87079 160 139 132
1.69468 -2.79817 0.87126 160 139 130
1.68633 -2.80710 0.87173 161 137 131
1.67796 -2.81606 0.87220 161 136 134
1.66957 -2.82504 0.87266 162 137 143
1.66115 -2.83405 0.87314 162 141 141
1.65272 -2.84308 0.87361 163 142 139
1.64426 -2.85213 0.87408 166 143 140
1.63578 -2.86121 0.87456 163 141 136
1.62727 -2.87031 0.87503 161 138 133
1.61874 -2.87944 0.87551 160 138 132
1.61019 -2.88859 0.87599 160 137 137
1.60162 -2.89776 0.87647 159 137 138
1.59302 -2.90697 0.87695 158 137 137
1.58440 -2.91619 0.87743 158 136 138
1.57576 -2.92544 0.87791 156 136 140
1.56709 -2.93472 0.87840 155 136 137
1.55840 -2.94402 0.87889 156 136 137
1.54969 -2.95335 0.87937 158 136 139
1.54095 -2.96270 0.87986 159 137 144
1.73432 -2.77259 0.85337 160 137 134
1.72604 -2.78147 0.85381 162 138 129
1.71774 -2.79038 0.85425 160 138 131
1.70942 -2.79931 0.85470 160 140 130
1.70107 -2.80826 0.85514 162 140 129
1.69270 -2.81724 0.85559 161 139 130
1.68431 -2.82625 0.85604 161 137 132
1.67590 -2.83527 0.85649 163 139 136
1.66746 -2.84432 0.85694 162 139 136
1.65901 -2.85340 0.85739 163 141 138
1.65053 -2.86250 0.85784 163 142 141
1.64202 -2.87162 0.85830 162 142 140
1.63350 -2.88077 0.85875 160 139 138
1.62495 -2.88995 0.85921 160 138 138
1.61637 -2.89914 0.85967 160 136 138
1.60778 -2.90837 0.86013 159 135 137
1.59916 -2.91762 0.86059 159 135 135
1.59052 -2.92689 0.86105 160 136 139
1.58185 -2.93619 0.86151 160 138 143
1.57316 -2.94551 0.86198 157 138 143
1.56444 -2.95486 0.86244 157 137 141
1.55571 -2.96424 0.86291 157 138 141
1.54695 -2.97364 0.86338 158 140 143
1.74084 -2.78257 0.83721 159 138 133
1.73254 -2.79150 0.83764 161 137 130
1.72422 -2.80045 0.83806 160 138 130
1.71588 -2.80943 0.83848 161 139 129
1.70751 -2.81843 0.83891 162 140 127
1.69912 -2.82745 0.83934 162 140 128
1.69071 -2.83650 0.83977 162 139 132
1.68228 -2.84558 0.84020 164 138 134
1.67382 -2.85467 0.84063 163 138 134
1.66534 -2.86379 0.84106 162 138 138
1.65684 -2.87294 0.84149 162 139 142
1.64831 -2.88211 0.84192 162 141 145
1.63976 -2.89131 0.84236 160 140 140
1.63119 -2.90053 0.84280 160 137 136
1.62260 -2.90978 0.84323 158 136 135
1.61398 -2.91905 0.84367 158 135 132
1.60534 -2.92834 0.84411 158 134 132
1.59667 -2.93766 0.84455 160 136 136
1.58798 -2.94701 0.84499 161 139 138
1.57927 -2.95639 0.84544 159 140 139
1.57053 -2.96578 0.84588 158 138 140
1.56177 -2.97521 0.84633 159 139 141
1.55298 -2.98466 0.84678 161 140 142
1.54418 -2.99413 0.84722 160 141 142
1.74741 -2.79263 0.82095 160 138 133
1.73909 -2.80160 0.82135 160 138 132
1.73075 -2.81060 0.82175 160 138 133
1.72239 -2.81962 0.82216 160 138 130
1.71400 -2.82867 0.82256 160 139 128
1.70559 -2.83774 0.82297 161 140 127
1.69715 -2.84683 0.82338 162 138 130
1.68870 -2.85595 0.82379 161 137 135
1.68022 -2.86510 0.82420 162 138 139
1.67172 -2.87427 0.82461 162 137 137
1.66320 -2.88346 0.82502 162 139 135
1.65465 -2.89268 0.82543 162 141 137
1.64608 -2.90192 0.82585 161 141 135
1.63748 -2.91119 0.82626 162 136 132
1.62886 -2.92048 0.82668 160 135 131
1.62022 -2.92980 0.82710 159 134 132
1.61156 -2.93915 0.82751 158 135 133
1.60287 -2.94852 0.82793 158 137 131
1.59416 -2.95791 0.82836 159 140 126
1.58542 -2.96734 0.82878 160 140 129
1.57666 -2.97678 0.82920 160 138 136
1.56788 -2.98626 0.82963 161 138 139
1.55907 -2.99576 0.83005 163 139 141
1.55023 -3.00529 0.83048 164 140 142
1.74569 -2.81178 0.80495 161 137 133
1.73733 -2.82082 0.80533 160 136 132
1.72894 -2.82989 0.80571 160 137 129
1.72053 -2.83898 0.80610 161 138 129
1.71210 -2.84810 0.80648 161 138 125
1.70365 -2.85724 0.80687 162 138 128
1.69517 -2.86640 0.80726 161 138 135
1.68667 -2.87560 0.80765 161 139 138
1.67814 -2.88481 0.80804 162 138 135
1.66960 -2.89405 0.80843 163 139 129
1.66103 -2.90332 0.80882 164 141 133
1.65244 -2.91261 0.80921 162 140 137
1.64382 -2.92193 0.80961 160 137 133
1.63518 -2.93127 0.81000 158 136 131
1.62651 -2.94064 0.81040 157 134 133
1.61783 -2.95003 0.81080 156 134 134
1.60912 -2.95945 0.81120 156 137 131
1.60038 -2.96890 0.81160 160 140 130
1.59162 -2.97837 0.81200 161 141 134
1.58284 -2.98787 0.81240 161 139 136
1.57403 -2.99739 0.81280 162 138 133
1.56520 -3.00694 0.81320 163 139 132
1.55634 -3.01652 0.81361 165 140 137
1.75233 -2.82202 0.78843 160 138 133
1.74395 -2.83111 0.78879 161 136 133
1.73554 -2.84023 0.78915 162 137 131
1.72711 -2.84937 0.78952 163 137 129
1.71866 -2.85853 0.78988 162 137 131
1.71018 -2.86772 0.79025 163 137 135
1.70168 -2.87693 0.79061 161 138 141
1.69316 -2.88617 0.79098 159 139 135
1.68462 -2.89543 0.79135 160 140 133
1.67605 -2.90472 0.79172 161 139 132
1.66746 -2.91404 0.79209 164 140 133
1.65884 -2.92338 0.79246 164 139 133
1.65020 -2.93274 0.79283 161 137 133
1.64154 -2.94213 0.79321 157 135 132
1.63285 -2.95155 0.79358 156 135 132
1.62414 -2.96099 0.79396 156 134 131
1.61541 -2.97046 0.79433 157 134 127
1.60665 -2.97996 0.79471 160 137 130
1.59786 -2.98948 0.79509 161 139 138
1.58906 -2.99903 0.79547 161 139 136
1.58022 -3.00860 0.79585 161 139 134
1.57137 -3.01820 0.79623 161 140 135
1.56249 -3.02783 0.79662 162 140 138
1.75062 -2.84148 0.77213 159 137 138
1.74219 -2.85064 0.77247 161 138 133
1.73374 -2.85983 0.77281 162 138 130
1.72526 -2.86904 0.77316 160 137 135
1.71677 -2.87827 0.77350 160 136 136
1.70825 -2.88754 0.77385 159 137 138
1.69970 -2.89682 0.77419 159 138 134
1.69113 -2.90613 0.77454 160 139 132
1.68254 -2.91547 0.77489 161 138 135
1.67393 -2.92483 0.77524 162 139 133
1.66529 -2.93422 0.77559 161 140 129
1.65663 -2.94364 0.77594 160 138 130
1.64794 -2.95308 0.77629 157 136 130
1.63923 -2.96255 0.77664 157 135 127
1.63050 -2.97204 0.77699 156 134 128
1.62174 -2.98156 0.77735 157 133 130
1.61296 -2.99110 0.77770 160 136 134
1.60415 -3.00068 0.77806 162 140 137
1.59532 -3.01027 0.77842 162 140 138
1.58647 -3.01990 0.77878 161 139 140
1.57759 -3.02955 0.77914 159 140 140
1.56868 -3.03923 0.77950 159 140 139
1.75734 -2.85192 0.75535 159 137 132
1.74889 -2.86113 0.75567 160 138 132
1.74041 -2.87036 0.75599 161 137 132
1.73192 -2.87962 0.75631 160 137 134
1.72340 -2.88891 0.75663 160 137 133
1.71486 -2.89822 0.75696 161 137 132
1.70629 -2.90755 0.75728 162 137 130
1.69770 -2.91691 0.75761 161 137 130
