ply
format ascii 1.0
element face 0
property list uchar int vertex_indices
element vertex 1303
property float x
property float y
property float z
property uchar diffuse_red
property uchar diffuse_green
property uchar diffuse_blue
end_header
1.69922 -2.84201 0.85817 157 135 126
1.68904 -2.85027 0.85917 160 137 128
1.67885 -2.85855 0.86017 160 140 125
1.66864 -2.86684 0.86116 159 141 133
1.65842 -2.87514 0.86216 158 141 127
1.64818 -2.88346 0.86316 156 139 125
1.63793 -2.89179 0.86417 156 138 125
1.62766 -2.90013 0.86517 156 137 128
1.61737 -2.90848 0.86618 156 137 126
1.60707 -2.91685 0.86718 155 136 124
1.59675 -2.92523 0.86819 154 136 124
1.58642 -2.93362 0.86920 153 137 126
1.57607 -2.94203 0.87022 152 136 129
1.56570 -2.95045 0.87123 151 134 127
1.76735 -2.80243 0.83581 156 138 128
1.75724 -2.81065 0.83679 156 138 124
1.74712 -2.81888 0.83777 156 137 123
1.73698 -2.82713 0.83875 155 139 128
1.72683 -2.83539 0.83973 156 138 125
1.71666 -2.84366 0.84071 155 137 129
1.70648 -2.85194 0.84169 156 137 132
1.69628 -2.86024 0.84268 160 137 134
1.68606 -2.86855 0.84367 160 138 127
1.67583 -2.87687 0.84465 160 139 128
1.66559 -2.88521 0.84564 159 141 129
1.65532 -2.89356 0.84663 158 139 124
1.64504 -2.90192 0.84763 157 137 120
1.63475 -2.91029 0.84862 157 134 127
1.62444 -2.91868 0.84962 155 134 127
1.61411 -2.92708 0.85062 154 135 125
1.60377 -2.93549 0.85161 153 136 125
1.59341 -2.94392 0.85261 153 136 130
1.58303 -2.95236 0.85362 154 137 137
1.57264 -2.96081 0.85462 153 136 132
1.77480 -2.81223 0.81929 157 138 127
1.76467 -2.82048 0.82026 156 137 125
1.75453 -2.82875 0.82123 157 138 124
1.74437 -2.83702 0.82220 156 138 130
1.73419 -2.84531 0.82317 156 137 127
1.72400 -2.85362 0.82414 158 137 130
1.71379 -2.86194 0.82511 158 136 132
1.70356 -2.87026 0.82609 158 136 134
1.69332 -2.87861 0.82707 158 137 131
1.68307 -2.88696 0.82804 159 137 126
1.67279 -2.89533 0.82902 159 139 132
1.66250 -2.90371 0.83001 159 140 131
1.65220 -2.91211 0.83099 158 137 127
1.64188 -2.92052 0.83197 157 135 132
1.63154 -2.92894 0.83296 154 134 131
1.62119 -2.93737 0.83395 152 135 128
1.61082 -2.94582 0.83493 152 133 129
1.60044 -2.95428 0.83593 153 135 130
1.59003 -2.96275 0.83692 155 137 135
1.57962 -2.97124 0.83791 154 136 135
1.56918 -2.97974 0.83891 154 136 133
1.78230 -2.82209 0.80268 158 138 132
1.77215 -2.83037 0.80363 156 136 136
1.76198 -2.83867 0.80459 155 137 123
1.75179 -2.84698 0.80555 156 138 127
1.74159 -2.85530 0.80651 154 138 126
1.73137 -2.86364 0.80747 159 138 125
1.72114 -2.87199 0.80843 158 137 126
1.71089 -2.88035 0.80940 156 137 132
1.70062 -2.88873 0.81037 156 137 139
1.69034 -2.89711 0.81133 155 138 132
1.68004 -2.90552 0.81230 157 138 135
1.66973 -2.91393 0.81328 158 139 136
1.65940 -2.92236 0.81425 158 137 129
1.64905 -2.93080 0.81522 155 136 128
1.63869 -2.93926 0.81620 153 134 126
1.62831 -2.94772 0.81718 151 133 123
1.61792 -2.95620 0.81815 151 132 125
1.60751 -2.96470 0.81913 153 134 126
1.59708 -2.97321 0.82012 155 136 132
1.58663 -2.98173 0.82110 156 136 134
1.57617 -2.99026 0.82208 155 136 135
1.77967 -2.84032 0.78690 155 136 132
1.76947 -2.84865 0.78785 156 136 127
1.75926 -2.85699 0.78880 157 136 128
1.74904 -2.86535 0.78975 155 137 129
1.73879 -2.87372 0.79070 156 137 121
1.72853 -2.88210 0.79165 155 138 118
1.71826 -2.89050 0.79261 155 139 126
1.70797 -2.89891 0.79357 156 139 133
1.69766 -2.90733 0.79452 157 138 135
1.68734 -2.91576 0.79548 158 138 135
1.67700 -2.92421 0.79644 159 138 134
1.66664 -2.93267 0.79741 158 138 130
1.65627 -2.94115 0.79837 154 135 126
1.64588 -2.94964 0.79934 152 135 119
1.63548 -2.95814 0.80030 151 134 111
1.62506 -2.96665 0.80127 151 135 119
1.61462 -2.97518 0.80224 153 134 120
1.60417 -2.98372 0.80321 155 135 128
1.59370 -2.99228 0.80419 158 137 133
1.58321 -3.00085 0.80516 157 137 131
1.57271 -3.00943 0.80614 156 137 132
1.77701 -2.85869 0.77101 156 137 125
1.76678 -2.86707 0.77195 156 138 126
1.75653 -2.87546 0.77289 155 137 127
1.74626 -2.88386 0.77383 156 137 127
1.73597 -2.89228 0.77477 154 137 131
1.72567 -2.90071 0.77572 154 138 128
1.71536 -2.90915 0.77666 156 139 133
1.70503 -2.91760 0.77761 156 139 140
1.69468 -2.92607 0.77856 157 138 135
1.68431 -2.93456 0.77951 157 139 136
1.67393 -2.94305 0.78046 157 138 130
1.66353 -2.95156 0.78142 153 136 125
1.65312 -2.96008 0.78237 152 137 121
1.64269 -2.96862 0.78333 153 135 123
1.63224 -2.97717 0.78429 153 136 132
1.62178 -2.98573 0.78525 152 136 127
1.61130 -2.99431 0.78621 153 138 130
1.60080 -3.00290 0.78717 158 138 134
1.59029 -3.01150 0.78813 157 137 130
1.57976 -3.02012 0.78910 156 137 130
1.78460 -2.86880 0.75407 154 139 121
1.77434 -2.87721 0.75500 151 141 123
1.76406 -2.88563 0.75593 152 139 123
1.75377 -2.89407 0.75686 156 136 128
1.74346 -2.90251 0.75779 154 136 129
1.73313 -2.91098 0.75872 155 137 126
1.72279 -2.91945 0.75966 157 137 128
1.71243 -2.92794 0.76060 156 139 131
1.70206 -2.93644 0.76153 154 137 130
1.69167 -2.94496 0.76247 155 139 130
1.68126 -2.95349 0.76342 155 140 124
1.67084 -2.96203 0.76436 156 137 119
1.66040 -2.97059 0.76530 154 135 117
1.64994 -2.97916 0.76625 152 133 123
1.63947 -2.98774 0.76720 151 136 130
1.62898 -2.99634 0.76815 149 135 131
1.61847 -3.00495 0.76910 150 136 132
1.60795 -3.01358 0.77005 156 138 131
1.59741 -3.02222 0.77100 157 139 126
1.58685 -3.03087 0.77196 155 139 126
1.57628 -3.03953 0.77291 155 140 130
1.79223 -2.87896 0.73702 153 139 126
1.78195 -2.88740 0.73794 155 141 122
1.77164 -2.89586 0.73886 153 138 116
1.76133 -2.90433 0.73978 153 136 124
1.75099 -2.91281 0.74070 154 136 132
1.74064 -2.92131 0.74163 154 136 137
1.73027 -2.92982 0.74255 153 136 130
1.71989 -2.93834 0.74348 155 137 127
1.70949 -2.94688 0.74440 153 136 124
1.69907 -2.95543 0.74533 154 138 132
1.68864 -2.96399 0.74626 157 140 129
1.67819 -2.97257 0.74720 158 137 130
1.66772 -2.98116 0.74813 155 135 123
1.65724 -2.98977 0.74907 152 134 122
1.64674 -2.99839 0.75000 151 134 122
1.63622 -3.00702 0.75094 151 133 129
1.62569 -3.01566 0.75188 153 135 134
1.61514 -3.02432 0.75282 157 137 134
1.60458 -3.03300 0.75376 157 137 127
1.59399 -3.04169 0.75471 155 138 122
1.58339 -3.05039 0.75565 155 139 127
1.57277 -3.05910 0.75660 156 139 132
1.56214 -3.06783 0.75755 159 141 136
1.78960 -2.89766 0.72078 157 137 133
1.77927 -2.90615 0.72169 155 138 120
1.76893 -2.91466 0.72260 152 136 123
1.75857 -2.92318 0.72351 153 136 127
1.74819 -2.93171 0.72442 154 136 130
1.73780 -2.94025 0.72534 151 137 130
1.72739 -2.94881 0.72625 154 137 133
1.71696 -2.95738 0.72717 154 137 127
1.70652 -2.96596 0.72809 155 136 129
1.69606 -2.97456 0.72901 156 138 130
1.68559 -2.98318 0.72993 156 137 128
1.67509 -2.99180 0.73085 154 136 124
1.66458 -3.00044 0.73178 152 134 124
1.65406 -3.00909 0.73270 150 132 124
1.64351 -3.01776 0.73363 151 133 129
1.63296 -3.02644 0.73456 153 133 135
1.62238 -3.03514 0.73549 156 136 143
1.61179 -3.04385 0.73642 156 138 133
1.60117 -3.05257 0.73735 154 139 124
1.59055 -3.06131 0.73829 154 139 126
1.57990 -3.07006 0.73922 156 139 130
1.79730 -2.90799 0.70352 154 136 128
1.78695 -2.91651 0.70441 154 138 118
1.77658 -2.92505 0.70531 154 134 114
1.76619 -2.93360 0.70621 153 135 122
1.75579 -2.94217 0.70711 154 135 126
1.74537 -2.95075 0.70802 154 135 125
1.73494 -2.95934 0.70892 156 135 129
1.72448 -2.96794 0.70983 154 136 120
1.71401 -2.97656 0.71074 154 136 116
1.70353 -2.98520 0.71164 155 138 124
1.69303 -2.99384 0.71256 155 139 125
1.68251 -3.00251 0.71347 154 137 123
1.67197 -3.01118 0.71438 152 135 126
1.66142 -3.01987 0.71530 149 133 128
1.65085 -3.02857 0.71621 151 132 129
1.64026 -3.03729 0.71713 153 133 130
1.62966 -3.04602 0.71805 156 136 132
1.61904 -3.05476 0.71897 157 140 129
1.60840 -3.06352 0.71989 156 140 129
1.59775 -3.07229 0.72081 155 139 135
1.58708 -3.08108 0.72174 156 137 134
1.79467 -2.92693 0.68703 153 137 129
1.78427 -2.93550 0.68792 156 135 131
1.77386 -2.94409 0.68881 153 135 128
1.76343 -2.95269 0.68970 154 134 131
1.75299 -2.96130 0.69059 154 133 119
1.74253 -2.96993 0.69149 155 133 130
1.73205 -2.97857 0.69238 153 134 122
1.72155 -2.98723 0.69328 152 134 120
1.71104 -2.99590 0.69417 152 137 127
1.70051 -3.00458 0.69507 153 137 130
1.68997 -3.01328 0.69597 154 137 128
1.67941 -3.02199 0.69688 152 135 129
1.66883 -3.03071 0.69778 150 136 133
1.65823 -3.03945 0.69869 151 134 126
1.64762 -3.04820 0.69959 153 134 125
1.63699 -3.05697 0.70050 154 137 123
1.62634 -3.06575 0.70141 155 140 130
1.61567 -3.07454 0.70232 156 140 129
1.60499 -3.08335 0.70323 154 138 128
1.59429 -3.09217 0.70415 154 135 127
1.80244 -2.93742 0.66954 153 135 129
1.79202 -2.94602 0.67042 154 134 129
1.78158 -2.95465 0.67130 156 135 123
1.77113 -2.96328 0.67218 154 136 126
1.76065 -2.97193 0.67306 154 134 121
1.75017 -2.98059 0.67394 156 135 126
1.73966 -2.98927 0.67483 153 133 122
1.72914 -2.99796 0.67571 151 134 123
1.71860 -3.00666 0.67660 149 133 127
1.70805 -3.01538 0.67748 151 135 129
1.69748 -3.02411 0.67837 155 134 127
1.68689 -3.03286 0.67926 154 135 125
1.67628 -3.04162 0.68016 152 137 128
1.66566 -3.05039 0.68105 150 137 127
1.65502 -3.05918 0.68195 151 136 129
1.64436 -3.06798 0.68284 153 137 126
1.63368 -3.07680 0.68374 155 138 128
1.62299 -3.08563 0.68464 156 137 128
1.61228 -3.09448 0.68554 153 135 124
1.60156 -3.10334 0.68644 151 133 118
1.59081 -3.11221 0.68735 153 133 124
1.79981 -2.95661 0.65281 152 132 128
1.78934 -2.96526 0.65368 156 134 127
1.77886 -2.97393 0.65455 153 135 127
1.76837 -2.98262 0.65542 152 134 128
1.75785 -2.99132 0.65629 152 133 125
1.74732 -3.00003 0.65716 150 132 125
1.73677 -3.00875 0.65803 149 134 124
1.72621 -3.01749 0.65891 152 134 119
1.71563 -3.02625 0.65979 152 134 123
1.70503 -3.03502 0.66066 153 134 129
1.69441 -3.04380 0.66154 153 136 131
1.68378 -3.05259 0.66242 152 137 128
1.67313 -3.06140 0.66331 153 136 127
1.66246 -3.07023 0.66419 153 134 126
1.65178 -3.07907 0.66507 153 136 125
1.64108 -3.08792 0.66596 154 138 125
1.63036 -3.09679 0.66685 154 137 124
1.61962 -3.10567 0.66774 152 136 122
1.60887 -3.11457 0.66863 151 134 121
1.59809 -3.12348 0.66952 151 134 124
1.80765 -2.96726 0.63510 150 131 133
1.79716 -2.97595 0.63595 152 132 134
1.78665 -2.98466 0.63681 150 133 126
1.77613 -2.99338 0.63767 150 133 124
1.76559 -3.00211 0.63853 149 131 126
1.75503 -3.01086 0.63939 149 132 128
1.74446 -3.01962 0.64025 147 133 130
1.73386 -3.02839 0.64111 149 135 122
1.72326 -3.03718 0.64198 150 136 122
1.71263 -3.04599 0.64284 152 135 127
1.70199 -3.05481 0.64371 151 136 128
1.69133 -3.06364 0.64458 152 137 127
1.68065 -3.07249 0.64545 152 136 126
1.66995 -3.08135 0.64632 152 135 127
1.65924 -3.09022 0.64720 152 136 124
1.64851 -3.09911 0.64807 152 137 119
1.63777 -3.10802 0.64895 152 137 121
1.62700 -3.11694 0.64982 152 136 124
1.61622 -3.12587 0.65070 150 134 125
1.60542 -3.13482 0.65158 150 133 124
1.59460 -3.14378 0.65246 153 134 126
1.80502 -2.98670 0.61811 151 129 128
1.79449 -2.99544 0.61896 151 129 124
1.78394 -3.00420 0.61981 150 130 125
1.77337 -3.01297 0.62065 148 131 127
1.76279 -3.02175 0.62150 147 130 127
1.75218 -3.03055 0.62235 150 132 126
1.74157 -3.03936 0.62320 151 132 122
1.73093 -3.04819 0.62406 150 134 121
1.72028 -3.05703 0.62491 152 135 125
1.70961 -3.06588 0.62577 153 134 128
1.69892 -3.07475 0.62662 154 135 124
1.68822 -3.08364 0.62748 153 134 120
1.67749 -3.09253 0.62834 151 134 129
1.66675 -3.10145 0.62920 152 134 128
1.65600 -3.11037 0.63007 151 134 122
1.64522 -3.11932 0.63093 152 137 123
1.63443 -3.12827 0.63180 155 135 126
1.62362 -3.13724 0.63266 154 132 127
1.61279 -3.14623 0.63353 152 132 125
1.60195 -3.15523 0.63440 154 132 123
1.81293 -2.99752 0.60017 150 128 118
1.80237 -3.00630 0.60100 152 128 116
1.79180 -3.01509 0.60183 149 128 121
1.78120 -3.02390 0.60267 148 128 126
1.77059 -3.03271 0.60350 146 130 124
1.75996 -3.04155 0.60434 150 131 117
1.74932 -3.05040 0.60518 150 131 119
1.73865 -3.05926 0.60602 149 133 122
1.72797 -3.06814 0.60687 152 133 127
1.71728 -3.07703 0.60771 152 133 132
1.70656 -3.08594 0.60856 154 133 130
1.69583 -3.09486 0.60940 152 132 124
1.68508 -3.10379 0.61025 151 134 126
1.67431 -3.11274 0.61110 152 134 123
1.66353 -3.12171 0.61195 151 135 121
1.65273 -3.13069 0.61280 152 135 125
1.64191 -3.13968 0.61365 153 134 130
1.63107 -3.14869 0.61451 151 132 128
1.62021 -3.15771 0.61537 151 131 123
1.60934 -3.16675 0.61622 153 131 123
1.59845 -3.17580 0.61708 155 134 125
1.81031 -3.01722 0.58292 148 130 116
1.79970 -3.02605 0.58375 147 129 120
1.78908 -3.03489 0.58457 149 130 128
1.77844 -3.04375 0.58539 147 130 131
1.76779 -3.05262 0.58622 147 130 123
1.75712 -3.06150 0.58705 148 131 125
1.74643 -3.07040 0.58788 149 131 128
1.73572 -3.07932 0.58871 153 131 130
1.72499 -3.08825 0.58954 150 133 134
1.71425 -3.09719 0.59037 152 134 137
1.70349 -3.10615 0.59121 151 134 132
1.69272 -3.11512 0.59204 150 134 125
1.68192 -3.12411 0.59288 149 135 115
1.67111 -3.13311 0.59372 149 134 118
1.66028 -3.14213 0.59456 150 134 124
1.64943 -3.15116 0.59540 152 134 129
1.63856 -3.16021 0.59624 149 134 128
1.62768 -3.16927 0.59709 149 132 125
1.61678 -3.17834 0.59793 152 132 120
1.60586 -3.18744 0.59878 154 133 115
1.81829 -3.02821 0.56474 148 131 117
1.80766 -3.03708 0.56555 147 130 115
1.79701 -3.04596 0.56636 148 130 125
1.78635 -3.05485 0.56717 147 131 130
1.77566 -3.06376 0.56798 147 130 125
1.76497 -3.07268 0.56880 148 129 122
1.75425 -3.08162 0.56962 150 132 126
1.74351 -3.09057 0.57043 151 133 125
1.73276 -3.09954 0.57125 152 134 128
1.72199 -3.10852 0.57207 154 135 133
1.71120 -3.11751 0.57290 152 134 131
1.70040 -3.12652 0.57372 152 133 128
1.68958 -3.13555 0.57454 150 134 125
1.67873 -3.14459 0.57537 149 135 124
1.66788 -3.15364 0.57620 150 134 124
1.65700 -3.16271 0.57703 153 133 127
1.64610 -3.17180 0.57786 152 133 130
1.63519 -3.18090 0.57869 151 132 128
1.62426 -3.19001 0.57952 152 132 124
1.61331 -3.19914 0.58035 153 133 125
1.81567 -3.04817 0.54723 149 129 127
1.80499 -3.05709 0.54803 149 130 128
1.79430 -3.06602 0.54883 150 130 131
1.78359 -3.07497 0.54963 149 131 125
1.77286 -3.08393 0.55044 149 131 124
1.76212 -3.09290 0.55124 151 132 128
1.75136 -3.10189 0.55205 150 133 125
1.74058 -3.11089 0.55285 152 133 126
1.72978 -3.11991 0.55366 154 134 126
1.71896 -3.12895 0.55447 151 134 124
1.70813 -3.13800 0.55528 151 133 122
1.69728 -3.14706 0.55609 150 134 126
1.68641 -3.15614 0.55691 148 134 127
1.67552 -3.16523 0.55772 149 134 126
1.66462 -3.17434 0.55854 151 134 127
1.65370 -3.18346 0.55935 152 133 129
1.64275 -3.19260 0.56017 152 132 126
1.63180 -3.20176 0.56099 151 131 122
1.62082 -3.21093 0.56181 151 132 126
1.60982 -3.22011 0.56264 153 133 130
1.82372 -3.05934 0.52880 149 130 129
1.81302 -3.06830 0.52959 150 131 127
1.80230 -3.07726 0.53038 150 131 126
1.79157 -3.08625 0.53116 149 132 118
1.78081 -3.09524 0.53196 149 133 119
1.77004 -3.10426 0.53275 150 132 121
1.75925 -3.11328 0.53354 153 133 123
1.74844 -3.12233 0.53433 154 134 127
1.73762 -3.13138 0.53513 155 134 124
1.72677 -3.14046 0.53593 151 134 124
1.71591 -3.14954 0.53672 151 134 125
1.70503 -3.15864 0.53752 151 133 127
1.69414 -3.16776 0.53832 150 132 127
1.68322 -3.17689 0.53913 150 132 123
1.67229 -3.18604 0.53993 151 132 120
1.66133 -3.19520 0.54073 150 132 124
1.65036 -3.20438 0.54154 150 132 125
1.63938 -3.21358 0.54235 151 131 121
1.62837 -3.22278 0.54316 152 130 123
1.61735 -3.23201 0.54397 152 131 128
1.83183 -3.07058 0.51025 148 131 130
1.82110 -3.07957 0.51103 149 130 132
1.81036 -3.08858 0.51180 149 132 127
1.79959 -3.09760 0.51258 147 133 120
1.78881 -3.10664 0.51336 147 134 124
1.77801 -3.11569 0.51414 148 134 129
1.76719 -3.12475 0.51492 151 134 125
1.75636 -3.13383 0.51570 152 134 123
1.74550 -3.14293 0.51648 153 133 123
1.73463 -3.15204 0.51726 152 133 126
1.72374 -3.16116 0.51805 151 133 127
1.71284 -3.17030 0.51883 151 132 127
1.70191 -3.17946 0.51962 151 132 125
1.69097 -3.18863 0.52041 150 132 124
1.68000 -3.19782 0.52120 150 133 125
1.66902 -3.20702 0.52199 150 132 128
1.65802 -3.21624 0.52279 150 131 130
1.64701 -3.22547 0.52358 152 130 124
1.63597 -3.23472 0.52438 152 129 123
1.62492 -3.24398 0.52517 151 130 128
1.61385 -3.25326 0.52597 152 133 131
1.82924 -3.09092 0.49235 146 129 129
1.81846 -3.09996 0.49311 147 130 126
1.80767 -3.10902 0.49388 145 133 127
1.79686 -3.11810 0.49464 145 134 126
1.78603 -3.12719 0.49540 147 134 127
1.77519 -3.13629 0.49617 150 133 123
1.76432 -3.14541 0.49694 151 133 120
1.75344 -3.15454 0.49771 151 133 121
1.74254 -3.16369 0.49848 153 133 123
1.73162 -3.17286 0.49925 152 134 123
1.72069 -3.18204 0.50003 151 134 124
1.70973 -3.19123 0.50080 150 134 123
1.69876 -3.20044 0.50158 149 134 125
1.68777 -3.20967 0.50235 149 133 125
1.67676 -3.21891 0.50313 150 132 126
1.66573 -3.22817 0.50391 151 132 127
1.65469 -3.23744 0.50469 153 130 123
1.64362 -3.24673 0.50547 153 129 120
1.63254 -3.25603 0.50626 150 130 123
1.62144 -3.26535 0.50704 150 132 128
1.82662 -3.11142 0.47430 149 128 111
1.81580 -3.12052 0.47505 148 130 118
1.80496 -3.12963 0.47580 146 132 115
1.79411 -3.13876 0.47655 146 132 118
1.78323 -3.14791 0.47731 148 133 118
1.77234 -3.15706 0.47806 149 134 118
1.76143 -3.16624 0.47882 150 133 119
1.75050 -3.17543 0.47958 151 132 120
1.73956 -3.18463 0.48034 151 134 123
1.72859 -3.19385 0.48110 150 134 127
1.71761 -3.20308 0.48186 148 134 126
1.70661 -3.21233 0.48262 148 133 125
1.69559 -3.22160 0.48338 149 131 123
1.68455 -3.23088 0.48415 149 131 122
1.67349 -3.24018 0.48491 149 130 122
1.66242 -3.24949 0.48568 151 129 119
1.65132 -3.25882 0.48645 150 129 114
1.64021 -3.26816 0.48722 148 130 118
1.62908 -3.27752 0.48799 148 132 126
1.83483 -3.12296 0.45537 148 128 111
1.82398 -3.13209 0.45611 147 129 117
1.81312 -3.14125 0.45684 147 130 116
1.80223 -3.15041 0.45758 147 131 115
1.79133 -3.15959 0.45832 150 131 113
1.78041 -3.16879 0.45906 148 132 117
1.76947 -3.17800 0.45981 148 133 119
1.75852 -3.18723 0.46055 150 132 120
1.74754 -3.19648 0.46130 150 133 122
1.73655 -3.20574 0.46204 149 134 125
1.72553 -3.21501 0.46279 147 133 125
1.71450 -3.22430 0.46354 147 131 122
1.70346 -3.23361 0.46429 150 130 122
1.69239 -3.24293 0.46504 148 130 122
1.68130 -3.25226 0.46579 148 129 123
1.67020 -3.26162 0.46655 150 129 122
1.65907 -3.27099 0.46730 149 128 118
1.64793 -3.28037 0.46806 147 129 121
1.63677 -3.28977 0.46882 147 131 125
1.62559 -3.29919 0.46958 149 132 125
1.83222 -3.14374 0.43704 146 128 124
1.82132 -3.15293 0.43776 148 130 128
1.81041 -3.16214 0.43849 147 130 120
1.79948 -3.17136 0.43922 148 130 116
1.78853 -3.18060 0.43994 147 131 119
1.77756 -3.18985 0.44067 148 131 125
1.76658 -3.19912 0.44140 151 131 126
1.75558 -3.20840 0.44213 150 133 128
1.74455 -3.21770 0.44287 149 134 129
1.73351 -3.22701 0.44360 149 134 131
1.72245 -3.23634 0.44434 149 132 125
1.71137 -3.24569 0.44507 149 131 122
1.70028 -3.25505 0.44581 148 130 123
1.68916 -3.26443 0.44655 147 129 123
1.67803 -3.27382 0.44729 149 129 124
1.66687 -3.28323 0.44803 149 128 126
1.65570 -3.29266 0.44877 147 128 127
1.64451 -3.30210 0.44952 147 130 127
1.63330 -3.31156 0.45026 148 131 126
1.84051 -3.15546 0.41785 146 127 121
1.82958 -3.16469 0.41856 148 129 129
1.81864 -3.17394 0.41927 145 129 124
1.80768 -3.18320 0.41998 148 129 124
1.79671 -3.19248 0.42070 148 129 121
1.78571 -3.20177 0.42141 148 130 125
1.77470 -3.21108 0.42213 150 131 127
1.76366 -3.22040 0.42285 151 132 128
1.75261 -3.22974 0.42357 150 132 126
1.74154 -3.23910 0.42429 151 133 130
1.73045 -3.24847 0.42501 150 132 126
1.71934 -3.25785 0.42573 148 132 121
1.70822 -3.26726 0.42645 147 130 122
1.69707 -3.27668 0.42718 147 130 123
1.68591 -3.28611 0.42791 148 130 123
1.67473 -3.29556 0.42863 148 130 122
1.66352 -3.30503 0.42936 147 129 123
1.65230 -3.31451 0.43009 146 129 126
1.64106 -3.32401 0.43082 147 131 127
1.62980 -3.33352 0.43156 150 134 129
1.84885 -3.16726 0.39853 145 127 124
1.83790 -3.17653 0.39923 147 128 126
1.82693 -3.18582 0.39993 146 129 126
1.81594 -3.19512 0.40063 147 129 129
1.80493 -3.20443 0.40133 147 129 124
1.79391 -3.21377 0.40203 148 131 126
1.78286 -3.22312 0.40273 149 131 128
1.77180 -3.23248 0.40343 150 131 130
1.76072 -3.24186 0.40414 151 131 129
1.74962 -3.25126 0.40485 151 131 127
1.73850 -3.26067 0.40555 150 131 125
1.72737 -3.27010 0.40626 148 130 124
1.71621 -3.27954 0.40697 148 130 124
1.70504 -3.28900 0.40768 148 130 124
1.69384 -3.29848 0.40839 147 130 123
1.68263 -3.30797 0.40911 147 130 121
1.67140 -3.31748 0.40982 146 129 122
1.66015 -3.32700 0.41054 145 129 124
1.64888 -3.33654 0.41125 147 131 122
1.63759 -3.34610 0.41197 149 133 125
1.84626 -3.18844 0.37978 147 128 121
1.83527 -3.19777 0.38046 146 129 118
1.82425 -3.20711 0.38114 147 128 124
1.81321 -3.21647 0.38183 146 128 128
1.80216 -3.22584 0.38252 147 130 126
1.79109 -3.23523 0.38321 149 131 124
1.78000 -3.24464 0.38389 149 131 126
1.76889 -3.25406 0.38459 150 131 125
1.75776 -3.26350 0.38528 152 131 119
1.74661 -3.27295 0.38597 151 131 120
1.73544 -3.28242 0.38666 149 130 124
1.72426 -3.29191 0.38736 147 132 126
1.71305 -3.30141 0.38806 147 131 127
1.70183 -3.31093 0.38875 147 130 125
1.69058 -3.32046 0.38945 147 129 122
1.67932 -3.33001 0.39015 146 129 122
1.66804 -3.33958 0.39085 145 129 122
1.65674 -3.34916 0.39156 147 130 120
1.64542 -3.35876 0.39226 149 132 122
1.63408 -3.36838 0.39297 150 133 126
1.85468 -3.20044 0.36019 146 129 121
1.84366 -3.20980 0.36086 145 130 116
1.83261 -3.21919 0.36153 145 130 117
1.82155 -3.22858 0.36221 146 128 120
1.81047 -3.23800 0.36288 147 129 122
1.79936 -3.24743 0.36355 150 132 120
1.78824 -3.25688 0.36423 148 133 122
1.77710 -3.26634 0.36490 149 133 124
1.76595 -3.27582 0.36558 151 132 120
1.75477 -3.28531 0.36626 151 131 121
1.74357 -3.29482 0.36694 148 132 123
1.73236 -3.30435 0.36762 146 132 123
1.72112 -3.31390 0.36830 146 131 125
1.70987 -3.32346 0.36898 147 130 122
1.69859 -3.33303 0.36967 147 129 122
1.68730 -3.34263 0.37035 146 130 125
1.67599 -3.35223 0.37104 145 130 125
1.66466 -3.36186 0.37173 147 130 123
1.65331 -3.37150 0.37242 148 132 123
1.64193 -3.38116 0.37311 149 133 121
1.85211 -3.22192 0.34114 144 131 121
1.84103 -3.23134 0.34179 145 131 117
1.82994 -3.24078 0.34245 146 130 116
1.81883 -3.25024 0.34311 147 130 119
1.80770 -3.25971 0.34377 149 131 118
1.79655 -3.26920 0.34443 148 133 120
1.78538 -3.27870 0.34509 148 133 123
1.77419 -3.28822 0.34575 149 132 123
1.76298 -3.29776 0.34642 149 133 123
1.75175 -3.30731 0.34708 148 132 122
1.74051 -3.31688 0.34775 147 131 123
1.72924 -3.32647 0.34841 148 130 124
1.71796 -3.33607 0.34908 148 130 119
1.70665 -3.34569 0.34975 146 130 119
1.69533 -3.35532 0.35042 145 131 125
1.68399 -3.36498 0.35109 146 129 122
1.67263 -3.37465 0.35177 147 129 120
1.66124 -3.38433 0.35244 148 131 122
1.64984 -3.39403 0.35312 149 133 122
1.86061 -3.23411 0.32128 146 130 123
1.84951 -3.24357 0.32192 146 130 120
1.83838 -3.25305 0.32257 147 130 123
1.82724 -3.26255 0.32321 148 129 123
1.81608 -3.27207 0.32385 149 129 120
1.80490 -3.28160 0.32450 148 131 118
1.79370 -3.29114 0.32515 148 132 118
1.78248 -3.30071 0.32579 148 132 122
1.77125 -3.31028 0.32644 148 133 123
1.75999 -3.31988 0.32709 148 133 122
1.74871 -3.32949 0.32774 147 132 122
1.73742 -3.33912 0.32840 147 130 124
1.72610 -3.34877 0.32905 147 130 122
1.71477 -3.35843 0.32970 146 131 122
1.70342 -3.36811 0.33036 147 131 125
1.69204 -3.37780 0.33102 147 130 121
1.68065 -3.38752 0.33167 147 129 119
1.66923 -3.39724 0.33233 148 130 123
1.65780 -3.40699 0.33299 149 131 125
1.64635 -3.41675 0.33365 151 132 127
1.85804 -3.25589 0.30192 148 129 121
1.84689 -3.26541 0.30255 147 130 126
1.83571 -3.27495 0.30318 149 129 126
1.82452 -3.28451 0.30381 150 128 123
1.81331 -3.29408 0.30444 149 130 121
1.80208 -3.30367 0.30507 148 131 120
1.79084 -3.31327 0.30570 148 132 126
1.77957 -3.32290 0.30634 148 133 126
1.76828 -3.33253 0.30697 149 133 122
1.75698 -3.34219 0.30761 148 132 121
1.74565 -3.35186 0.30824 147 131 124
1.73430 -3.36155 0.30888 145 130 128
1.72294 -3.37125 0.30952 146 130 128
1.71155 -3.38098 0.31016 147 130 126
1.70015 -3.39072 0.31080 147 130 122
1.68872 -3.40047 0.31145 148 130 119
1.67728 -3.41024 0.31209 148 130 122
1.66582 -3.42003 0.31273 148 130 126
1.65433 -3.42984 0.31338 150 130 131
1.86662 -3.26828 0.28179 146 130 119
1.85544 -3.27785 0.28240 145 131 121
1.84424 -3.28743 0.28302 148 130 123
1.83302 -3.29703 0.28363 149 129 121
1.82178 -3.30664 0.28424 148 130 124
1.81052 -3.31628 0.28486 148 131 124
1.79924 -3.32592 0.28548 147 132 123
1.78795 -3.33559 0.28610 147 132 124
1.77663 -3.34527 0.28672 149 132 124
1.76529 -3.35497 0.28734 149 131 125
1.75394 -3.36469 0.28796 147 130 124
1.74256 -3.37442 0.28858 145 130 126
1.73116 -3.38417 0.28920 145 130 128
1.71975 -3.39393 0.28983 146 130 126
1.70831 -3.40372 0.29045 147 130 126
1.69685 -3.41352 0.29108 148 129 123
1.68538 -3.42333 0.29171 148 129 123
1.67388 -3.43317 0.29234 147 129 124
1.66237 -3.44302 0.29297 149 129 124
1.86406 -3.29037 0.26212 145 131 120
1.85283 -3.29999 0.26272 147 130 120
1.84158 -3.30964 0.26332 148 130 119
1.83031 -3.31929 0.26392 149 131 124
1.81902 -3.32897 0.26452 149 131 123
1.80771 -3.33866 0.26512 148 132 118
1.79638 -3.34837 0.26572 149 133 121
1.78503 -3.35809 0.26632 149 132 125
1.77366 -3.36784 0.26693 148 132 128
1.76228 -3.37760 0.26753 146 131 123
1.75087 -3.38737 0.26814 145 130 123
1.73944 -3.39717 0.26875 145 130 127
1.72799 -3.40698 0.26936 145 129 127
1.71653 -3.41680 0.26997 146 130 128
1.70504 -3.42665 0.27058 148 129 128
1.69353 -3.43651 0.27119 147 129 127
1.68201 -3.44639 0.27181 146 129 124
1.67046 -3.45628 0.27242 148 129 118
1.87273 -3.30297 0.24170 145 130 119
1.86147 -3.31264 0.24228 147 130 120
1.85019 -3.32233 0.24287 147 131 120
1.83889 -3.33203 0.24345 149 131 120
1.82757 -3.34175 0.24403 149 130 122
1.81623 -3.35148 0.24462 149 130 121
1.80487 -3.36123 0.24521 149 132 118
1.79349 -3.37100 0.24580 149 133 121
1.78209 -3.38079 0.24638 149 132 125
1.77067 -3.39059 0.24697 147 131 124
1.75924 -3.40041 0.24757 146 130 125
1.74778 -3.41025 0.24816 145 129 129
1.73630 -3.42011 0.24875 145 129 128
1.72480 -3.42998 0.24934 147 129 128
1.71328 -3.43987 0.24994 148 129 129
1.70174 -3.44977 0.25054 146 129 127
1.69018 -3.45970 0.25113 145 129 122
1.67860 -3.46964 0.25173 146 129 117
1.87017 -3.32538 0.22171 146 131 120
1.85886 -3.33510 0.22228 146 131 119
1.84753 -3.34485 0.22285 147 131 117
1.83618 -3.35461 0.22342 148 130 121
1.82481 -3.36439 0.22399 148 130 125
1.81342 -3.37419 0.22456 149 131 120
1.80201 -3.38400 0.22513 148 132 119
1.79058 -3.39383 0.22570 147 132 123
1.77913 -3.40368 0.22627 148 132 125
1.76766 -3.41354 0.22685 146 130 126
1.75617 -3.42343 0.22743 144 130 127
1.74466 -3.43333 0.22800 145 129 127
1.73313 -3.44324 0.22858 148 129 127
1.72158 -3.45318 0.22916 147 129 126
1.71001 -3.46313 0.22974 145 129 123
1.69842 -3.47310 0.23032 146 128 119
1.68680 -3.48309 0.23090 146 129 118
1.67517 -3.49309 0.23148 147 129 123
1.87893 -3.33819 0.20100 146 130 121
1.86759 -3.34797 0.20155 146 131 123
1.85623 -3.35775 0.20210 147 130 121
1.84484 -3.36756 0.20266 149 130 123
1.83344 -3.37739 0.20321 149 131 128
1.82202 -3.38723 0.20377 149 131 124
1.81058 -3.39708 0.20432 147 132 122
1.79912 -3.40696 0.20488 146 132 124
1.78764 -3.41685 0.20543 148 133 125
1.77614 -3.42676 0.20599 147 132 127
1.76462 -3.43669 0.20655 144 130 124
1.75308 -3.44664 0.20711 145 130 123
1.74151 -3.45660 0.20767 147 129 125
1.72993 -3.46658 0.20824 147 130 124
1.71833 -3.47658 0.20880 146 130 124
1.70670 -3.48659 0.20937 147 129 122
1.69506 -3.49662 0.20993 147 129 123
1.87637 -3.36091 0.18069 146 129 125
1.86498 -3.37075 0.18122 146 129 126
1.85357 -3.38060 0.18176 148 130 129
1.84214 -3.39047 0.18230 149 131 128
1.83069 -3.40035 0.18283 149 131 124
1.81921 -3.41026 0.18337 147 132 122
1.80772 -3.42018 0.18391 146 133 123
1.79621 -3.43012 0.18445 148 133 124
1.78468 -3.44007 0.18500 149 132 127
1.77312 -3.45004 0.18554 147 131 124
1.76155 -3.46004 0.18608 146 129 122
1.74996 -3.47004 0.18663 146 129 125
1.73834 -3.48007 0.18717 145 130 127
1.72671 -3.49011 0.18772 146 130 125
1.71505 -3.50018 0.18827 147 130 124
1.88522 -3.37395 0.15968 146 129 124
1.87380 -3.38383 0.16020 146 130 127
1.86235 -3.39373 0.16072 146 130 131
1.85089 -3.40364 0.16124 147 131 128
1.83941 -3.41357 0.16176 148 131 124
1.82791 -3.42352 0.16228 147 132 123
1.81638 -3.43349 0.16280 147 133 124
1.80484 -3.44347 0.16333 148 132 123
1.79327 -3.45347 0.16385 149 132 127
1.78169 -3.46349 0.16438 148 131 128
1.77008 -3.47353 0.16491 147 129 124
1.75846 -3.48358 0.16543 146 129 125
1.74681 -3.49365 0.16596 145 129 129
1.73514 -3.50375 0.16649 146 130 126
1.89413 -3.38708 0.13853 147 129 125
1.88267 -3.39700 0.13903 147 131 123
1.87120 -3.40694 0.13953 146 130 127
1.85971 -3.41690 0.14004 147 131 129
1.84819 -3.42688 0.14054 148 131 126
1.83666 -3.43687 0.14105 148 131 125
1.82510 -3.44689 0.14155 147 132 126
1.81352 -3.45692 0.14206 148 132 125
1.80193 -3.46696 0.14257 147 131 127
1.79031 -3.47703 0.14308 147 132 130
1.77867 -3.48711 0.14359 148 130 125
1.76701 -3.49721 0.14410 147 130 125
1.90310 -3.40029 0.11723 146 130 127
1.89161 -3.41026 0.11772 147 131 122
1.88011 -3.42025 0.11820 147 131 125
1.86858 -3.43026 0.11869 147 132 129
1.85703 -3.44028 0.11918 149 132 126
1.84547 -3.45032 0.11966 149 131 124
1.83388 -3.46038 0.12015 148 131 126
1.82227 -3.47045 0.12064 148 131 126
1.81064 -3.48055 0.12113 148 132 124
1.79899 -3.49066 0.12163 147 132 124
1.78732 -3.50079 0.12212 147 131 123
1.91212 -3.41360 0.09579 144 132 125
1.90061 -3.42362 0.09626 147 131 124
1.88907 -3.43365 0.09673 147 131 124
1.87751 -3.44370 0.09720 146 132 125
1.86594 -3.45377 0.09767 148 133 125
1.85434 -3.46386 0.09814 147 132 125
1.84272 -3.47396 0.09861 147 131 126
1.83108 -3.48409 0.09908 148 132 125
1.81942 -3.49423 0.09955 148 133 121
1.80774 -3.50439 0.10003 146 133 123
1.93274 -3.41695 0.07375 141 135 130
1.92122 -3.42700 0.07420 144 134 124
1.90967 -3.43706 0.07465 147 132 126
1.89810 -3.44714 0.07510 147 131 124
1.88651 -3.45724 0.07555 145 132 121
1.87490 -3.46735 0.07601 145 133 124
1.86327 -3.47749 0.07646 144 133 125
1.85162 -3.48764 0.07691 145 132 126
1.83995 -3.49781 0.07737 147 131 126
1.82825 -3.50800 0.07782 147 133 126
1.93037 -3.44049 0.05247 143 134 126
1.91879 -3.45060 0.05290 146 132 129
1.90719 -3.46072 0.05333 146 132 127
1.89557 -3.47087 0.05376 145 132 126
1.88393 -3.48103 0.05420 145 133 126
1.87226 -3.49121 0.05463 145 134 124
1.86058 -3.50141 0.05507 146 133 125
1.84888 -3.51163 0.05550 149 134 127
1.92798 -3.46423 0.03099 145 133 128
1.91634 -3.47440 0.03141 148 132 127
1.90469 -3.48460 0.03182 147 132 129
1.89302 -3.49481 0.03224 147 133 129
1.88132 -3.50504 0.03265 148 134 126
1.86961 -3.51528 0.03307 149 136 130
1.92556 -3.48818 0.00933 147 133 127
1.91388 -3.49842 0.00972 147 131 128
-0.85412 -5.79071 1.56921 62 62 57
-0.87163 -5.79667 1.57165 63 65 58
-0.88912 -5.80263 1.57410 63 65 57
-0.90659 -5.80858 1.57654 63 64 52
-0.92405 -5.81453 1.57897 63 62 60
-0.83949 -5.76271 1.54818 69 63 70
-0.85693 -5.76866 1.55062 64 65 68
-0.87436 -5.77461 1.55306 61 67 64
-0.89178 -5.78055 1.55550 64 69 66
-0.90918 -5.78649 1.55794 67 67 62
-0.92656 -5.79242 1.56038 67 66 64
-0.94393 -5.79835 1.56281 62 63 59
-0.85972 -5.74679 1.53219 66 67 68
-0.87707 -5.75272 1.53463 64 67 64
-0.89441 -5.75865 1.53707 67 69 70
-0.91174 -5.76457 1.53950 68 69 69
-0.92905 -5.77049 1.54193 64 67 63
-0.94635 -5.77640 1.54437 60 64 56
-0.96363 -5.78231 1.54679 61 62 48
-0.86248 -5.72510 1.51391 63 64 56
-0.87976 -5.73102 1.51634 63 63 54
-0.89703 -5.73693 1.51878 67 65 66
-0.91429 -5.74284 1.52121 65 67 65
-0.93152 -5.74874 1.52364 62 67 63
-0.94875 -5.75464 1.52607 62 66 56
-0.96596 -5.76053 1.52850 65 63 50
-0.81349 -5.68585 1.48845 75 71 70
-0.83075 -5.69177 1.49089 74 67 72
-0.86522 -5.70359 1.49577 64 63 56
-0.88243 -5.70949 1.49821 63 61 54
-0.89963 -5.71539 1.50064 65 61 63
-0.91681 -5.72128 1.50307 64 63 64
-0.93398 -5.72717 1.50550 63 65 64
-0.95113 -5.73305 1.50793 63 66 61
-0.79922 -5.65865 1.46803 71 74 70
-0.81642 -5.66455 1.47047 79 77 75
-0.83361 -5.67046 1.47291 81 76 75
-0.85078 -5.67636 1.47535 76 72 72
-0.88507 -5.68814 1.48022 69 67 64
-0.90220 -5.69402 1.48265 70 65 65
-0.91931 -5.69990 1.48508 69 63 62
-0.93641 -5.70577 1.48751 65 63 60
0.70988 -5.11727 1.23486 108 115 119
0.69143 -5.12362 1.23749 108 111 121
0.58102 -5.16161 1.25321 88 86 88
-0.75072 -5.61983 1.44287 68 71 69
-0.76790 -5.62574 1.44532 66 70 66
-0.78505 -5.63164 1.44776 68 72 67
-0.80220 -5.63754 1.45020 71 75 74
-0.81933 -5.64343 1.45264 79 79 83
-0.83644 -5.64932 1.45508 83 79 83
-0.85354 -5.65521 1.45751 78 76 74
-0.87063 -5.66109 1.45995 76 74 72
-0.88770 -5.66696 1.46238 74 73 70
-0.90475 -5.67283 1.46481 74 73 67
-0.92180 -5.67869 1.46723 74 71 60
0.71886 -5.09139 1.21478 108 115 122
0.70047 -5.09773 1.21741 110 117 125
0.68209 -5.10406 1.22003 114 118 132
0.55391 -5.14823 1.23835 89 91 83
0.53567 -5.15452 1.24095 86 89 82
0.51744 -5.16081 1.24356 85 84 86
0.49922 -5.16708 1.24616 88 86 93
-0.73677 -5.59304 1.42274 73 76 73
-0.75389 -5.59894 1.42519 73 76 74
-0.77099 -5.60483 1.42763 71 75 71
-0.78808 -5.61072 1.43007 70 77 71
-0.80515 -5.61661 1.43251 69 75 71
-0.82221 -5.62249 1.43495 74 75 77
-0.83926 -5.62836 1.43739 76 75 80
-0.85629 -5.63423 1.43982 75 73 72
-0.87330 -5.64009 1.44225 76 75 72
-0.89030 -5.64595 1.44468 76 77 72
-0.90729 -5.65180 1.44710 72 75 65
0.80125 -5.04034 1.18432 108 115 123
0.78285 -5.04669 1.18695 108 118 117
0.76448 -5.05303 1.18959 111 119 123
0.74612 -5.05937 1.19222 111 117 119
0.72777 -5.06570 1.19485 114 117 119
0.70944 -5.07203 1.19748 109 119 125
0.69113 -5.07835 1.20010 108 118 120
0.67284 -5.08466 1.20272 107 118 120
0.54522 -5.12871 1.22101 94 96 89
0.52705 -5.13498 1.22362 93 96 86
0.50890 -5.14125 1.22622 93 98 85
0.49077 -5.14751 1.22882 93 96 87
0.47265 -5.15376 1.23141 91 92 93
-0.70584 -5.56055 1.40032 79 76 69
-0.72292 -5.56644 1.40276 78 77 72
-0.73998 -5.57233 1.40521 77 79 77
-0.75703 -5.57822 1.40765 76 80 79
-0.77406 -5.58410 1.41009 75 79 77
-0.79108 -5.58997 1.41253 75 80 76
-0.80808 -5.59584 1.41497 73 77 69
-0.82507 -5.60170 1.41740 71 73 70
-0.84205 -5.60756 1.41984 70 70 76
-0.85901 -5.61342 1.42227 73 71 73
-0.87595 -5.61927 1.42470 77 75 72
-0.89288 -5.62511 1.42712 78 77 70
0.80983 -5.01489 1.16454 116 121 133
0.73661 -5.04020 1.17507 116 120 119
0.71835 -5.04652 1.17769 116 121 115
0.70010 -5.05283 1.18032 107 116 118
0.68187 -5.05913 1.18294 108 116 112
0.66366 -5.06543 1.18556 107 114 116
-0.69215 -5.53416 1.38048 76 75 69
-0.70917 -5.54004 1.38293 81 80 77
-0.72618 -5.54592 1.38537 83 83 81
-0.74317 -5.55179 1.38781 80 82 80
-0.76014 -5.55766 1.39025 76 78 75
-0.77711 -5.56353 1.39269 75 78 75
-0.79406 -5.56939 1.39513 78 80 76
-0.81099 -5.57524 1.39757 78 79 71
-0.82791 -5.58109 1.40000 74 74 68
-0.84481 -5.58694 1.40243 70 70 73
-0.86171 -5.59277 1.40486 72 71 73
0.74539 -5.01490 1.15543 111 112 123
0.70901 -5.02750 1.16068 102 109 114
0.69084 -5.03379 1.16330 98 108 115
0.67269 -5.04007 1.16592 109 114 110
0.65455 -5.04635 1.16853 109 113 112
0.63643 -5.05263 1.17114 111 108 114
-0.67855 -5.50795 1.36078 76 73 69
-0.69552 -5.51383 1.36323 75 75 71
-0.71247 -5.51969 1.36568 81 81 80
-0.72940 -5.52556 1.36812 82 83 85
-0.74633 -5.53142 1.37056 78 80 80
-0.76324 -5.53727 1.37300 74 76 70
-0.78013 -5.54312 1.37543 73 77 68
-0.79701 -5.54897 1.37787 77 79 73
-0.81387 -5.55481 1.38030 79 79 72
-0.83072 -5.56064 1.38273 75 75 68
-0.84756 -5.56647 1.38516 71 72 70
0.68166 -5.01490 1.14642 105 107 114
0.66358 -5.02117 1.14904 110 116 116
0.64553 -5.02743 1.15165 112 120 116
0.62749 -5.03369 1.15426 110 111 115
-0.66505 -5.48193 1.34123 77 77 70
-0.68196 -5.48780 1.34368 78 75 74
-0.69886 -5.49366 1.34612 76 75 75
-0.71574 -5.49951 1.34856 78 78 78
-0.73261 -5.50536 1.35100 79 78 80
-0.74946 -5.51121 1.35344 74 76 77
-0.76630 -5.51705 1.35588 70 74 69
-0.78313 -5.52288 1.35831 67 75 62
-0.79994 -5.52871 1.36074 71 76 65
-0.81673 -5.53454 1.36317 77 78 74
0.67255 -4.99617 1.12968 107 116 115
0.60066 -5.02114 1.14011 105 109 107
-0.65165 -5.45610 1.32182 75 77 65
-0.66850 -5.46196 1.32426 74 78 68
-0.68535 -5.46780 1.32671 78 77 78
-0.70217 -5.47365 1.32915 76 75 79
-0.71899 -5.47949 1.33159 75 76 77
-0.73579 -5.48532 1.33403 77 76 74
-0.75257 -5.49115 1.33646 70 74 67
-0.76934 -5.49698 1.33889 65 73 65
-0.78610 -5.50280 1.34133 65 73 62
-0.80284 -5.50862 1.34375 69 76 63
0.60981 -4.99628 1.12090 107 116 118
-0.62152 -5.42460 1.30009 78 80 78
-0.63834 -5.43045 1.30254 82 81 81
-0.65514 -5.43630 1.30499 78 78 68
-0.67193 -5.44214 1.30743 76 79 74
-0.68870 -5.44797 1.30987 79 80 82
-0.70546 -5.45380 1.31231 79 78 79
-0.72221 -5.45963 1.31475 78 79 77
-0.73894 -5.46545 1.31718 78 78 73
-0.75566 -5.47126 1.31961 74 76 64
-0.77236 -5.47707 1.32204 71 75 64
-0.78905 -5.48288 1.32447 72 76 65
0.51226 -5.00874 1.11739 105 106 112
0.49455 -5.01492 1.11997 105 108 109
0.47684 -5.02108 1.12256 109 109 109
-0.60836 -5.39914 1.28095 80 81 78
-0.62512 -5.40498 1.28340 80 81 78
-0.64187 -5.41082 1.28584 80 80 78
-0.65861 -5.41665 1.28829 79 79 75
-0.67533 -5.42247 1.29073 80 80 83
-0.69203 -5.42829 1.29317 81 81 85
-0.70873 -5.43411 1.29560 83 81 80
-0.72540 -5.43992 1.29804 83 81 79
-0.74207 -5.44572 1.30047 80 80 76
-0.75872 -5.45152 1.30290 80 78 72
-0.77535 -5.45732 1.30533 80 77 73
0.50398 -4.99033 1.10103 108 97 118
0.48634 -4.99649 1.10361 106 104 119
0.46871 -5.00264 1.10619 114 115 117
-0.59529 -5.37386 1.26195 79 83 81
-0.61200 -5.37969 1.26439 87 86 85
-0.62870 -5.38552 1.26684 85 83 80
-0.64538 -5.39134 1.26928 77 78 73
-0.66204 -5.39715 1.27172 75 78 74
-0.67870 -5.40296 1.27416 78 80 80
-0.69534 -5.40877 1.27659 78 78 79
-0.71196 -5.41457 1.27903 79 78 79
-0.72857 -5.42037 1.28146 81 79 80
-0.74517 -5.42616 1.28389 80 79 75
-0.76176 -5.43194 1.28632 79 76 73
0.49577 -4.97207 1.08480 115 112 119
0.47820 -4.97821 1.08738 104 98 105
0.46065 -4.98434 1.08996 105 107 114
-0.58232 -5.34876 1.24308 74 79 84
-0.59897 -5.35458 1.24552 79 84 86
-0.61561 -5.36040 1.24797 89 88 87
-0.63224 -5.36621 1.25041 85 82 80
-0.64886 -5.37201 1.25285 74 73 71
-0.66546 -5.37781 1.25528 73 75 73
-0.68204 -5.38361 1.25772 78 80 77
-0.69862 -5.38940 1.26015 79 79 75
-0.71517 -5.39519 1.26258 79 78 76
-0.73172 -5.40097 1.26501 80 80 77
-0.74825 -5.40674 1.26744 79 79 72
0.48762 -4.95395 1.06870 112 117 117
0.47012 -4.96008 1.07128 112 113 105
0.45265 -4.96619 1.07385 111 104 112
-0.56943 -5.32384 1.22434 75 76 78
-0.58603 -5.32965 1.22678 78 80 87
-0.60262 -5.33545 1.22922 81 80 84
-0.61920 -5.34125 1.23167 85 82 83
-0.63576 -5.34705 1.23410 81 78 78
-0.65231 -5.35284 1.23654 75 73 73
-0.66884 -5.35862 1.23897 78 75 74
-0.68536 -5.36440 1.24141 81 79 75
-0.70187 -5.37018 1.24384 83 82 79
-0.71836 -5.37595 1.24627 84 83 80
-0.73484 -5.38172 1.24869 83 84 79
0.47953 -4.93598 1.05273 113 120 118
0.46211 -4.94209 1.05531 117 120 113
-0.54007 -5.29328 1.20328 83 81 75
-0.55664 -5.29909 1.20573 82 81 74
-0.57319 -5.30489 1.20817 78 81 76
-0.58972 -5.31068 1.21061 82 81 81
-0.60624 -5.31647 1.21305 79 79 75
-0.62275 -5.32226 1.21549 80 81 78
-0.63925 -5.32804 1.21793 76 80 77
-0.65573 -5.33381 1.22036 74 78 74
-0.67220 -5.33958 1.22279 82 78 75
-0.68865 -5.34535 1.22522 84 79 72
-0.70510 -5.35111 1.22765 80 79 76
0.68082 -4.84470 1.00590 117 119 114
0.66330 -4.85085 1.00850 121 128 112
0.48888 -4.91206 1.03432 109 113 114
0.47151 -4.91816 1.03689 114 120 116
0.45417 -4.92424 1.03946 120 124 121
-0.56043 -5.28030 1.18969 79 80 75
-0.57691 -5.28608 1.19213 79 82 78
-0.59338 -5.29186 1.19457 85 84 82
-0.60984 -5.29764 1.19701 78 80 71
-0.62628 -5.30341 1.19944 74 81 73
-0.64271 -5.30917 1.20188 71 80 73
-0.65913 -5.31493 1.20431 74 81 75
-0.67553 -5.32069 1.20674 83 81 76
-0.69192 -5.32644 1.20916 85 79 75
0.67199 -4.82722 0.99023 111 119 108
0.65454 -4.83335 0.99282 119 127 118
0.49815 -4.88831 1.01604 116 114 114
0.48085 -4.89439 1.01861 111 114 114
0.46356 -4.90047 1.02118 115 120 118
0.44628 -4.90654 1.02374 120 124 123
-0.59701 -5.27319 1.17865 81 83 82
-0.61341 -5.27895 1.18109 82 83 77
-0.62978 -5.28470 1.18352 79 80 75
-0.64615 -5.29046 1.18595 78 81 77
-0.66250 -5.29620 1.18838 81 83 79
-0.67884 -5.30194 1.19080 84 82 79
0.49012 -4.87080 1.00046 115 116 116
0.47288 -4.87686 1.00302 113 117 112
0.45567 -4.88292 1.00559 116 122 126
0.43846 -4.88898 1.00815 117 123 126
-0.60062 -5.25466 1.16286 83 85 80
-0.61694 -5.26040 1.16529 85 86 79
-0.63326 -5.26615 1.16772 82 82 75
-0.64956 -5.27188 1.17015 81 82 78
0.46498 -4.85947 0.98756 119 118 109
0.44784 -4.86551 0.99012 120 122 120
-0.07667 -5.05036 1.06843 85 87 68
-0.09337 -5.05624 1.07092 75 71 58
-0.11005 -5.06212 1.07341 104 107 108
-0.60419 -5.23627 1.14718 85 88 78
0.83644 -4.70836 0.91544 110 120 119
0.81905 -4.71450 0.91804 118 126 122
-0.08231 -5.03259 1.05297 86 91 78
-0.09894 -5.03846 1.05546 84 85 70
-0.11555 -5.04432 1.05795 77 85 88
-0.13215 -5.05018 1.06043 95 96 100
0.86178 -4.67935 0.89509 115 117 119
0.84443 -4.68548 0.89769 117 118 121
0.82709 -4.69161 0.90030 115 122 119
0.80977 -4.69773 0.90290 117 126 117
0.79247 -4.70385 0.90549 118 120 119
-0.08790 -5.01496 1.03764 90 96 95
-0.10447 -5.02082 1.04012 86 86 86
-0.12101 -5.02666 1.04261 83 86 84
-0.13755 -5.03251 1.04509 84 82 82
0.88696 -4.65052 0.87487 117 119 121
0.86965 -4.65665 0.87748 114 117 121
0.85236 -4.66277 0.88008 113 116 121
0.83508 -4.66888 0.88268 115 119 121
0.81782 -4.67499 0.88528 113 119 117
0.80057 -4.68110 0.88787 107 113 111
0.78334 -4.68719 0.89047 102 107 111
0.76612 -4.69329 0.89306 113 122 126
0.74891 -4.69938 0.89565 124 134 130
-0.10995 -5.00331 1.02490 92 94 83
-0.12643 -5.00914 1.02738 87 90 80
-0.14290 -5.01497 1.02986 89 91 84
0.89472 -4.62799 0.85738 111 117 118
0.87747 -4.63411 0.85998 117 118 122
0.86024 -4.64021 0.86259 115 117 119
0.84302 -4.64631 0.86518 111 117 113
0.82581 -4.65241 0.86778 114 120 117
0.80862 -4.65850 0.87037 116 122 120
0.79144 -4.66459 0.87297 111 117 112
0.77428 -4.67067 0.87556 107 112 113
0.75713 -4.67675 0.87814 115 123 127
0.88524 -4.61172 0.84262 111 118 122
0.86806 -4.61781 0.84521 119 120 121
0.85090 -4.62390 0.84781 118 118 117
0.83375 -4.62999 0.85041 110 116 113
0.81661 -4.63607 0.85300 114 120 119
0.79949 -4.64214 0.85559 120 123 121
0.78238 -4.64821 0.85818 117 118 110
0.76529 -4.65428 0.86076 118 120 114
0.74821 -4.66034 0.86334 122 129 131
0.87583 -4.59557 0.82796 108 115 120
0.85872 -4.60165 0.83056 117 120 118
0.84163 -4.60772 0.83315 115 116 116
0.82455 -4.61379 0.83574 110 114 118
0.80748 -4.61985 0.83833 112 117 126
0.79043 -4.62591 0.84092 118 123 131
0.77340 -4.63196 0.84350 117 122 122
0.75637 -4.63801 0.84608 122 126 124
0.73937 -4.64405 0.84866 124 130 133
0.86649 -4.57955 0.81343 108 111 115
0.84945 -4.58561 0.81602 110 115 115
0.83243 -4.59167 0.81861 110 115 114
0.81542 -4.59772 0.82119 109 114 116
0.79843 -4.60376 0.82378 112 116 122
0.78145 -4.60980 0.82636 117 121 124
0.76448 -4.61584 0.82894 113 120 122
0.74753 -4.62187 0.83152 118 125 130
0.90821 -4.54549 0.79123 112 115 110
0.89120 -4.55155 0.79382 111 117 111
0.87421 -4.55760 0.79641 109 118 112
0.85722 -4.56365 0.79900 112 117 112
0.84026 -4.56969 0.80159 108 116 114
0.82330 -4.57573 0.80417 106 115 115
0.80636 -4.58177 0.80675 110 115 118
0.78944 -4.58780 0.80933 119 122 120
0.77253 -4.59382 0.81191 123 125 118
0.75563 -4.59984 0.81449 117 120 120
0.73875 -4.60586 0.81706 118 125 129
0.91576 -4.52372 0.77434 108 113 115
0.89881 -4.52976 0.77693 111 115 112
0.88187 -4.53580 0.77952 112 113 112
0.86494 -4.54184 0.78210 108 112 113
0.84803 -4.54787 0.78469 113 120 112
0.83113 -4.55390 0.78727 113 123 120
0.81425 -4.55992 0.78985 112 121 121
0.79738 -4.56594 0.79243 115 122 121
0.78052 -4.57195 0.79500 121 125 123
0.76368 -4.57796 0.79758 124 126 122
0.74685 -4.58396 0.80015 121 125 127
0.73003 -4.58996 0.80272 120 129 135
0.92326 -4.50209 0.75756 114 122 117
0.90636 -4.50813 0.76015 110 114 119
0.88948 -4.51416 0.76273 108 113 117
0.87261 -4.52018 0.76532 112 115 117
0.85575 -4.52620 0.76790 105 109 112
0.83891 -4.53222 0.77048 103 107 105
0.82208 -4.53823 0.77306 108 117 118
0.80526 -4.54423 0.77564 115 124 123
0.78846 -4.55024 0.77821 118 125 120
0.77167 -4.55623 0.78078 120 126 125
0.75490 -4.56222 0.78335 123 126 129
0.73813 -4.56821 0.78592 122 127 133
0.93071 -4.48062 0.74090 111 119 113
0.91387 -4.48664 0.74348 113 119 118
0.89704 -4.49266 0.74607 110 113 116
0.88022 -4.49867 0.74865 106 113 113
0.86342 -4.50468 0.75123 110 114 107
0.84663 -4.51068 0.75381 106 112 106
0.82985 -4.51668 0.75639 102 105 102
0.81309 -4.52268 0.75896 105 109 114
0.79634 -4.52867 0.76153 112 117 121
0.77961 -4.53465 0.76410 117 121 118
0.76289 -4.54063 0.76667 119 124 121
0.74618 -4.54660 0.76924 122 126 127
0.72949 -4.55257 0.77180 118 123 128
0.92132 -4.46530 0.72693 105 111 116
0.90454 -4.47131 0.72952 109 114 118
0.88778 -4.47731 0.73210 110 116 116
0.87103 -4.48330 0.73467 111 120 114
0.85430 -4.48930 0.73725 113 121 109
0.83758 -4.49528 0.73982 114 121 108
0.82087 -4.50127 0.74240 111 116 107
0.80417 -4.50724 0.74497 111 118 113
0.78749 -4.51321 0.74753 117 122 122
0.77083 -4.51918 0.75010 117 120 119
0.75417 -4.52515 0.75266 117 123 120
0.73753 -4.53110 0.75523 120 127 128
0.92872 -4.44410 0.71049 108 116 116
0.91200 -4.45010 0.71307 105 114 118
0.89529 -4.45609 0.71565 108 116 121
0.87860 -4.46207 0.71823 111 119 119
0.86192 -4.46805 0.72080 114 122 115
0.84525 -4.47403 0.72338 120 127 120
0.82859 -4.48000 0.72595 121 128 122
0.81195 -4.48596 0.72851 116 124 115
0.79532 -4.49193 0.73108 113 122 110
0.77871 -4.49788 0.73364 117 124 118
0.76211 -4.50383 0.73620 117 122 120
0.74552 -4.50978 0.73876 116 123 120
0.71239 -4.52166 0.74388 115 120 127
0.69584 -4.52759 0.74643 115 122 126
0.67930 -4.53352 0.74898 123 129 130
0.66278 -4.53944 0.75153 126 126 126
0.64628 -4.54536 0.75408 125 126 121
0.62978 -4.55127 0.75662 118 122 120
0.93607 -4.42305 0.69417 111 121 116
0.91940 -4.42903 0.69675 113 120 117
0.90275 -4.43501 0.69932 111 120 119
0.88611 -4.44098 0.70190 111 119 124
0.86948 -4.44695 0.70447 113 121 121
0.85287 -4.45292 0.70704 116 122 119
0.83627 -4.45888 0.70961 120 124 124
0.81968 -4.46483 0.71217 122 127 131
0.80310 -4.47078 0.71473 119 125 124
0.78654 -4.47672 0.71730 114 120 114
0.76999 -4.48266 0.71986 114 119 116
0.75346 -4.48860 0.72241 114 120 116
0.72043 -4.50045 0.72752 119 124 124
0.70393 -4.50637 0.73007 120 124 126
0.68745 -4.51229 0.73262 118 126 128
0.67098 -4.51820 0.73517 121 132 133
0.65453 -4.52411 0.73772 127 131 122
0.63808 -4.53001 0.74026 121 119 105
0.62165 -4.53591 0.74280 115 116 110
0.60524 -4.54180 0.74534 112 115 113
0.58884 -4.54769 0.74788 109 115 117
0.94338 -4.40214 0.67795 110 117 117
0.92676 -4.40811 0.68053 117 122 121
0.91016 -4.41408 0.68310 118 123 117
0.89357 -4.42004 0.68567 117 123 116
0.87700 -4.42600 0.68824 114 118 119
0.86043 -4.43195 0.69081 110 116 117
0.84389 -4.43789 0.69338 112 122 125
0.82735 -4.44384 0.69594 113 120 127
0.81083 -4.44977 0.69850 114 121 129
0.79432 -4.45571 0.70106 119 123 127
0.77782 -4.46164 0.70362 117 121 124
0.76134 -4.46756 0.70617 115 123 123
0.72842 -4.47939 0.71128 120 125 121
0.67913 -4.49711 0.71892 119 128 128
0.66272 -4.50300 0.72146 121 131 127
0.64633 -4.50889 0.72400 126 136 127
0.62995 -4.51478 0.72654 123 129 119
0.61359 -4.52066 0.72908 116 117 109
0.93407 -4.38733 0.66442 115 120 120
0.91752 -4.39328 0.66699 124 127 126
0.90098 -4.39923 0.66956 118 124 119
0.88446 -4.40518 0.67213 114 122 116
0.86795 -4.41112 0.67469 113 118 115
0.85145 -4.41705 0.67725 107 112 115
0.83497 -4.42299 0.67982 109 118 125
0.81850 -4.42891 0.68238 107 116 127
0.80205 -4.43483 0.68493 106 114 122
0.78560 -4.44075 0.68749 116 120 123
0.75275 -4.45257 0.69259 121 128 130
0.73635 -4.45847 0.69514 125 132 130
0.67086 -4.48204 0.70532 118 121 121
0.65452 -4.48791 0.70786 112 117 116
0.63820 -4.49379 0.71040 111 119 124
0.62189 -4.49966 0.71293 120 132 133
0.60558 -4.50552 0.71546 123 130 125
0.94132 -4.36669 0.64841 112 118 112
0.92483 -4.37263 0.65098 115 118 110
0.90834 -4.37857 0.65355 122 127 121
0.89187 -4.38450 0.65612 115 120 119
0.87542 -4.39043 0.65868 112 119 122
0.85897 -4.39635 0.66124 113 119 123
