ply
format ascii 1.0
element face 0
property list uchar int vertex_indices
element vertex 1227
property float x
property float y
property float z
property uchar diffuse_red
property uchar diffuse_green
property uchar diffuse_blue
end_header
-3.01973 -3.91160 -0.36118 174 169 174
-3.03283 -3.91889 -0.35699 172 172 173
-3.04592 -3.92616 -0.35281 174 171 162
-3.05899 -3.93343 -0.34864 174 171 162
-3.07206 -3.94069 -0.34446 181 178 171
-3.08511 -3.94795 -0.34029 186 187 178
-3.09815 -3.95520 -0.33613 182 189 180
-3.11118 -3.96244 -0.33196 179 185 173
-3.12420 -3.96968 -0.32780 177 179 165
-3.13721 -3.97691 -0.32365 169 169 161
-3.15020 -3.98414 -0.31950 163 158 150
-3.16319 -3.99135 -0.31535 160 149 145
-3.17617 -3.99857 -0.31120 161 154 162
-3.18913 -4.00577 -0.30706 173 179 176
-3.20208 -4.01297 -0.30293 184 195 182
-3.21502 -4.02017 -0.29879 179 187 173
-3.22795 -4.02736 -0.29466 169 171 171
-3.24087 -4.03454 -0.29053 163 167 177
-3.25378 -4.04171 -0.28641 185 192 177
-3.26667 -4.04888 -0.28229 192 196 170
-3.27956 -4.05604 -0.27817 178 184 179
-3.29243 -4.06320 -0.27406 173 175 180
-3.30530 -4.07035 -0.26995 182 191 196
-3.31815 -4.07750 -0.26585 175 180 174
-3.33099 -4.08463 -0.26174 174 187 181
-3.34382 -4.09177 -0.25765 167 168 166
-3.35664 -4.09889 -0.25355 179 183 181
-3.36945 -4.10601 -0.24946 181 188 171
-3.38224 -4.11313 -0.24537 175 172 180
-3.39503 -4.12023 -0.24129 159 163 179
-3.40780 -4.12734 -0.23720 165 169 181
-3.42057 -4.13443 -0.23313 170 171 178
-3.44606 -4.14861 -0.22498 201 204 203
-3.45879 -4.15568 -0.22091 209 215 198
-3.47151 -4.16275 -0.21685 184 191 186
-3.48422 -4.16982 -0.21279 175 176 181
-3.49692 -4.17688 -0.20873 180 178 187
-3.50961 -4.18393 -0.20468 181 180 187
-3.52229 -4.19098 -0.20063 184 189 190
-3.53495 -4.19802 -0.19658 198 202 190
-3.54761 -4.20506 -0.19254 194 194 194
-3.56025 -4.21209 -0.18850 188 195 194
-3.57289 -4.21911 -0.18447 182 193 189
-3.58551 -4.22613 -0.18043 180 193 194
-3.59812 -4.23314 -0.17640 190 210 206
-3.61073 -4.24014 -0.17238 198 212 200
-3.62332 -4.24714 -0.16836 189 193 191
-3.63590 -4.25414 -0.16434 194 197 191
-3.64847 -4.26112 -0.16032 201 206 192
-3.66103 -4.26811 -0.15631 188 192 196
-3.67357 -4.27508 -0.15230 191 196 198
-3.68611 -4.28205 -0.14830 195 204 200
-3.69864 -4.28901 -0.14429 198 208 204
-3.71115 -4.29597 -0.14030 205 212 204
-3.72366 -4.30292 -0.13630 201 209 202
-3.73616 -4.30987 -0.13231 191 196 205
-3.74864 -4.31681 -0.12832 197 207 207
-3.76111 -4.32374 -0.12434 200 210 212
-3.77358 -4.33067 -0.12035 195 208 217
-3.78603 -4.33760 -0.11638 188 197 203
-3.79847 -4.34451 -0.11240 182 186 197
-3.81090 -4.35142 -0.10843 189 202 191
-3.82333 -4.35833 -0.10446 186 186 176
-3.83574 -4.36523 -0.10050 186 193 194
-3.84814 -4.37212 -0.09653 193 206 208
-3.86053 -4.37901 -0.09258 195 203 205
-3.87291 -4.38589 -0.08862 186 196 204
-3.88528 -4.39277 -0.08467 195 202 208
-3.89763 -4.39964 -0.08072 187 195 205
-3.90998 -4.40650 -0.07678 197 203 208
-3.92232 -4.41336 -0.07284 204 207 202
-3.93465 -4.42021 -0.06890 195 197 193
-3.94697 -4.42706 -0.06496 182 189 191
-3.95927 -4.43390 -0.06103 183 197 195
-3.97157 -4.44074 -0.05710 188 205 204
-3.98385 -4.44757 -0.05318 182 200 205
-3.99613 -4.45439 -0.04926 191 206 208
-4.00840 -4.46121 -0.04534 210 218 215
-4.02065 -4.46802 -0.04142 206 212 214
-4.03290 -4.47483 -0.03751 197 207 206
-4.04513 -4.48163 -0.03360 197 211 203
-4.05735 -4.48843 -0.02970 191 200 203
-4.06957 -4.49522 -0.02580 185 192 199
-4.08177 -4.50200 -0.02190 193 203 202
-4.09397 -4.50878 -0.01800 200 214 200
-4.10615 -4.51555 -0.01411 192 203 186
-4.11832 -4.52232 -0.01022 180 189 184
-4.13049 -4.52908 -0.00633 197 216 218
-4.14264 -4.53584 -0.00245 198 210 222
-4.15478 -4.54259 0.00143 203 219 219
-4.16691 -4.54933 0.00530 204 212 208
-4.17904 -4.55607 0.00918 197 211 202
-4.19115 -4.56281 0.01305 176 194 197
-4.20325 -4.56953 0.01691 193 212 222
-4.21534 -4.57626 0.02077 210 214 219
-4.22743 -4.58297 0.02463 211 209 218
-4.23950 -4.58968 0.02849 202 205 212
-4.25156 -4.59639 0.03234 202 209 215
-4.26361 -4.60309 0.03619 212 212 215
-4.27566 -4.60978 0.04004 205 207 208
-4.34770 -4.64983 0.06306 214 226 231
-4.35967 -4.65649 0.06688 211 221 227
-4.37163 -4.66314 0.07070 204 217 227
-4.38358 -4.66978 0.07452 205 222 234
-4.39553 -4.67642 0.07834 208 224 236
-2.27110 -3.47833 -0.61502 188 182 179
-2.28481 -3.48596 -0.61063 190 183 177
-2.29851 -3.49359 -0.60625 178 166 168
-2.31220 -3.50120 -0.60187 175 166 167
-2.32588 -3.50881 -0.59749 183 183 178
-2.33954 -3.51642 -0.59312 181 177 170
-2.35319 -3.52401 -0.58875 181 175 168
-2.36683 -3.53160 -0.58439 184 180 166
-2.43485 -3.56945 -0.56263 187 192 180
-2.44842 -3.57700 -0.55829 183 183 173
-2.46197 -3.58455 -0.55395 173 159 157
-2.47552 -3.59208 -0.54962 168 155 150
-2.48905 -3.59961 -0.54529 181 180 185
-2.50257 -3.60714 -0.54096 189 184 177
-2.51608 -3.61465 -0.53664 189 180 179
-2.52957 -3.62216 -0.53232 189 185 190
-2.54306 -3.62967 -0.52801 172 165 166
-2.55653 -3.63716 -0.52370 174 169 176
-2.56999 -3.64465 -0.51939 187 183 179
-2.58344 -3.65214 -0.51509 172 175 175
-2.59688 -3.65962 -0.51079 170 172 175
-2.61030 -3.66709 -0.50649 182 184 179
-2.62372 -3.67455 -0.50220 186 181 178
-2.63712 -3.68201 -0.49792 192 187 180
-2.65051 -3.68946 -0.49363 193 190 178
-2.66389 -3.69690 -0.48935 178 179 179
-2.67725 -3.70434 -0.48507 185 178 177
-2.69061 -3.71177 -0.48080 190 185 180
-2.70395 -3.71920 -0.47653 189 179 173
-2.71728 -3.72662 -0.47227 182 185 182
-2.73060 -3.73403 -0.46801 187 188 186
-2.74391 -3.74143 -0.46375 194 189 181
-2.75721 -3.74883 -0.45949 181 176 156
-2.77049 -3.75623 -0.45524 185 189 181
-2.78377 -3.76361 -0.45100 188 194 180
-2.79703 -3.77099 -0.44675 188 186 181
-2.81028 -3.77836 -0.44251 182 175 182
-2.82352 -3.78573 -0.43828 181 187 193
-2.83674 -3.79309 -0.43405 185 197 190
-2.84996 -3.80045 -0.42982 181 187 181
-2.86317 -3.80779 -0.42559 184 188 176
-2.87636 -3.81514 -0.42137 184 184 181
-2.88954 -3.82247 -0.41716 191 200 194
-2.90271 -3.82980 -0.41294 196 202 186
-2.91587 -3.83712 -0.40873 190 191 179
-2.92902 -3.84444 -0.40453 185 185 177
-2.94215 -3.85175 -0.40032 177 179 180
-2.95528 -3.85905 -0.39612 168 168 180
-2.96839 -3.86635 -0.39193 171 172 175
-2.98149 -3.87364 -0.38774 181 181 179
-2.99458 -3.88092 -0.38355 178 181 177
-3.00766 -3.88820 -0.37936 173 175 173
-3.02073 -3.89547 -0.37518 173 172 173
-3.03378 -3.90274 -0.37101 170 174 173
-3.04683 -3.91000 -0.36683 174 179 173
-3.05986 -3.91725 -0.36266 184 184 169
-3.07289 -3.92450 -0.35850 176 175 159
-3.08590 -3.93174 -0.35433 175 178 170
-3.09890 -3.93897 -0.35017 180 184 183
-3.11189 -3.94620 -0.34602 170 171 165
-3.12486 -3.95342 -0.34187 164 166 160
-3.13783 -3.96063 -0.33772 163 168 164
-3.15079 -3.96784 -0.33357 170 178 169
-3.16373 -3.97505 -0.32943 172 180 177
-3.17666 -3.98224 -0.32529 163 163 157
-3.18958 -3.98943 -0.32116 167 166 158
-3.20250 -3.99662 -0.31703 184 187 181
-3.21540 -4.00380 -0.31290 181 186 174
-3.22828 -4.01097 -0.30878 161 169 157
-3.24116 -4.01813 -0.30466 155 168 165
-3.25403 -4.02529 -0.30054 163 171 172
-3.26688 -4.03245 -0.29643 179 191 178
-3.27973 -4.03960 -0.29232 178 184 170
-3.29256 -4.04674 -0.28821 174 182 169
-3.30538 -4.05387 -0.28411 157 168 170
-3.31820 -4.06100 -0.28001 178 180 176
-3.33100 -4.06812 -0.27592 191 192 186
-3.34379 -4.07524 -0.27183 190 193 186
-3.35656 -4.08235 -0.26774 183 187 173
-3.36933 -4.08946 -0.26365 177 176 174
-3.38209 -4.09655 -0.25957 163 161 176
-3.39483 -4.10365 -0.25549 164 171 182
-3.40757 -4.11073 -0.25142 174 178 175
-3.42029 -4.11781 -0.24735 169 174 176
-3.43301 -4.12489 -0.24328 177 173 167
-3.45840 -4.13902 -0.23516 205 212 212
-3.47108 -4.14608 -0.23110 217 224 215
-3.48375 -4.15313 -0.22705 189 193 189
-3.49641 -4.16017 -0.22300 177 176 185
-3.50906 -4.16721 -0.21895 194 194 202
-3.52170 -4.17424 -0.21491 195 197 202
-3.53432 -4.18127 -0.21087 191 194 192
-3.54694 -4.18829 -0.20683 192 197 190
-3.55955 -4.19530 -0.20280 189 196 193
-3.57214 -4.20231 -0.19877 180 182 181
-3.58473 -4.20931 -0.19474 172 176 179
-3.59730 -4.21631 -0.19072 173 179 179
-3.60986 -4.22330 -0.18670 186 193 195
-3.62241 -4.23029 -0.18268 193 202 203
-3.63496 -4.23727 -0.17867 184 193 197
-3.64749 -4.24424 -0.17466 189 196 196
-3.66001 -4.25120 -0.17066 205 211 208
-3.67252 -4.25817 -0.16665 206 213 217
-3.68501 -4.26512 -0.16265 203 209 210
-3.69750 -4.27207 -0.15866 199 209 209
-3.70998 -4.27901 -0.15467 195 209 212
-3.72245 -4.28595 -0.15068 197 206 208
-3.73491 -4.29288 -0.14669 198 212 211
-3.74735 -4.29981 -0.14271 187 204 209
-3.75979 -4.30673 -0.13873 198 206 200
-3.77221 -4.31364 -0.13476 200 205 202
-3.78463 -4.32055 -0.13078 188 195 188
-3.79703 -4.32745 -0.12682 184 188 190
-3.80943 -4.33435 -0.12285 192 202 198
-3.82181 -4.34124 -0.11889 195 201 196
-3.83418 -4.34813 -0.11493 197 207 194
-3.84655 -4.35501 -0.11097 200 206 197
-3.85890 -4.36188 -0.10702 199 203 203
-3.87124 -4.36875 -0.10307 190 185 184
-3.88357 -4.37561 -0.09913 166 188 183
-3.89589 -4.38247 -0.09519 181 195 192
-3.90820 -4.38932 -0.09125 184 195 203
-3.92050 -4.39616 -0.08731 195 206 208
-3.93279 -4.40300 -0.08338 201 208 208
-3.94507 -4.40983 -0.07945 205 214 207
-3.95734 -4.41666 -0.07553 193 201 187
-3.96960 -4.42348 -0.07160 192 195 188
-3.98185 -4.43030 -0.06768 194 195 196
-3.99409 -4.43711 -0.06377 185 190 197
-4.00632 -4.44391 -0.05986 184 193 202
-4.01854 -4.45071 -0.05595 195 202 207
-4.03075 -4.45751 -0.05204 202 206 208
-4.04295 -4.46429 -0.04814 201 207 209
-4.05513 -4.47108 -0.04424 195 203 207
-4.06731 -4.47785 -0.04034 189 195 196
-4.07948 -4.48462 -0.03645 187 196 195
-4.09163 -4.49139 -0.03256 190 206 205
-4.10378 -4.49815 -0.02868 202 218 211
-4.11592 -4.50490 -0.02479 199 213 206
-4.12805 -4.51165 -0.02091 197 206 199
-4.14016 -4.51839 -0.01704 202 210 210
-4.15227 -4.52513 -0.01316 194 201 209
-4.16437 -4.53186 -0.00929 198 207 211
-4.17645 -4.53859 -0.00543 203 210 213
-4.18853 -4.54531 -0.00156 204 212 209
-4.20060 -4.55202 0.00230 190 200 194
-4.21265 -4.55873 0.00616 193 202 213
-4.22470 -4.56543 0.01001 202 211 214
-4.23674 -4.57213 0.01386 192 209 225
-4.24876 -4.57882 0.01771 199 213 216
-4.26078 -4.58551 0.02155 199 211 218
-4.27278 -4.59219 0.02539 211 222 221
-4.28478 -4.59887 0.02923 214 216 207
-4.29677 -4.60554 0.03307 206 208 215
-4.39230 -4.65870 0.06363 194 201 218
-4.40420 -4.66532 0.06744 202 217 235
-4.42797 -4.67855 0.07504 219 230 241
-2.27455 -3.46326 -0.62850 186 187 187
-2.28821 -3.47087 -0.62412 187 183 181
-2.30187 -3.47848 -0.61975 188 185 182
-2.31551 -3.48608 -0.61537 178 172 181
-2.32914 -3.49367 -0.61101 171 163 173
-2.34276 -3.50125 -0.60664 179 180 179
-2.35637 -3.50883 -0.60228 179 176 170
-2.36996 -3.51641 -0.59793 183 177 161
-2.38354 -3.52397 -0.59358 183 178 165
-2.43775 -3.55417 -0.57621 181 179 177
-2.45127 -3.56170 -0.57187 186 187 180
-2.46479 -3.56922 -0.56755 186 186 180
-2.47828 -3.57674 -0.56322 173 171 167
-2.49177 -3.58426 -0.55890 166 158 146
-2.50525 -3.59176 -0.55458 182 175 179
-2.51871 -3.59926 -0.55027 180 177 173
-2.53216 -3.60675 -0.54596 190 181 179
-2.54560 -3.61424 -0.54165 180 178 177
-2.55903 -3.62172 -0.53735 163 151 149
-2.57245 -3.62919 -0.53305 175 177 179
-2.58585 -3.63666 -0.52876 194 192 175
-2.59924 -3.64412 -0.52446 184 185 173
-2.61262 -3.65157 -0.52018 178 171 165
-2.62599 -3.65902 -0.51589 177 179 173
-2.63935 -3.66646 -0.51161 181 175 169
-2.65270 -3.67389 -0.50734 193 188 183
-2.66603 -3.68132 -0.50306 197 194 180
-2.67935 -3.68874 -0.49880 182 179 175
-2.69267 -3.69616 -0.49453 189 184 181
-2.70597 -3.70356 -0.49027 191 183 179
-2.71925 -3.71097 -0.48601 198 193 173
-2.73253 -3.71836 -0.48176 194 188 183
-2.74580 -3.72575 -0.47751 183 181 186
-2.75905 -3.73313 -0.47326 188 189 174
-2.77229 -3.74051 -0.46902 182 187 157
-2.78552 -3.74788 -0.46478 183 189 174
-2.79874 -3.75524 -0.46054 181 178 153
-2.81195 -3.76260 -0.45631 178 161 157
-2.82514 -3.76995 -0.45208 182 175 176
-2.83833 -3.77729 -0.44786 182 183 184
-2.85150 -3.78463 -0.44364 179 183 183
-2.86466 -3.79196 -0.43942 173 174 179
-2.87781 -3.79928 -0.43521 185 188 182
-2.89095 -3.80660 -0.43100 187 184 177
-2.90408 -3.81392 -0.42679 184 182 176
-2.91720 -3.82122 -0.42259 189 196 194
-2.93030 -3.82852 -0.41839 190 193 186
-2.94339 -3.83581 -0.41420 187 180 172
-2.95648 -3.84310 -0.41000 188 182 176
-2.96955 -3.85038 -0.40582 178 175 178
-2.98261 -3.85766 -0.40163 174 177 179
-2.99566 -3.86492 -0.39745 185 185 177
-3.00869 -3.87219 -0.39327 170 177 157
-3.02172 -3.87944 -0.38910 154 157 150
-3.03473 -3.88669 -0.38493 161 157 168
-3.04774 -3.89393 -0.38076 174 171 176
-3.06073 -3.90117 -0.37660 175 177 171
-3.07371 -3.90840 -0.37244 182 186 177
-3.08668 -3.91563 -0.36829 186 190 179
-3.09964 -3.92284 -0.36413 180 184 178
-3.11259 -3.93006 -0.35999 178 175 167
-3.12552 -3.93726 -0.35584 171 159 153
-3.13845 -3.94446 -0.35170 170 162 163
-3.15136 -3.95165 -0.34756 178 180 176
-3.16426 -3.95884 -0.34343 180 182 181
-3.17716 -3.96602 -0.33930 170 170 182
-3.19004 -3.97320 -0.33517 163 169 171
-3.20291 -3.98037 -0.33105 168 176 169
-3.21577 -3.98753 -0.32693 177 183 182
-3.22861 -3.99468 -0.32281 180 186 176
-3.24145 -4.00183 -0.31870 176 178 161
-3.25428 -4.00898 -0.31459 176 177 160
-3.26709 -4.01612 -0.31048 191 188 163
-3.27990 -4.02325 -0.30638 173 179 172
-3.29269 -4.03038 -0.30228 165 176 178
-3.30547 -4.03749 -0.29818 183 193 172
-3.31824 -4.04461 -0.29409 166 165 163
-3.33100 -4.05172 -0.29000 158 156 161
-3.34375 -4.05882 -0.28592 166 164 171
-3.35649 -4.06591 -0.28184 179 178 177
-3.36922 -4.07300 -0.27776 194 203 196
-3.38194 -4.08009 -0.27368 184 185 181
-3.39464 -4.08716 -0.26961 164 162 164
-3.40734 -4.09423 -0.26554 162 168 168
-3.42002 -4.10130 -0.26148 167 177 179
-3.43270 -4.10836 -0.25742 165 182 177
-3.44536 -4.11541 -0.25336 173 178 166
-3.47065 -4.12950 -0.24526 201 204 203
-3.48328 -4.13654 -0.24121 210 220 220
-3.49590 -4.14357 -0.23717 206 203 198
-3.50851 -4.15059 -0.23313 203 201 195
-3.52111 -4.15761 -0.22909 200 199 203
-3.53370 -4.16462 -0.22506 198 198 202
-3.54628 -4.17163 -0.22103 195 195 196
-3.55884 -4.17862 -0.21700 192 193 194
-3.57140 -4.18562 -0.21298 198 208 202
-3.58394 -4.19261 -0.20896 198 209 204
-3.59648 -4.19959 -0.20494 200 208 203
-3.60900 -4.20656 -0.20093 199 210 203
-3.62152 -4.21353 -0.19692 195 206 201
-3.63402 -4.22050 -0.19291 184 193 193
-3.64651 -4.22746 -0.18891 171 183 193
-3.65899 -4.23441 -0.18491 178 194 201
-3.67146 -4.24136 -0.18092 194 206 210
-3.68393 -4.24830 -0.17692 195 202 213
-3.69638 -4.25523 -0.17293 190 199 205
-3.70882 -4.26216 -0.16895 191 198 201
-3.72125 -4.26908 -0.16497 192 195 195
-3.73366 -4.27600 -0.16099 199 205 199
-3.74607 -4.28291 -0.15701 203 209 203
-3.75847 -4.28982 -0.15304 196 205 201
-3.77086 -4.29672 -0.14907 196 209 197
-3.78323 -4.30361 -0.14510 185 196 199
-3.79560 -4.31050 -0.14114 177 193 190
-3.80796 -4.31738 -0.13718 185 197 191
-3.82030 -4.32426 -0.13323 192 200 198
-3.83264 -4.33113 -0.12927 193 213 201
-3.84496 -4.33800 -0.12533 194 199 202
-3.85728 -4.34486 -0.12138 206 213 212
-3.86958 -4.35171 -0.11744 207 214 213
-3.88188 -4.35856 -0.11350 197 195 190
-3.89416 -4.36540 -0.10956 173 194 187
-3.90644 -4.37224 -0.10563 183 196 190
-3.91870 -4.37907 -0.10170 201 217 215
-3.93095 -4.38589 -0.09777 201 215 210
-3.94320 -4.39271 -0.09385 195 205 209
-3.95543 -4.39953 -0.08993 204 216 215
-3.96765 -4.40633 -0.08602 208 218 210
-3.97986 -4.41314 -0.08210 194 200 202
-3.99207 -4.41993 -0.07819 188 198 199
-4.00426 -4.42672 -0.07429 193 204 200
-4.01644 -4.43351 -0.07038 190 194 189
-4.02861 -4.44029 -0.06648 188 195 191
-4.04077 -4.44706 -0.06259 200 212 210
-4.05292 -4.45383 -0.05869 198 205 206
-4.06507 -4.46060 -0.05480 184 191 204
-4.07720 -4.46735 -0.05092 188 205 214
-4.08932 -4.47410 -0.04703 195 204 200
-4.10143 -4.48085 -0.04315 180 185 190
-4.11353 -4.48759 -0.03928 180 190 198
-4.12562 -4.49433 -0.03540 187 200 207
-4.13770 -4.50105 -0.03153 200 209 211
-4.14977 -4.50778 -0.02766 205 219 216
-4.16183 -4.51450 -0.02380 197 206 208
-4.17388 -4.52121 -0.01994 191 200 209
-4.18592 -4.52792 -0.01608 201 213 216
-4.19796 -4.53462 -0.01222 214 222 215
-4.20998 -4.54131 -0.00837 192 198 191
-4.22199 -4.54800 -0.00452 176 184 204
-4.23399 -4.55469 -0.00068 182 193 212
-4.24598 -4.56137 0.00316 189 200 221
-4.25796 -4.56804 0.00700 197 208 208
-4.26993 -4.57471 0.01084 192 197 205
-4.28189 -4.58137 0.01467 202 208 217
-4.29384 -4.58803 0.01850 214 227 223
-4.30579 -4.59468 0.02232 217 225 225
-4.31772 -4.60133 0.02615 214 215 232
-4.32964 -4.60797 0.02997 218 224 230
-4.34155 -4.61460 0.03378 224 230 229
-4.35345 -4.62123 0.03760 204 199 215
-4.41282 -4.65430 0.05662 204 211 216
-4.42466 -4.66089 0.06041 203 210 219
-4.43649 -4.66749 0.06421 218 227 236
-2.29160 -3.45588 -0.63752 190 191 183
-2.30520 -3.46347 -0.63316 187 178 180
-2.31880 -3.47105 -0.62879 189 181 185
-2.33239 -3.47862 -0.62443 187 186 190
-2.34596 -3.48619 -0.62008 175 172 178
-2.35952 -3.49375 -0.61573 179 181 177
-2.37307 -3.50131 -0.61138 184 181 172
-2.38661 -3.50885 -0.60704 184 180 171
-2.40013 -3.51639 -0.60270 184 183 180
-2.41364 -3.52393 -0.59836 176 177 174
-2.45411 -3.54649 -0.58538 178 179 175
-2.46758 -3.55400 -0.58105 176 179 175
-2.48103 -3.56150 -0.57674 181 172 173
-2.49448 -3.56900 -0.57242 182 170 171
-2.50791 -3.57649 -0.56811 177 164 150
-2.52133 -3.58397 -0.56381 184 180 178
-2.53473 -3.59144 -0.55951 177 179 175
-2.54813 -3.59891 -0.55521 194 188 177
-2.56151 -3.60637 -0.55091 184 184 171
-2.57489 -3.61383 -0.54662 175 166 148
-2.58825 -3.62128 -0.54234 181 190 179
-2.60159 -3.62872 -0.53805 189 195 173
-2.61493 -3.63616 -0.53377 191 191 173
-2.62826 -3.64359 -0.52950 185 179 171
-2.64157 -3.65101 -0.52522 186 183 177
-2.65487 -3.65843 -0.52096 191 191 179
-2.66817 -3.66584 -0.51669 194 198 198
-2.68144 -3.67324 -0.51243 196 199 198
-2.69471 -3.68064 -0.50817 189 185 182
-2.70797 -3.68803 -0.50392 197 186 181
-2.72121 -3.69542 -0.49967 192 185 178
-2.73445 -3.70279 -0.49542 193 190 180
-2.74767 -3.71017 -0.49118 191 180 184
-2.76088 -3.71753 -0.48694 187 182 182
-2.77408 -3.72489 -0.48271 189 186 173
-2.78727 -3.73224 -0.47847 183 178 164
-2.80044 -3.73959 -0.47425 189 186 178
-2.81361 -3.74693 -0.47002 190 194 180
-2.82676 -3.75426 -0.46580 189 175 166
-2.83990 -3.76159 -0.46158 192 190 171
-2.85303 -3.76891 -0.45737 184 184 172
-2.86615 -3.77623 -0.45316 185 178 161
-2.87926 -3.78354 -0.44896 188 178 165
-2.89236 -3.79084 -0.44475 189 184 189
-2.90544 -3.79813 -0.44055 187 183 185
-2.91852 -3.80542 -0.43636 184 186 183
-2.93158 -3.81271 -0.43217 188 190 190
-2.94463 -3.81998 -0.42798 193 192 187
-2.95767 -3.82725 -0.42380 193 194 186
-2.97070 -3.83452 -0.41962 182 184 182
-2.98372 -3.84178 -0.41544 175 175 178
-2.99672 -3.84903 -0.41126 185 181 176
-3.00972 -3.85627 -0.40709 199 198 174
-3.02270 -3.86351 -0.40293 189 187 170
-3.03568 -3.87075 -0.39877 173 170 156
-3.04864 -3.87797 -0.39461 169 169 162
-3.06159 -3.88519 -0.39045 170 174 174
-3.07453 -3.89241 -0.38630 172 174 176
-3.08746 -3.89962 -0.38215 175 182 182
-3.10037 -3.90682 -0.37801 177 185 185
-3.11328 -3.91401 -0.37386 179 183 182
-3.12618 -3.92120 -0.36973 178 175 170
-3.13906 -3.92839 -0.36559 179 174 162
-3.15193 -3.93557 -0.36146 176 172 168
-3.16480 -3.94274 -0.35733 176 172 173
-3.17765 -3.94990 -0.35321 193 186 178
-3.19049 -3.95706 -0.34909 186 178 179
-3.20332 -3.96422 -0.34497 172 174 171
-3.21614 -3.97136 -0.34086 178 185 169
-3.22894 -3.97850 -0.33675 174 177 176
-3.24174 -3.98564 -0.33264 177 178 176
-3.25453 -3.99277 -0.32854 175 176 172
-3.26730 -3.99989 -0.32444 177 179 175
-3.28007 -4.00701 -0.32035 185 190 172
-3.29282 -4.01412 -0.31625 174 178 169
-3.30556 -4.02122 -0.31217 164 175 177
-3.31829 -4.02832 -0.30808 185 191 183
-3.33101 -4.03541 -0.30400 172 174 172
-3.34372 -4.04250 -0.29992 159 160 168
-3.35642 -4.04958 -0.29585 162 167 171
-3.36911 -4.05665 -0.29178 163 177 178
-3.38179 -4.06372 -0.28771 186 200 199
-3.39445 -4.07078 -0.28364 187 191 187
-3.40711 -4.07784 -0.27958 176 176 181
-3.41975 -4.08489 -0.27552 173 181 180
-3.43239 -4.09193 -0.27147 171 164 168
-3.44501 -4.09897 -0.26742 171 178 171
-3.48282 -4.12005 -0.25529 195 203 194
-3.49540 -4.12707 -0.25125 196 206 202
-3.50797 -4.13407 -0.24722 202 209 210
-3.52053 -4.14108 -0.24319 207 213 211
-3.53308 -4.14807 -0.23916 200 205 206
-3.54562 -4.15507 -0.23514 200 203 199
-3.55814 -4.16205 -0.23112 198 204 198
-3.57066 -4.16903 -0.22710 196 200 200
-3.58317 -4.17600 -0.22309 201 208 208
-3.59566 -4.18297 -0.21908 199 201 199
-3.60815 -4.18993 -0.21507 201 204 202
-3.62062 -4.19689 -0.21107 196 203 207
-3.63309 -4.20384 -0.20707 191 198 200
-3.64554 -4.21078 -0.20307 188 197 194
-3.65799 -4.21772 -0.19908 189 198 196
-3.67042 -4.22465 -0.19509 194 201 202
-3.68284 -4.23158 -0.19111 198 204 209
-3.69526 -4.23850 -0.18712 195 198 207
-3.70766 -4.24541 -0.18314 189 192 204
-3.72005 -4.25232 -0.17917 193 197 208
-3.73243 -4.25922 -0.17519 196 203 205
-3.74480 -4.26612 -0.17122 199 209 204
-3.75716 -4.27301 -0.16726 203 211 208
-3.76951 -4.27990 -0.16330 203 211 213
-3.78185 -4.28678 -0.15934 200 214 215
-3.79418 -4.29365 -0.15538 186 200 197
-3.80650 -4.30052 -0.15143 174 184 170
-3.81881 -4.30738 -0.14748 194 208 196
-3.83110 -4.31424 -0.14353 203 214 197
-3.84339 -4.32109 -0.13959 191 201 196
-3.85567 -4.32794 -0.13565 180 181 179
-3.86794 -4.33478 -0.13171 187 194 195
-3.88020 -4.34161 -0.12778 193 196 201
-3.89244 -4.34844 -0.12385 194 196 197
-3.90468 -4.35526 -0.11992 191 209 204
-3.91691 -4.36208 -0.11600 192 210 204
-3.92912 -4.36889 -0.11208 207 226 216
-3.94133 -4.37570 -0.10816 198 208 195
-3.95352 -4.38250 -0.10425 191 203 205
-3.96571 -4.38929 -0.10034 196 209 214
-3.97789 -4.39608 -0.09643 201 213 215
-3.99005 -4.40286 -0.09253 196 202 203
-4.00221 -4.40964 -0.08863 195 202 199
-4.01435 -4.41641 -0.08473 203 214 208
-4.02649 -4.42318 -0.08084 201 211 201
-4.03861 -4.42994 -0.07695 192 200 193
-4.05073 -4.43669 -0.07306 204 214 208
-4.06283 -4.44344 -0.06918 212 221 212
-4.07493 -4.45019 -0.06529 195 198 198
-4.08701 -4.45692 -0.06142 195 199 204
-4.09909 -4.46366 -0.05754 200 208 206
-4.11115 -4.47038 -0.05367 195 204 197
-4.12321 -4.47711 -0.04980 194 212 211
-4.13525 -4.48382 -0.04594 199 208 208
-4.14729 -4.49053 -0.04208 209 216 214
-4.15932 -4.49724 -0.03822 212 218 213
-4.17133 -4.50393 -0.03436 195 202 201
-4.18334 -4.51063 -0.03051 195 203 208
-4.19533 -4.51732 -0.02666 201 209 212
-4.20732 -4.52400 -0.02281 209 218 213
-4.21929 -4.53068 -0.01897 194 202 195
-4.23126 -4.53735 -0.01513 186 191 196
-4.24321 -4.54401 -0.01130 187 207 218
-4.25516 -4.55067 -0.00746 194 205 210
-4.26710 -4.55733 -0.00363 199 204 196
-4.27902 -4.56398 0.00019 196 197 202
-4.29094 -4.57062 0.00402 200 203 212
-4.30284 -4.57726 0.00784 208 219 217
-4.31474 -4.58389 0.01166 208 212 216
-4.32663 -4.59052 0.01547 181 193 218
-4.33851 -4.59714 0.01928 187 203 229
-4.35037 -4.60376 0.02309 209 215 231
-4.36223 -4.61037 0.02689 205 215 224
-4.37408 -4.61698 0.03070 201 215 218
-4.38592 -4.62358 0.03449 204 216 221
-4.40957 -4.63676 0.04208 217 225 235
-4.42137 -4.64335 0.04587 215 223 229
-4.43317 -4.64993 0.04966 211 221 227
-4.44496 -4.65650 0.05344 210 222 232
-4.45674 -4.66307 0.05722 221 229 238
-2.30852 -3.44855 -0.64648 190 184 185
-2.32207 -3.45612 -0.64213 187 174 182
-2.33561 -3.46367 -0.63778 181 172 185
-2.34914 -3.47122 -0.63343 185 183 185
-2.36265 -3.47877 -0.62909 180 171 175
-2.37616 -3.48630 -0.62475 182 174 166
-2.38965 -3.49383 -0.62041 184 180 163
-2.40313 -3.50136 -0.61608 178 174 169
-2.41660 -3.50887 -0.61175 181 179 185
-2.43006 -3.51638 -0.60743 173 179 179
-2.47036 -3.53887 -0.59448 176 178 173
-2.48377 -3.54636 -0.59017 178 175 176
-2.49716 -3.55384 -0.58586 184 177 175
-2.51055 -3.56131 -0.58156 187 173 171
-2.52393 -3.56877 -0.57726 174 160 150
-2.53729 -3.57623 -0.57297 178 175 175
-2.55064 -3.58368 -0.56868 182 173 174
-2.56398 -3.59113 -0.56439 191 184 176
-2.57731 -3.59856 -0.56011 200 187 171
-2.59063 -3.60600 -0.55583 195 186 172
-2.60393 -3.61342 -0.55155 193 198 182
-2.61723 -3.62084 -0.54728 192 192 173
-2.63051 -3.62825 -0.54301 198 193 177
-2.64378 -3.63566 -0.53875 190 179 180
-2.65704 -3.64306 -0.53449 186 180 175
-2.67028 -3.65045 -0.53023 176 177 182
-2.68352 -3.65784 -0.52598 181 178 192
-2.69675 -3.66522 -0.52173 199 208 205
-2.70996 -3.67260 -0.51748 196 194 186
-2.72316 -3.67996 -0.51324 190 180 172
-2.73635 -3.68733 -0.50900 189 186 178
-2.74953 -3.69468 -0.50477 180 186 184
-2.76270 -3.70203 -0.50053 182 187 184
-2.77585 -3.70937 -0.49631 199 201 179
-2.78900 -3.71671 -0.49208 192 186 179
-2.80213 -3.72404 -0.48786 185 178 177
-2.81526 -3.73136 -0.48365 186 182 183
-2.82837 -3.73868 -0.47943 195 194 193
-2.84147 -3.74599 -0.47522 204 196 185
-2.85455 -3.75329 -0.47102 203 197 182
-2.86763 -3.76059 -0.46681 186 182 181
-2.88070 -3.76788 -0.46262 191 188 172
-2.89375 -3.77517 -0.45842 187 183 166
-2.90679 -3.78245 -0.45423 179 172 180
-2.91983 -3.78972 -0.45004 188 188 189
-2.93285 -3.79699 -0.44586 186 192 194
-2.94586 -3.80425 -0.44168 184 194 191
-2.95886 -3.81150 -0.43750 184 183 182
-2.97184 -3.81875 -0.43333 182 181 182
-2.98482 -3.82599 -0.42916 178 182 180
-2.99778 -3.83323 -0.42499 180 175 177
-3.01074 -3.84046 -0.42083 187 176 179
-3.02368 -3.84768 -0.41667 185 182 185
-3.03661 -3.85490 -0.41251 182 187 186
-3.04953 -3.86211 -0.40836 181 185 176
-3.06244 -3.86932 -0.40421 180 185 178
-3.07534 -3.87652 -0.40007 180 185 179
-3.08823 -3.88371 -0.39593 182 184 179
-3.10111 -3.89089 -0.39179 185 189 186
-3.11397 -3.89807 -0.38766 183 184 180
-3.12683 -3.90525 -0.38352 184 187 182
-3.13967 -3.91242 -0.37940 178 182 180
-3.15250 -3.91958 -0.37527 173 176 172
-3.16533 -3.92673 -0.37115 176 184 179
-3.17814 -3.93388 -0.36704 163 173 179
-3.19094 -3.94103 -0.36292 164 173 177
-3.20373 -3.94817 -0.35881 175 178 173
-3.21650 -3.95530 -0.35471 159 164 169
-3.22927 -3.96242 -0.35061 147 154 177
-3.24203 -3.96954 -0.34651 152 160 182
-3.25477 -3.97666 -0.34241 167 181 183
-3.26751 -3.98376 -0.33832 172 185 180
-3.28023 -3.99086 -0.33423 175 178 170
-3.29294 -3.99796 -0.33014 164 155 163
-3.30565 -4.00505 -0.32606 166 165 173
-3.31834 -4.01213 -0.32198 172 186 187
-3.33102 -4.01921 -0.31791 183 197 195
-3.34369 -4.02628 -0.31384 179 181 169
-3.35635 -4.03334 -0.30977 164 161 150
-3.36900 -4.04040 -0.30571 160 163 166
-3.38164 -4.04746 -0.30164 164 162 168
-3.39426 -4.05450 -0.29759 167 170 181
-3.40688 -4.06154 -0.29353 173 170 167
-3.41948 -4.06858 -0.28948 176 168 164
-3.43208 -4.07561 -0.28543 178 180 181
-3.44466 -4.08263 -0.28139 180 171 178
-3.50743 -4.11766 -0.26122 194 194 194
-3.51995 -4.12465 -0.25720 203 203 211
-3.53246 -4.13163 -0.25318 206 203 208
-3.54496 -4.13861 -0.24916 190 197 203
-3.55745 -4.14558 -0.24515 193 202 199
-3.56993 -4.15254 -0.24114 190 202 200
-3.58240 -4.15950 -0.23713 191 203 201
-3.59485 -4.16645 -0.23313 193 202 200
-3.60730 -4.17340 -0.22913 195 200 196
-3.61974 -4.18034 -0.22513 197 201 203
-3.63216 -4.18728 -0.22114 201 207 210
-3.64458 -4.19421 -0.21715 197 198 195
-3.65699 -4.20113 -0.21316 190 193 193
-3.66938 -4.20805 -0.20918 195 204 206
-3.68177 -4.21496 -0.20520 198 203 206
-3.69414 -4.22187 -0.20122 196 195 198
-3.70651 -4.22877 -0.19725 198 198 201
-3.71886 -4.23566 -0.19328 200 206 213
-3.73120 -4.24255 -0.18931 204 217 220
-3.74354 -4.24943 -0.18535 205 216 211
-3.75586 -4.25631 -0.18139 200 210 204
-3.76817 -4.26318 -0.17743 201 209 210
-3.78047 -4.27005 -0.17348 199 205 213
-3.79277 -4.27691 -0.16953 197 199 208
-3.80505 -4.28376 -0.16558 194 194 189
-3.81732 -4.29061 -0.16164 194 207 183
-3.82958 -4.29745 -0.15770 190 197 192
-3.84183 -4.30429 -0.15376 186 189 189
-3.85407 -4.31112 -0.14983 188 196 198
-3.86630 -4.31795 -0.14590 180 185 182
-3.87852 -4.32477 -0.14197 182 191 188
-3.89073 -4.33158 -0.13805 190 196 197
-3.90293 -4.33839 -0.13413 196 206 203
-3.91512 -4.34519 -0.13021 194 197 186
-3.92730 -4.35199 -0.12630 181 187 193
-3.93947 -4.35878 -0.12239 189 200 202
-3.95163 -4.36557 -0.11848 192 203 199
-3.96378 -4.37235 -0.11458 193 205 208
-3.97592 -4.37913 -0.11068 194 207 211
-3.98805 -4.38590 -0.10678 198 209 210
-4.00017 -4.39266 -0.10288 202 211 208
-4.01228 -4.39942 -0.09899 207 214 210
-4.02438 -4.40617 -0.09510 204 217 216
-4.03647 -4.41292 -0.09122 203 212 211
-4.04855 -4.41966 -0.08734 201 205 203
-4.06062 -4.42639 -0.08346 206 212 209
-4.07268 -4.43312 -0.07958 211 218 214
-4.08472 -4.43985 -0.07571 199 209 204
-4.09676 -4.44657 -0.07184 194 205 204
-4.10879 -4.45328 -0.06798 195 210 216
-4.12081 -4.45999 -0.06412 203 219 213
-4.13282 -4.46669 -0.06026 199 208 211
-4.14482 -4.47339 -0.05640 204 214 213
-4.15681 -4.48008 -0.05255 208 218 219
-4.16879 -4.48677 -0.04870 200 206 211
-4.18076 -4.49345 -0.04485 180 191 200
-4.19272 -4.50012 -0.04101 194 204 205
-4.20467 -4.50679 -0.03717 197 205 204
-4.21661 -4.51346 -0.03333 196 202 206
-4.22854 -4.52011 -0.02950 191 203 203
-4.24046 -4.52677 -0.02567 198 216 209
-4.25238 -4.53341 -0.02184 196 194 206
-4.26428 -4.54006 -0.01801 203 217 216
-4.27617 -4.54669 -0.01419 206 224 226
-4.28805 -4.55332 -0.01038 213 226 229
-4.29992 -4.55995 -0.00656 205 215 220
-4.31178 -4.56657 -0.00275 205 216 218
-4.32364 -4.57318 0.00106 201 213 218
-4.33548 -4.57979 0.00487 185 197 213
-4.34731 -4.58640 0.00867 189 200 221
-4.35914 -4.59300 0.01247 204 216 229
-4.37095 -4.59959 0.01626 212 219 229
-4.38275 -4.60618 0.02006 213 220 224
-4.39455 -4.61276 0.02385 216 224 228
-4.40633 -4.61934 0.02763 219 227 234
-4.41811 -4.62591 0.03142 218 228 237
-4.42987 -4.63247 0.03520 219 231 238
-4.44163 -4.63904 0.03898 212 226 233
-4.45337 -4.64559 0.04275 205 217 231
-4.46511 -4.65214 0.04652 219 232 239
-4.47684 -4.65869 0.05029 222 236 244
-4.48856 -4.66523 0.05406 217 228 243
-2.36577 -3.46388 -0.64236 181 176 181
-2.37923 -3.47140 -0.63803 190 188 181
-2.39267 -3.47891 -0.63370 189 185 173
-2.40611 -3.48641 -0.62937 189 182 165
-2.41953 -3.49391 -0.62505 184 178 169
-2.43295 -3.50141 -0.62074 184 180 183
-2.44635 -3.50889 -0.61643 170 176 180
-2.45974 -3.51637 -0.61212 181 174 172
-2.47311 -3.52384 -0.60781 174 173 168
-2.48648 -3.53131 -0.60351 189 191 179
-2.49984 -3.53877 -0.59921 189 184 180
-2.51318 -3.54623 -0.59492 186 175 172
-2.52651 -3.55367 -0.59063 187 181 174
-2.53983 -3.56111 -0.58634 178 168 158
-2.55314 -3.56855 -0.58206 183 173 165
-2.56643 -3.57598 -0.57778 184 179 177
-2.57972 -3.58340 -0.57351 175 175 176
-2.59299 -3.59081 -0.56924 189 181 180
-2.60625 -3.59822 -0.56497 207 200 192
-2.61950 -3.60562 -0.56070 202 204 198
-2.63274 -3.61302 -0.55644 194 183 174
-2.64597 -3.62041 -0.55219 193 189 184
-2.65919 -3.62779 -0.54793 191 193 189
-2.67239 -3.63517 -0.54368 193 187 182
-2.68558 -3.64254 -0.53944 185 181 176
-2.69877 -3.64990 -0.53520 181 185 187
-2.71194 -3.65726 -0.53096 191 200 201
-2.72510 -3.66461 -0.52672 196 191 182
-2.73824 -3.67196 -0.52249 187 176 166
-2.75138 -3.67929 -0.51826 199 192 188
-2.76450 -3.68663 -0.51404 182 175 188
-2.77762 -3.69395 -0.50982 180 184 182
-2.79072 -3.70127 -0.50560 197 196 182
-2.80381 -3.70858 -0.50139 194 192 184
-2.81689 -3.71589 -0.49718 187 184 189
-2.82996 -3.72319 -0.49298 188 185 183
-2.84302 -3.73049 -0.48878 199 193 198
-2.85607 -3.73777 -0.48458 196 193 192
-2.86910 -3.74506 -0.48038 195 195 185
-2.88212 -3.75233 -0.47619 191 186 188
-2.89514 -3.75960 -0.47200 195 189 191
-2.90814 -3.76687 -0.46782 201 189 185
-2.92113 -3.77412 -0.46364 197 189 185
-2.93411 -3.78137 -0.45946 196 194 188
-2.94708 -3.78862 -0.45529 188 191 193
-2.96003 -3.79586 -0.45112 192 192 192
-2.97298 -3.80309 -0.44695 196 194 182
-2.98592 -3.81031 -0.44279 189 183 179
-2.99884 -3.81753 -0.43863 185 185 180
-3.01175 -3.82475 -0.43448 182 179 171
-3.02465 -3.83195 -0.43032 175 176 173
-3.03755 -3.83916 -0.42618 163 168 182
-3.05043 -3.84635 -0.42203 173 178 185
-3.06329 -3.85354 -0.41789 181 179 180
-3.07615 -3.86072 -0.41375 177 176 182
-3.08900 -3.86790 -0.40962 174 180 184
-3.10183 -3.87507 -0.40549 178 182 183
-3.11466 -3.88224 -0.40136 184 189 185
-3.12747 -3.88939 -0.39724 182 187 181
-3.14028 -3.89655 -0.39312 178 182 178
-3.15307 -3.90369 -0.38900 171 179 172
-3.16585 -3.91083 -0.38489 162 177 167
-3.17862 -3.91797 -0.38078 168 180 169
-3.19138 -3.92509 -0.37667 177 177 160
-3.20413 -3.93222 -0.37257 179 171 154
-3.21687 -3.93933 -0.36847 183 169 163
-3.22960 -3.94644 -0.36437 182 175 170
-3.24231 -3.95355 -0.36028 171 169 168
-3.25502 -3.96064 -0.35619 168 161 175
-3.26771 -3.96774 -0.35211 176 174 181
-3.28040 -3.97482 -0.34802 170 173 178
-3.29307 -3.98190 -0.34395 175 179 171
-3.30573 -3.98898 -0.33987 175 175 164
-3.31839 -3.99604 -0.33580 175 176 166
-3.33103 -4.00311 -0.33173 175 175 168
-3.34366 -4.01016 -0.32767 173 172 171
-3.35628 -4.01721 -0.32361 180 181 175
-3.36889 -4.02426 -0.31955 181 178 170
-3.38149 -4.03129 -0.31549 164 153 161
-3.39407 -4.03833 -0.31144 171 176 166
-3.40665 -4.04535 -0.30740 174 172 168
-3.41922 -4.05237 -0.30335 175 168 168
-3.51937 -4.10832 -0.27112 208 208 203
-3.53185 -4.11529 -0.26711 215 211 210
-3.54431 -4.12225 -0.26310 203 199 200
-3.55676 -4.12921 -0.25909 194 196 196
-3.56920 -4.13616 -0.25509 195 199 201
-3.58163 -4.14310 -0.25109 191 200 212
-3.59405 -4.15004 -0.24709 191 202 203
-3.60646 -4.15697 -0.24310 177 187 195
-3.61886 -4.16390 -0.23911 183 195 197
-3.63125 -4.17082 -0.23512 193 201 203
-3.64362 -4.17773 -0.23114 200 206 209
-3.65599 -4.18464 -0.22716 198 198 194
-3.66835 -4.19155 -0.22318 192 192 188
-3.68070 -4.19844 -0.21921 194 201 204
-3.69303 -4.20534 -0.21524 194 202 205
-3.70536 -4.21222 -0.21127 191 196 197
-3.71768 -4.21910 -0.20731 192 198 199
-3.72998 -4.22598 -0.20335 201 210 210
-3.74228 -4.23285 -0.19939 208 213 214
-3.75457 -4.23971 -0.19544 205 209 207
-3.76684 -4.24657 -0.19149 199 200 199
-3.77911 -4.25342 -0.18754 199 202 200
-3.79136 -4.26026 -0.18360 199 207 209
-3.80361 -4.26710 -0.17965 200 200 205
-3.81584 -4.27394 -0.17572 197 199 195
-3.82806 -4.28077 -0.17178 201 207 201
-3.84028 -4.28759 -0.16785 187 192 190
-3.85248 -4.29441 -0.16393 180 180 179
-3.86468 -4.30122 -0.16000 204 212 201
-3.87686 -4.30803 -0.15608 189 186 185
-3.88903 -4.31483 -0.15216 179 177 184
-3.90120 -4.32162 -0.14825 185 197 205
-3.91335 -4.32841 -0.14434 198 210 206
-3.92549 -4.33520 -0.14043 193 202 190
-3.93763 -4.34197 -0.13653 180 185 184
-3.94975 -4.34875 -0.13262 177 179 175
-3.96187 -4.35551 -0.12873 189 195 190
-3.97397 -4.36228 -0.12483 198 211 209
-3.98606 -4.36903 -0.12094 195 209 211
-3.99815 -4.37578 -0.11705 197 208 211
-4.01022 -4.38253 -0.11317 202 215 216
-4.02228 -4.38927 -0.10928 198 209 212
-4.03434 -4.39600 -0.10540 197 205 209
-4.04638 -4.40273 -0.10153 206 212 210
-4.05841 -4.40945 -0.09766 208 215 211
-4.07044 -4.41617 -0.09379 202 210 209
-4.08245 -4.42288 -0.08992 200 209 205
-4.09445 -4.42958 -0.08606 200 210 203
-4.10645 -4.43628 -0.08220 195 201 198
-4.11843 -4.44298 -0.07834 194 200 202
-4.13041 -4.44967 -0.07449 199 205 203
-4.14237 -4.45635 -0.07064 196 201 199
-4.15432 -4.46303 -0.06679 202 215 210
-4.16627 -4.46970 -0.06295 191 195 213
-4.17820 -4.47637 -0.05911 187 195 209
-4.19013 -4.48303 -0.05527 189 204 206
-4.20204 -4.48969 -0.05144 193 207 209
-4.21395 -4.49634 -0.04760 190 201 206
-4.22585 -4.50298 -0.04378 197 210 211
-4.23773 -4.50962 -0.03995 188 197 201
-4.24961 -4.51626 -0.03613 192 204 201
-4.26147 -4.52289 -0.03231 198 202 209
-4.27333 -4.52951 -0.02850 202 214 214
-4.28518 -4.53613 -0.02468 199 207 218
-4.29702 -4.54274 -0.02087 216 228 226
-4.30884 -4.54935 -0.01707 191 208 219
-4.32066 -4.55595 -0.01326 182 199 217
-4.33247 -4.56255 -0.00946 175 193 215
-4.34427 -4.56914 -0.00567 192 205 214
-4.35606 -4.57572 -0.00187 203 217 224
-4.36784 -4.58230 0.00192 204 209 215
-4.37961 -4.58888 0.00571 203 210 219
-4.39137 -4.59545 0.00949 209 210 222
-4.40312 -4.60201 0.01327 221 223 225
-4.41486 -4.60857 0.01705 221 230 230
-4.42659 -4.61513 0.02082 209 216 230
-4.43831 -4.62168 0.02460 214 225 238
-4.45003 -4.62822 0.02837 217 224 234
-4.46173 -4.63476 0.03213 212 216 223
-4.47342 -4.64129 0.03589 215 222 232
-4.48511 -4.64782 0.03965 207 217 240
-4.49678 -4.65434 0.04341 209 223 239
-4.50844 -4.66085 0.04717 223 238 244
-4.52010 -4.66737 0.05092 226 240 246
-2.38228 -3.45658 -0.65122 182 184 166
-2.39568 -3.46408 -0.64690 190 183 163
-2.40907 -3.47157 -0.64258 189 180 172
-2.42245 -3.47905 -0.63827 190 183 172
-2.43582 -3.48652 -0.63396 188 182 165
-2.44918 -3.49399 -0.62966 186 185 180
-2.46252 -3.50146 -0.62536 174 177 181
-2.47586 -3.50891 -0.62106 187 180 172
-2.48918 -3.51636 -0.61677 190 186 176
-2.50249 -3.52380 -0.61248 190 186 181
-2.51579 -3.53124 -0.60819 180 175 174
-2.52908 -3.53867 -0.60391 184 171 170
-2.54235 -3.54609 -0.59963 188 187 181
-2.55562 -3.55351 -0.59536 188 186 175
-2.56887 -3.56092 -0.59109 192 188 182
-2.58211 -3.56833 -0.58682 186 183 182
-2.59534 -3.57572 -0.58256 173 167 168
-2.60856 -3.58312 -0.57830 185 181 187
-2.62177 -3.59050 -0.57404 202 195 194
-2.63496 -3.59788 -0.56979 188 191 193
-2.64815 -3.60525 -0.56554 178 171 169
-2.66132 -3.61262 -0.56129 183 184 186
-2.67448 -3.61998 -0.55705 185 190 190
-2.68763 -3.62733 -0.55281 196 195 180
-2.70077 -3.63468 -0.54858 186 182 164
-2.71390 -3.64202 -0.54435 178 183 175
-2.72702 -3.64935 -0.54012 182 186 187
-2.74012 -3.65668 -0.53590 193 188 178
-2.75322 -3.66400 -0.53168 191 185 179
-2.76630 -3.67132 -0.52746 195 184 189
-2.77937 -3.67863 -0.52325 188 169 186
-2.79243 -3.68593 -0.51904 196 187 186
-2.80548 -3.69323 -0.51484 196 197 186
-2.81852 -3.70052 -0.51063 195 192 179
-2.83155 -3.70780 -0.50644 187 187 181
-2.84456 -3.71508 -0.50224 188 186 173
-2.85757 -3.72235 -0.49805 187 190 192
-2.87056 -3.72962 -0.49386 194 191 194
-2.88354 -3.73688 -0.48968 198 193 188
-2.89652 -3.74413 -0.48550 195 191 190
-2.90948 -3.75138 -0.48132 189 178 183
-2.92243 -3.75862 -0.47715 190 180 171
-2.93536 -3.76585 -0.47298 187 184 177
-2.94829 -3.77308 -0.46881 190 189 189
-2.96121 -3.78031 -0.46465 194 193 194
-2.97411 -3.78752 -0.46049 197 196 197
-2.98700 -3.79473 -0.45634 196 201 196
-2.99989 -3.80193 -0.45219 187 188 187
-3.01276 -3.80913 -0.44804 186 189 187
-3.02562 -3.81632 -0.44389 184 181 180
-3.03847 -3.82351 -0.43975 178 177 177
-3.05131 -3.83069 -0.43561 175 181 179
-3.06414 -3.83786 -0.43148 182 185 184
-3.07696 -3.84503 -0.42735 180 165 175
-3.08976 -3.85219 -0.42322 173 160 164
-3.10256 -3.85934 -0.41910 165 165 161
-3.11534 -3.86649 -0.41498 175 175 173
-3.12812 -3.87364 -0.41086 179 179 186
-3.14088 -3.88077 -0.40675 171 169 186
-3.15363 -3.88790 -0.40264 175 177 182
-3.16637 -3.89503 -0.39853 175 179 168
-3.17910 -3.90215 -0.39443 172 173 163
-3.19182 -3.90926 -0.39033 180 182 171
-3.20453 -3.91637 -0.38624 189 190 178
-3.21723 -3.92347 -0.38214 184 188 181
-3.22992 -3.93056 -0.37806 174 178 173
-3.24260 -3.93765 -0.37397 171 179 172
-3.25526 -3.94473 -0.36989 169 177 175
-3.26792 -3.95181 -0.36581 179 183 182
-3.28056 -3.95888 -0.36174 193 193 185
-3.29320 -3.96594 -0.35766 182 189 189
-3.30582 -3.97300 -0.35360 163 170 173
-3.31843 -3.98006 -0.34953 174 177 164
-3.33103 -3.98710 -0.34547 180 192 180
-3.34363 -3.99414 -0.34141 176 185 179
-3.35621 -4.00118 -0.33736 170 172 174
-3.36878 -4.00821 -0.33331 175 179 179
-3.38134 -4.01523 -0.32926 186 189 185
-3.39389 -4.02225 -0.32521 182 180 181
-3.40643 -4.02926 -0.32117 182 186 183
-3.41895 -4.03626 -0.31714 182 175 171
-3.53124 -4.09905 -0.28095 209 221 213
-3.54366 -4.10600 -0.27695 205 202 214
-3.55607 -4.11294 -0.27295 200 201 202
-3.56847 -4.11987 -0.26895 196 198 195
-3.58087 -4.12680 -0.26496 188 190 198
-3.59325 -4.13373 -0.26097 185 180 197
-3.60562 -4.14064 -0.25698 190 189 191
-3.61798 -4.14756 -0.25300 183 187 193
-3.63033 -4.15446 -0.24902 181 194 196
-3.64267 -4.16136 -0.24504 190 201 202
-3.65500 -4.16826 -0.24107 195 202 206
-3.66732 -4.17515 -0.23710 201 206 206
-3.67963 -4.18203 -0.23313 205 214 207
-3.69193 -4.18891 -0.22916 201 210 197
-3.70422 -4.19578 -0.22520 193 197 185
-3.71650 -4.20265 -0.22125 187 193 188
-3.72877 -4.20951 -0.21729 187 200 196
-3.74103 -4.21636 -0.21334 190 204 200
-3.75328 -4.22321 -0.20940 182 184 193
-3.76552 -4.23005 -0.20545 176 178 198
-3.77775 -4.23689 -0.20151 189 193 203
-3.78996 -4.24372 -0.19757 198 203 205
-3.80217 -4.25055 -0.19364 199 208 209
-3.81437 -4.25737 -0.18971 203 206 204
-3.82656 -4.26418 -0.18578 192 193 195
-3.83874 -4.27099 -0.18186 197 198 204
-3.85090 -4.27780 -0.17793 192 200 199
-3.86306 -4.28460 -0.17402 200 201 186
-3.87521 -4.29139 -0.17010 206 211 208
-3.88735 -4.29818 -0.16619 199 197 192
-3.89947 -4.30496 -0.16228 185 183 185
-3.91159 -4.31173 -0.15838 186 189 203
-3.92370 -4.31850 -0.15448 200 211 205
-3.93580 -4.32527 -0.15058 190 193 189
-3.94788 -4.33203 -0.14668 179 179 182
-3.95996 -4.33878 -0.14279 176 183 183
-3.97203 -4.34553 -0.13890 192 207 195
-3.98408 -4.35227 -0.13502 194 207 207
-3.99613 -4.35901 -0.13113 185 199 209
-4.00817 -4.36574 -0.12725 194 210 213
-4.02020 -4.37246 -0.12338 201 213 217
-4.03222 -4.37918 -0.11950 193 202 207
-4.04422 -4.38590 -0.11564 186 196 199
-4.05622 -4.39261 -0.11177 197 210 208
-4.06821 -4.39931 -0.10791 202 213 214
-4.08019 -4.40601 -0.10404 196 207 208
-4.09216 -4.41270 -0.10019 198 212 207
-4.10412 -4.41939 -0.09633 200 213 210
-4.11606 -4.42607 -0.09248 201 215 208
-4.12800 -4.43274 -0.08864 203 215 209
-4.13993 -4.43941 -0.08479 202 214 213
-4.15185 -4.44608 -0.08095 196 208 208
-4.16376 -4.45274 -0.07711 186 195 202
-4.17566 -4.45939 -0.07328 180 186 200
-4.18755 -4.46604 -0.06945 185 192 197
-4.19943 -4.47269 -0.06562 201 210 211
-4.21130 -4.47932 -0.06179 201 211 215
-4.22316 -4.48596 -0.05797 204 212 211
-4.23502 -4.49258 -0.05415 211 216 214
-4.24686 -4.49920 -0.05033 190 196 187
-4.25869 -4.50582 -0.04652 185 193 197
-4.27051 -4.51243 -0.04271 198 212 213
-4.28232 -4.51904 -0.03890 191 208 210
-4.29413 -4.52564 -0.03510 176 190 202
-4.30592 -4.53223 -0.03130 196 212 219
-4.31770 -4.53882 -0.02750 179 191 211
-4.32948 -4.54540 -0.02371 181 197 210
-4.34124 -4.55198 -0.01992 195 205 210
-4.35300 -4.55856 -0.01613 209 221 220
-4.36474 -4.56512 -0.01234 219 228 231
-4.37648 -4.57169 -0.00856 213 218 220
-4.38821 -4.57824 -0.00478 203 212 218
-4.39992 -4.58479 -0.00101 209 223 232
-4.41163 -4.59134 0.00277 217 228 236
-4.42333 -4.59788 0.00654 214 224 235
-4.43502 -4.60442 0.01030 204 213 231
-4.44670 -4.61095 0.01407 208 218 233
-4.45837 -4.61747 0.01783 211 222 234
-4.47003 -4.62399 0.02159 208 222 230
-4.48168 -4.63051 0.02534 202 218 233
-4.49332 -4.63702 0.02909 201 215 237
-4.50495 -4.64352 0.03284 218 231 241
-4.51657 -4.65002 0.03659 223 237 244
-4.52818 -4.65651 0.04033 220 236 244
-2.39867 -3.44934 -0.66002 191 196 177
-2.41201 -3.45682 -0.65571 191 187 167
-2.42535 -3.46428 -0.65141 190 174 168
-2.43867 -3.47174 -0.64711 196 184 172
-2.45199 -3.47919 -0.64281 192 184 173
-2.46529 -3.48663 -0.63852 183 180 176
-2.47858 -3.49407 -0.63423 181 183 179
-2.49186 -3.50150 -0.62994 192 179 168
-2.50513 -3.50893 -0.62566 191 178 180
-2.51838 -3.51635 -0.62138 187 179 181
-2.53163 -3.52376 -0.61711 172 171 170
-2.54486 -3.53117 -0.61284 181 174 168
-2.55808 -3.53857 -0.60857 183 179 182
-2.57129 -3.54596 -0.60431 204 190 177
-2.58449 -3.55335 -0.60005 197 185 178
-2.59768 -3.56073 -0.59579 189 185 180
-2.61085 -3.56811 -0.59154 186 175 169
-2.62402 -3.57547 -0.58729 197 195 187
-2.63717 -3.58284 -0.58305 193 196 191
-2.65031 -3.59019 -0.57881 182 177 164
-2.66344 -3.59754 -0.57457 185 180 171
-2.67656 -3.60488 -0.57034 190 196 187
-2.68967 -3.61222 -0.56611 185 193 189
-2.70277 -3.61955 -0.56188 195 191 187
-2.71585 -3.62688 -0.55766 189 188 179
-2.72893 -3.63419 -0.55344 180 179 169
-2.74199 -3.64151 -0.54922 188 187 174
-2.75504 -3.64881 -0.54501 183 186 185
-2.76809 -3.65611 -0.54080 179 171 173
-2.78112 -3.66340 -0.53659 191 181 185
-2.79413 -3.67069 -0.53239 190 186 179
-2.80714 -3.67797 -0.52820 194 183 184
-2.82014 -3.68524 -0.52400 187 189 188
-2.83312 -3.69251 -0.51981 196 198 189
-2.84610 -3.69977 -0.51562 190 189 191
-2.85906 -3.70703 -0.51144 186 191 187
-2.87201 -3.71428 -0.50726 184 189 190
-2.88495 -3.72152 -0.50308 185 190 197
-2.89788 -3.72876 -0.49891 187 185 185
-2.91080 -3.73599 -0.49474 186 183 182
-2.92371 -3.74321 -0.49058 177 171 176
-2.93661 -3.75043 -0.48641 190 192 191
-2.94949 -3.75765 -0.48226 204 209 199
-2.96237 -3.76485 -0.47810 206 209 204
-2.97523 -3.77205 -0.47395 203 203 199
-2.98809 -3.77925 -0.46980 201 202 197
-3.00093 -3.78643 -0.46566 183 195 187
-3.01376 -3.79362 -0.46152 180 183 172
-3.02658 -3.80079 -0.45738 191 193 181
-3.03939 -3.80796 -0.45324 185 184 176
-3.05219 -3.81512 -0.44911 172 174 176
-3.06498 -3.82228 -0.44499 172 181 182
-3.07775 -3.82943 -0.44086 171 170 182
-3.09052 -3.83658 -0.43674 172 169 183
-3.10328 -3.84372 -0.43263 176 178 178
-3.11602 -3.85085 -0.42851 174 179 171
-3.12876 -3.85798 -0.42440 180 184 174
-3.14148 -3.86510 -0.42030 186 186 182
-3.15419 -3.87221 -0.41620 181 183 186
-3.16689 -3.87932 -0.41210 179 185 186
-3.17958 -3.88643 -0.40800 182 177 173
-3.19226 -3.89352 -0.40391 188 174 172
-3.20493 -3.90061 -0.39982 184 179 177
-3.21759 -3.90770 -0.39574 171 166 163
-3.23024 -3.91478 -0.39165 178 176 174
-3.24288 -3.92185 -0.38757 183 189 179
-3.25550 -3.92892 -0.38350 168 174 168
-3.26812 -3.93598 -0.37943 158 167 170
-3.28073 -3.94304 -0.37536 170 179 180
-3.29332 -3.95009 -0.37130 188 188 183
-3.30591 -3.95713 -0.36723 191 190 192
-3.31848 -3.96417 -0.36318 183 186 189
-3.33104 -3.97120 -0.35912 182 193 190
-3.34360 -3.97822 -0.35507 181 185 181
-3.35614 -3.98524 -0.35102 178 175 181
-3.36867 -3.99226 -0.34698 165 163 174
-3.38119 -3.99927 -0.34294 164 170 169
-3.39370 -4.00627 -0.33890 174 181 187
-3.40620 -4.01327 -0.33487 174 171 181
-3.41869 -4.02026 -0.33084 168 168 180
-3.43117 -4.02724 -0.32681 180 185 181
-3.54301 -4.08984 -0.29071 203 202 185
-3.55539 -4.09677 -0.28672 205 210 209
-3.56775 -4.10369 -0.28273 201 211 207
-3.58011 -4.11060 -0.27874 202 207 202
-3.59245 -4.11751 -0.27476 193 196 199
-3.60479 -4.12442 -0.27078 185 173 185
-3.61711 -4.13131 -0.26680 192 185 184
-3.62943 -4.13821 -0.26283 191 194 191
-3.64173 -4.14509 -0.25886 183 192 188
-3.65402 -4.15197 -0.25489 191 201 202
-3.66631 -4.15885 -0.25093 200 207 208
-3.67858 -4.16572 -0.24697 208 216 213
-3.69084 -4.17258 -0.24301 216 221 217
-3.70309 -4.17944 -0.23905 210 214 207
-3.71534 -4.18629 -0.23510 201 208 200
-3.72757 -4.19314 -0.23116 198 207 197
-3.73979 -4.19998 -0.22721 196 205 195
-3.75200 -4.20681 -0.22327 186 190 187
-3.76420 -4.21364 -0.21933 167 169 179
-3.77639 -4.22046 -0.21540 172 181 191
-3.78858 -4.22728 -0.21147 196 208 208
-3.80075 -4.23409 -0.20754 203 209 208
-3.81291 -4.24090 -0.20361 193 203 205
-3.82506 -4.24770 -0.19969 188 196 190
-3.83720 -4.25450 -0.19577 185 188 182
-3.84933 -4.26129 -0.19186 195 201 205
-3.86145 -4.26807 -0.18795 193 201 204
-3.87357 -4.27485 -0.18404 194 201 198
-3.88567 -4.28162 -0.18013 198 208 216
-3.89776 -4.28839 -0.17623 191 203 202
-3.90984 -4.29515 -0.17233 182 192 196
-3.92191 -4.30191 -0.16844 179 187 204
-3.93397 -4.30866 -0.16454 199 213 209
-3.94602 -4.31541 -0.16066 192 197 185
-3.95807 -4.32215 -0.15677 183 185 186
-3.97010 -4.32888 -0.15289 188 203 201
-3.98212 -4.33561 -0.14901 196 213 209
-3.99413 -4.34233 -0.14513 189 200 204
-4.00613 -4.34905 -0.14126 180 192 203
-4.01813 -4.35576 -0.13739 190 209 209
-4.03011 -4.36247 -0.13352 192 203 209
-4.04208 -4.36917 -0.12966 186 195 202
-4.05404 -4.37586 -0.12580 180 193 197
-4.06600 -4.38256 -0.12194 186 200 199
-4.07794 -4.38924 -0.11808 189 200 198
-4.08987 -4.39592 -0.11423 195 203 199
-4.10180 -4.40259 -0.11038 200 209 205
-4.11371 -4.40926 -0.10654 191 201 206
-4.12562 -4.41592 -0.10270 192 206 209
-4.13751 -4.42258 -0.09886 201 212 214
-4.14939 -4.42923 -0.09502 209 221 222
-4.16127 -4.43588 -0.09119 204 213 215
-4.17313 -4.44252 -0.08736 184 189 201
-4.18499 -4.44916 -0.08354 193 203 200
-4.19684 -4.45579 -0.07971 198 207 201
