ply
format ascii 1.0
element face 0
property list uchar int vertex_indices
element vertex 1256
property float x
property float y
property float z
property uchar diffuse_red
property uchar diffuse_green
property uchar diffuse_blue
end_header
-3.11505 -3.75177 1.73978 254 254 254
-3.12680 -3.75423 1.74066 254 254 254
-3.13854 -3.75669 1.74153 254 254 254
-3.15025 -3.75915 1.74240 254 254 254
-3.16195 -3.76160 1.74328 254 254 254
-3.17363 -3.76405 1.74415 254 254 254
-3.18530 -3.76649 1.74502 254 254 254
-3.19695 -3.76894 1.74588 254 254 254
-3.20858 -3.77137 1.74675 254 254 254
-1.99946 -3.49891 1.64031 254 254 254
-2.01288 -3.50174 1.64132 254 254 254
-2.07964 -3.51581 1.64636 254 254 254
-2.09293 -3.51861 1.64736 254 254 254
-2.10620 -3.52141 1.64836 254 254 254
-2.11945 -3.52420 1.64936 254 254 254
-2.13267 -3.52699 1.65036 254 254 254
-2.14588 -3.52977 1.65136 254 254 254
-2.15906 -3.53255 1.65235 254 254 254
-2.17222 -3.53532 1.65335 254 254 254
-2.18537 -3.53809 1.65434 254 254 254
-2.19849 -3.54086 1.65533 253 254 254
-2.21159 -3.54362 1.65632 252 254 253
-2.22467 -3.54638 1.65731 252 254 253
-2.23773 -3.54913 1.65829 251 253 252
-2.25077 -3.55188 1.65928 248 251 252
-2.26379 -3.55462 1.66026 249 252 252
-2.27679 -3.55736 1.66124 249 253 252
-2.28977 -3.56010 1.66222 249 253 252
-2.30273 -3.56283 1.66320 249 252 252
-2.31566 -3.56555 1.66417 249 252 252
-2.32858 -3.56828 1.66515 249 252 252
-2.34148 -3.57099 1.66612 249 252 252
-2.35435 -3.57371 1.66709 248 252 252
-2.36721 -3.57642 1.66806 247 252 252
-2.38005 -3.57912 1.66903 247 252 252
-2.39286 -3.58182 1.67000 246 252 251
-2.40566 -3.58452 1.67097 247 252 251
-2.41844 -3.58721 1.67193 247 252 251
-2.43120 -3.58990 1.67289 247 251 251
-2.44393 -3.59259 1.67386 246 250 251
-2.45665 -3.59527 1.67482 246 250 251
-2.46935 -3.59794 1.67577 241 247 248
-2.48203 -3.60062 1.67673 241 247 248
-2.49468 -3.60328 1.67769 244 249 250
-2.50732 -3.60595 1.67864 244 249 250
-2.51994 -3.60861 1.67959 242 248 249
-2.53254 -3.61126 1.68054 241 247 249
-2.54512 -3.61391 1.68149 242 247 249
-2.55768 -3.61656 1.68244 243 248 248
-2.57022 -3.61920 1.68339 242 247 248
-2.58274 -3.62184 1.68433 243 248 249
-2.70691 -3.64801 1.69371 253 254 254
-2.71922 -3.65060 1.69464 254 254 254
-2.73151 -3.65319 1.69556 254 254 254
-2.74379 -3.65578 1.69649 254 254 254
-2.75605 -3.65836 1.69741 254 254 254
-2.76828 -3.66094 1.69834 254 254 254
-2.78050 -3.66352 1.69926 254 254 254
-2.79270 -3.66609 1.70018 254 254 254
-2.80488 -3.66866 1.70110 254 254 254
-2.81705 -3.67122 1.70202 254 254 254
-2.82919 -3.67378 1.70294 254 254 254
-2.84132 -3.67633 1.70385 254 254 254
-2.85342 -3.67889 1.70476 254 254 254
-2.86551 -3.68143 1.70568 254 254 254
-2.87758 -3.68398 1.70659 254 254 254
-2.88964 -3.68652 1.70750 254 254 254
-2.90167 -3.68905 1.70841 254 254 254
-2.91369 -3.69159 1.70931 254 254 254
-2.92568 -3.69412 1.71022 254 254 254
-2.93766 -3.69664 1.71112 254 254 254
-2.94963 -3.69916 1.71203 254 254 254
-2.96157 -3.70168 1.71293 254 254 254
-2.97350 -3.70419 1.71383 254 254 254
-2.98541 -3.70670 1.71473 254 254 254
-2.99730 -3.70921 1.71562 254 254 254
-3.00917 -3.71171 1.71652 254 254 254
-3.02102 -3.71421 1.71742 254 254 254
-3.03286 -3.71670 1.71831 254 254 254
-3.04468 -3.71919 1.71920 254 254 254
-3.05648 -3.72168 1.72009 254 254 254
-3.06826 -3.72416 1.72098 254 254 254
-3.08003 -3.72664 1.72187 254 254 254
-3.09178 -3.72912 1.72276 254 254 254
-3.10351 -3.73159 1.72364 254 254 254
-3.11522 -3.73406 1.72453 254 254 254
-3.12692 -3.73652 1.72541 254 254 254
-3.13860 -3.73899 1.72629 254 254 254
-3.15026 -3.74144 1.72717 254 254 254
-3.16190 -3.74390 1.72805 254 254 254
-3.17353 -3.74635 1.72893 254 254 254
-3.18514 -3.74879 1.72980 254 254 254
-3.19673 -3.75124 1.73068 254 254 254
-1.99193 -3.47849 1.62353 254 254 254
-2.00530 -3.48133 1.62455 254 254 254
-2.01864 -3.48415 1.62557 254 254 254
-2.03197 -3.48698 1.62659 254 254 254
-2.04527 -3.48979 1.62761 254 254 254
-2.05855 -3.49261 1.62862 254 254 254
-2.07181 -3.49542 1.62964 254 254 254
-2.08505 -3.49822 1.63065 254 254 254
-2.09827 -3.50102 1.63166 254 254 254
-2.11146 -3.50382 1.63267 254 254 254
-2.12464 -3.50661 1.63368 254 254 254
-2.13779 -3.50940 1.63468 254 254 254
-2.15093 -3.51218 1.63569 254 254 254
-2.16404 -3.51496 1.63669 254 254 254
-2.17714 -3.51773 1.63769 254 254 254
-2.19021 -3.52050 1.63869 254 254 254
-2.20326 -3.52327 1.63969 254 254 254
-2.21630 -3.52603 1.64068 252 254 253
-2.22931 -3.52879 1.64168 251 253 252
-2.24230 -3.53154 1.64267 250 252 252
-2.25527 -3.53429 1.64366 246 250 252
-2.26822 -3.53703 1.64465 248 252 252
-2.28115 -3.53977 1.64564 250 252 252
-2.29406 -3.54251 1.64663 249 251 252
-2.30695 -3.54524 1.64761 250 252 252
-2.31982 -3.54796 1.64860 250 253 253
-2.33267 -3.55068 1.64958 251 253 253
-2.34550 -3.55340 1.65056 250 252 252
-2.35831 -3.55612 1.65154 249 252 252
-2.37110 -3.55883 1.65252 248 251 252
-2.38387 -3.56153 1.65349 248 252 251
-2.39662 -3.56423 1.65447 248 252 252
-2.40935 -3.56693 1.65544 248 252 252
-2.42206 -3.56962 1.65641 248 251 252
-2.43475 -3.57231 1.65738 246 251 251
-2.44742 -3.57500 1.65835 246 250 250
-2.46008 -3.57768 1.65932 245 250 250
-2.47271 -3.58035 1.66028 243 248 248
-2.48532 -3.58303 1.66125 243 249 249
-2.49791 -3.58570 1.66221 245 250 250
-2.51049 -3.58836 1.66317 243 249 250
-2.52304 -3.59102 1.66413 241 249 250
-2.53558 -3.59367 1.66509 240 247 249
-2.54809 -3.59633 1.66605 240 246 248
-2.56059 -3.59897 1.66700 242 247 249
-2.57307 -3.60162 1.66796 244 249 250
-2.58553 -3.60426 1.66891 246 251 251
-2.59797 -3.60689 1.66986 247 252 252
-2.61039 -3.60952 1.67081 249 252 252
-2.69680 -3.62783 1.67741 253 254 254
-2.70907 -3.63043 1.67835 254 254 254
-2.72132 -3.63303 1.67929 254 254 254
-2.73355 -3.63562 1.68022 254 254 254
-2.74576 -3.63821 1.68116 254 254 254
-2.75796 -3.64079 1.68209 254 254 254
-2.77014 -3.64337 1.68302 254 254 254
-2.78229 -3.64595 1.68395 254 254 254
-2.79443 -3.64852 1.68488 254 254 254
-2.80655 -3.65109 1.68581 254 254 254
-2.81866 -3.65365 1.68673 254 254 254
-2.83074 -3.65621 1.68765 254 254 254
-2.84281 -3.65877 1.68858 254 254 254
-2.85486 -3.66132 1.68950 254 254 254
-2.86689 -3.66387 1.69042 254 254 254
-2.87890 -3.66641 1.69134 254 254 254
-2.89089 -3.66895 1.69225 254 254 254
-2.90287 -3.67149 1.69317 254 254 254
-2.91483 -3.67403 1.69408 254 254 254
-2.92677 -3.67655 1.69499 254 254 254
-2.93869 -3.67908 1.69591 254 254 254
-2.95059 -3.68160 1.69682 254 254 254
-2.96248 -3.68412 1.69772 254 254 254
-2.97435 -3.68664 1.69863 254 254 254
-2.98620 -3.68915 1.69954 254 254 254
-2.99803 -3.69165 1.70044 254 254 254
-3.00984 -3.69416 1.70135 254 254 254
-3.02164 -3.69666 1.70225 254 254 254
-3.03342 -3.69915 1.70315 254 254 254
-3.04518 -3.70164 1.70405 254 254 254
-3.05693 -3.70413 1.70494 254 254 254
-3.06866 -3.70662 1.70584 254 254 254
-3.08037 -3.70910 1.70674 254 254 254
-3.09206 -3.71158 1.70763 254 254 254
-3.10373 -3.71405 1.70852 254 254 254
-3.11539 -3.71652 1.70941 254 254 254
-3.12703 -3.71899 1.71030 254 254 254
-3.13866 -3.72145 1.71119 254 254 254
-3.15026 -3.72391 1.71208 254 254 254
-3.16185 -3.72636 1.71297 254 254 254
-3.17342 -3.72881 1.71385 254 254 254
-3.18498 -3.73126 1.71473 254 254 254
-1.99778 -3.46108 1.60793 253 253 254
-2.01108 -3.46391 1.60896 254 254 254
-2.02435 -3.46674 1.60999 254 254 254
-2.03760 -3.46956 1.61101 254 254 254
-2.05083 -3.47238 1.61204 254 254 254
-2.06404 -3.47519 1.61306 254 254 254
-2.07723 -3.47800 1.61408 254 254 254
-2.09040 -3.48081 1.61510 254 254 254
-2.10355 -3.48361 1.61612 254 254 254
-2.11667 -3.48640 1.61713 254 254 254
-2.12978 -3.48919 1.61815 254 254 254
-2.14287 -3.49198 1.61916 254 254 254
-2.15593 -3.49476 1.62017 254 254 254
-2.16898 -3.49754 1.62118 254 254 254
-2.18200 -3.50032 1.62219 254 254 254
-2.19501 -3.50309 1.62319 254 254 254
-2.20799 -3.50585 1.62420 254 254 254
-2.22095 -3.50861 1.62520 253 254 254
-2.23390 -3.51137 1.62620 252 253 253
-2.24682 -3.51412 1.62721 252 253 253
-2.25972 -3.51687 1.62820 251 253 253
-2.27260 -3.51961 1.62920 251 253 253
-2.28547 -3.52235 1.63020 251 253 253
-2.29831 -3.52509 1.63119 250 252 252
-2.31113 -3.52782 1.63218 250 252 252
-2.32394 -3.53055 1.63317 251 253 253
-2.33672 -3.53327 1.63416 250 252 253
-2.34948 -3.53599 1.63515 250 252 252
-2.36223 -3.53870 1.63614 250 252 252
-2.37495 -3.54141 1.63712 250 253 252
-2.38765 -3.54412 1.63811 249 253 252
-2.40034 -3.54682 1.63909 249 253 253
-2.41300 -3.54951 1.64007 250 253 253
-2.42565 -3.55221 1.64105 249 252 252
-2.43827 -3.55490 1.64202 246 251 251
-2.45088 -3.55758 1.64300 245 251 251
-2.46347 -3.56026 1.64397 245 251 251
-2.47604 -3.56294 1.64495 246 251 250
-2.48858 -3.56561 1.64592 246 251 251
-2.50111 -3.56828 1.64689 245 250 251
-2.51362 -3.57094 1.64786 243 249 251
-2.52611 -3.57360 1.64882 242 248 250
-2.53859 -3.57626 1.64979 241 247 249
-2.55104 -3.57891 1.65075 241 246 248
-2.56347 -3.58156 1.65171 245 249 250
-2.57589 -3.58420 1.65267 247 251 252
-2.58828 -3.58685 1.65363 247 252 252
-2.60066 -3.58948 1.65459 249 252 252
-2.61302 -3.59211 1.65555 250 253 253
-2.68677 -3.60782 1.66126 252 254 254
-2.69900 -3.61042 1.66220 254 254 254
-2.71121 -3.61302 1.66315 254 254 254
-2.72340 -3.61562 1.66409 254 254 254
-2.73557 -3.61821 1.66503 254 254 254
-2.74772 -3.62080 1.66597 254 254 254
-2.75985 -3.62339 1.66691 254 254 254
-2.77197 -3.62597 1.66785 254 254 254
-2.78407 -3.62854 1.66879 254 254 254
-2.79615 -3.63112 1.66972 254 254 254
-2.80821 -3.63368 1.67066 254 254 254
-2.82025 -3.63625 1.67159 254 254 254
-2.83228 -3.63881 1.67252 254 254 254
-2.84429 -3.64137 1.67345 254 254 254
-2.85628 -3.64392 1.67438 254 254 254
-2.86825 -3.64647 1.67530 254 254 254
-2.88020 -3.64902 1.67623 254 254 254
-2.89214 -3.65156 1.67715 254 254 254
-2.90405 -3.65410 1.67807 254 254 254
-2.91595 -3.65663 1.67900 254 254 254
-2.92784 -3.65916 1.67992 254 254 254
-2.93970 -3.66169 1.68083 254 254 254
-2.95155 -3.66421 1.68175 254 254 254
-2.96338 -3.66673 1.68267 254 254 254
-2.97519 -3.66925 1.68358 254 254 254
-2.98698 -3.67176 1.68449 254 254 254
-2.99876 -3.67427 1.68540 254 254 254
-3.01052 -3.67677 1.68631 254 254 254
-3.02226 -3.67927 1.68722 254 254 254
-3.03398 -3.68177 1.68813 254 254 254
-3.04569 -3.68426 1.68904 254 254 254
-3.05738 -3.68675 1.68994 254 254 254
-3.06905 -3.68924 1.69084 254 254 254
-3.08070 -3.69172 1.69175 254 254 254
-3.09234 -3.69420 1.69265 254 254 254
-3.10396 -3.69667 1.69355 254 254 254
-3.11556 -3.69914 1.69445 254 254 254
-3.16180 -3.70899 1.69802 254 254 254
-3.17332 -3.71144 1.69892 254 254 254
-2.00358 -3.44385 1.59249 253 254 254
-2.01680 -3.44668 1.59352 254 254 254
-2.03000 -3.44950 1.59456 254 254 254
-2.04318 -3.45232 1.59559 254 254 254
-2.05634 -3.45514 1.59662 254 254 254
-2.06948 -3.45795 1.59765 254 254 254
-2.08260 -3.46076 1.59868 254 254 254
-2.09570 -3.46357 1.59970 254 254 254
-2.10878 -3.46637 1.60073 254 254 254
-2.12183 -3.46916 1.60175 254 254 254
-2.13487 -3.47195 1.60277 254 254 254
-2.14789 -3.47474 1.60379 254 254 254
-2.16088 -3.47752 1.60481 254 254 254
-2.17386 -3.48030 1.60583 254 254 254
-2.18682 -3.48307 1.60684 254 254 254
-2.19975 -3.48584 1.60785 254 254 254
-2.21267 -3.48861 1.60887 254 254 254
-2.22556 -3.49137 1.60988 254 254 254
-2.23844 -3.49412 1.61089 253 254 254
-2.25129 -3.49688 1.61189 254 254 254
-2.26413 -3.49962 1.61290 254 254 254
-2.27695 -3.50237 1.61390 254 254 254
-2.28974 -3.50511 1.61490 254 254 254
-2.30252 -3.50784 1.61591 253 254 254
-2.31527 -3.51057 1.61691 252 253 253
-2.32801 -3.51330 1.61790 252 253 253
-2.34073 -3.51602 1.61890 250 252 253
-2.35343 -3.51874 1.61989 250 252 253
-2.36610 -3.52145 1.62089 250 252 253
-2.37876 -3.52416 1.62188 250 253 253
-2.39140 -3.52687 1.62287 247 252 252
-2.40402 -3.52957 1.62386 247 252 252
-2.41662 -3.53227 1.62485 249 252 252
-2.42920 -3.53496 1.62583 249 252 252
-2.44176 -3.53765 1.62681 248 252 251
-2.45430 -3.54034 1.62780 247 252 252
-2.46683 -3.54302 1.62878 247 252 252
-2.47933 -3.54569 1.62976 247 252 252
-2.49182 -3.54837 1.63074 246 252 252
-2.50428 -3.55103 1.63171 246 251 252
-2.51673 -3.55370 1.63269 244 250 251
-2.52916 -3.55636 1.63366 244 248 250
-2.54156 -3.55902 1.63463 245 249 250
-2.55395 -3.56167 1.63560 246 250 250
-2.56633 -3.56432 1.63657 249 252 252
-2.57868 -3.56696 1.63754 249 252 252
-2.59101 -3.56960 1.63851 249 252 252
-2.60333 -3.57224 1.63947 250 253 253
-2.67682 -3.58797 1.64523 252 253 254
-2.68901 -3.59058 1.64619 254 254 254
-2.70117 -3.59318 1.64714 254 254 254
-2.71332 -3.59579 1.64809 254 254 254
-2.72545 -3.59838 1.64904 254 254 254
-2.73756 -3.60097 1.64999 254 254 254
-2.74966 -3.60356 1.65094 254 254 254
-2.76173 -3.60615 1.65188 254 254 254
-2.77379 -3.60873 1.65283 254 254 254
-2.78583 -3.61131 1.65377 254 254 254
-2.79785 -3.61388 1.65471 254 254 254
-2.80985 -3.61645 1.65565 254 254 254
-2.82184 -3.61902 1.65659 254 254 254
-2.83380 -3.62158 1.65753 254 254 254
-2.84575 -3.62414 1.65847 254 254 254
-2.85768 -3.62669 1.65940 254 254 254
-2.86960 -3.62924 1.66033 254 254 254
-2.88149 -3.63179 1.66127 254 254 254
-2.89337 -3.63433 1.66220 254 254 254
-2.90523 -3.63687 1.66312 254 254 254
-2.91707 -3.63940 1.66405 254 254 254
-2.92890 -3.64193 1.66498 254 254 254
-2.94070 -3.64446 1.66590 254 254 254
-2.95249 -3.64699 1.66683 254 254 254
-2.96426 -3.64951 1.66775 254 254 254
-2.97602 -3.65202 1.66867 254 254 254
-2.98776 -3.65454 1.66959 254 254 254
-2.99948 -3.65704 1.67051 254 254 254
-3.01118 -3.65955 1.67143 254 254 254
-3.02286 -3.66205 1.67234 254 254 254
-3.03453 -3.66455 1.67326 254 254 254
-3.04618 -3.66704 1.67417 254 254 254
-3.05782 -3.66953 1.67508 254 254 254
-3.06943 -3.67202 1.67599 254 254 254
-3.08103 -3.67450 1.67690 254 254 254
-3.09261 -3.67698 1.67781 254 254 254
-3.10418 -3.67946 1.67871 254 254 254
-1.99614 -3.42395 1.57615 254 254 254
-2.00931 -3.42678 1.57720 254 254 254
-2.02247 -3.42961 1.57824 254 254 254
-2.03560 -3.43244 1.57928 254 254 254
-2.04871 -3.43526 1.58032 254 254 254
-2.06180 -3.43807 1.58136 254 254 254
-2.07487 -3.44089 1.58239 254 254 254
-2.08792 -3.44369 1.58343 254 254 254
-2.10095 -3.44650 1.58446 254 254 254
-2.11395 -3.44930 1.58549 254 254 254
-2.12694 -3.45209 1.58652 254 254 254
-2.13991 -3.45488 1.58755 253 254 254
-2.15286 -3.45767 1.58858 254 254 254
-2.16579 -3.46045 1.58960 254 254 254
-2.17870 -3.46323 1.59062 254 254 254
-2.19158 -3.46600 1.59165 254 254 254
-2.20445 -3.46877 1.59267 254 254 254
-2.21730 -3.47153 1.59368 254 254 254
-2.23013 -3.47429 1.59470 254 254 254
-2.24294 -3.47705 1.59572 254 254 254
-2.25573 -3.47980 1.59673 254 254 254
-2.26850 -3.48255 1.59774 254 254 254
-2.28124 -3.48529 1.59875 254 254 254
-2.29397 -3.48803 1.59976 254 254 254
-2.30668 -3.49077 1.60077 254 254 254
-2.31938 -3.49350 1.60178 254 254 254
-2.33205 -3.49622 1.60278 254 254 254
-2.34470 -3.49894 1.60378 253 254 254
-2.35733 -3.50166 1.60479 252 254 253
-2.36994 -3.50438 1.60579 252 253 253
-2.38254 -3.50709 1.60678 251 253 252
-2.39511 -3.50979 1.60778 248 252 252
-2.40767 -3.51249 1.60878 248 252 252
-2.42020 -3.51519 1.60977 248 252 252
-2.43272 -3.51788 1.61076 248 252 252
-2.44522 -3.52057 1.61175 248 251 252
-2.45769 -3.52326 1.61274 247 251 251
-2.47015 -3.52594 1.61373 247 252 252
-2.48259 -3.52861 1.61472 245 251 251
-2.49502 -3.53129 1.61570 244 250 251
-2.50742 -3.53396 1.61669 245 250 250
-2.51980 -3.53662 1.61767 246 251 251
-2.53217 -3.53928 1.61865 248 251 252
-2.54451 -3.54194 1.61963 250 252 252
-2.55684 -3.54459 1.62060 250 253 253
-2.56915 -3.54724 1.62158 251 253 253
-2.58144 -3.54988 1.62255 250 252 253
-2.59371 -3.55252 1.62353 250 252 253
-2.60597 -3.55516 1.62450 250 253 253
-2.66696 -3.56828 1.62933 251 253 254
-2.67910 -3.57090 1.63030 254 254 254
-2.69122 -3.57350 1.63126 254 254 254
-2.70333 -3.57611 1.63222 254 254 254
-2.71542 -3.57871 1.63318 254 254 254
-2.72749 -3.58131 1.63413 254 254 254
-2.73954 -3.58390 1.63509 254 254 254
-2.75157 -3.58649 1.63604 254 254 254
-2.76359 -3.58908 1.63700 254 254 254
-2.77559 -3.59166 1.63795 254 254 254
-2.78757 -3.59423 1.63890 254 254 254
-2.79953 -3.59681 1.63984 254 254 254
-2.81148 -3.59938 1.64079 254 254 254
-2.82340 -3.60194 1.64174 254 254 254
-2.83531 -3.60451 1.64268 254 254 254
-2.84720 -3.60707 1.64362 254 254 254
-2.85908 -3.60962 1.64457 254 254 254
-2.87093 -3.61217 1.64551 254 254 254
-2.88277 -3.61472 1.64644 254 254 254
-2.89459 -3.61726 1.64738 254 254 254
-2.90639 -3.61980 1.64832 254 254 254
-2.91818 -3.62234 1.64925 254 254 254
-2.92995 -3.62487 1.65018 254 254 254
-2.94170 -3.62740 1.65112 254 254 254
-2.95343 -3.62992 1.65205 254 254 254
-2.96515 -3.63244 1.65297 254 254 254
-2.97685 -3.63496 1.65390 254 254 254
-2.98853 -3.63747 1.65483 254 254 254
-3.00019 -3.63998 1.65575 254 254 254
-3.01184 -3.64249 1.65668 254 254 254
-3.02347 -3.64499 1.65760 254 254 254
-3.03508 -3.64749 1.65852 254 254 254
-3.04668 -3.64999 1.65944 254 254 254
-3.05825 -3.65248 1.66036 254 254 254
-3.06982 -3.65496 1.66127 254 254 254
-3.08136 -3.65745 1.66219 254 254 254
-3.09289 -3.65993 1.66310 254 254 254
-1.98877 -3.40422 1.55995 254 254 254
-2.00189 -3.40705 1.56101 254 254 254
-2.01499 -3.40989 1.56206 254 254 254
-2.02807 -3.41272 1.56311 254 254 254
-2.04114 -3.41554 1.56415 254 254 254
-2.05418 -3.41836 1.56520 254 254 254
-2.06720 -3.42118 1.56624 254 254 254
-2.08020 -3.42399 1.56729 254 254 254
-2.09318 -3.42680 1.56833 254 254 254
-2.10614 -3.42960 1.56937 254 254 254
-2.11908 -3.43240 1.57041 254 254 254
-2.13200 -3.43519 1.57144 254 254 254
-2.14490 -3.43798 1.57248 253 254 254
-2.15778 -3.44076 1.57351 253 254 254
-2.17064 -3.44355 1.57454 254 254 254
-2.18348 -3.44632 1.57557 254 254 254
-2.19631 -3.44910 1.57660 254 254 254
-2.20911 -3.45186 1.57763 254 254 254
-2.22189 -3.45463 1.57865 254 254 254
-2.23465 -3.45739 1.57968 254 254 254
-2.24739 -3.46014 1.58070 254 254 254
-2.26011 -3.46289 1.58172 254 254 254
-2.27282 -3.46564 1.58274 252 254 254
-2.28550 -3.46838 1.58375 253 254 254
-2.29817 -3.47112 1.58477 254 254 254
-2.31081 -3.47386 1.58578 254 254 254
-2.32344 -3.47659 1.58680 254 254 254
-2.33604 -3.47931 1.58781 254 254 254
-2.34863 -3.48203 1.58882 253 254 254
-2.36120 -3.48475 1.58983 253 254 254
-2.37375 -3.48747 1.59083 253 254 253
-2.38627 -3.49017 1.59184 252 253 252
-2.39878 -3.49288 1.59284 251 253 253
-2.41128 -3.49558 1.59384 250 253 253
-2.42375 -3.49828 1.59484 250 253 253
-2.43620 -3.50097 1.59584 249 252 253
-2.44864 -3.50366 1.59684 250 252 253
-2.46105 -3.50634 1.59783 248 252 252
-2.47345 -3.50903 1.59883 246 251 251
-2.48583 -3.51170 1.59982 245 250 251
-2.49819 -3.51437 1.60081 244 250 251
-2.51053 -3.51704 1.60180 243 250 251
-2.52285 -3.51971 1.60279 246 252 252
-2.53515 -3.52237 1.60378 248 253 253
-2.54744 -3.52502 1.60476 250 253 253
-2.55970 -3.52768 1.60575 250 253 253
-2.57195 -3.53033 1.60673 250 251 252
-2.58418 -3.53297 1.60771 249 252 252
-2.59639 -3.53561 1.60869 251 253 253
-2.65717 -3.54875 1.61357 250 252 253
-2.66927 -3.55137 1.61454 254 254 254
-2.68135 -3.55398 1.61551 254 254 254
-2.69342 -3.55659 1.61647 254 254 254
-2.70547 -3.55920 1.61744 254 254 254
-2.71749 -3.56180 1.61840 254 254 254
-2.72951 -3.56440 1.61937 254 254 254
-2.74150 -3.56699 1.62033 254 254 254
-2.75347 -3.56958 1.62129 254 254 254
-2.76543 -3.57216 1.62225 254 254 254
-2.77737 -3.57475 1.62321 254 254 254
-2.78929 -3.57732 1.62416 254 254 254
-2.80120 -3.57990 1.62512 254 254 254
-2.81308 -3.58247 1.62607 254 254 254
-2.82495 -3.58504 1.62702 254 254 254
-2.83680 -3.58760 1.62797 254 254 254
-2.84864 -3.59016 1.62892 254 254 254
-2.86046 -3.59271 1.62987 254 254 254
-2.87225 -3.59526 1.63082 254 254 254
-2.88403 -3.59781 1.63176 254 254 254
-2.89580 -3.60036 1.63271 254 254 254
-2.90755 -3.60290 1.63365 254 254 254
-2.91927 -3.60543 1.63459 254 254 254
-2.93099 -3.60796 1.63553 254 254 254
-2.94268 -3.61049 1.63647 254 254 254
-2.95436 -3.61302 1.63740 254 254 254
-2.96602 -3.61554 1.63834 254 254 254
-2.97766 -3.61806 1.63927 254 254 254
-2.98929 -3.62057 1.64020 254 254 254
-3.00090 -3.62308 1.64114 254 254 254
-3.01249 -3.62559 1.64207 254 254 254
-3.02406 -3.62809 1.64299 254 254 254
-3.03562 -3.63059 1.64392 254 254 254
-3.04716 -3.63309 1.64485 254 254 254
-3.05869 -3.63558 1.64577 254 254 254
-3.07020 -3.63807 1.64669 254 254 254
-3.08169 -3.64055 1.64762 254 254 254
-3.09316 -3.64303 1.64854 254 254 254
-2.00758 -3.39033 1.54601 254 254 254
-2.02061 -3.39316 1.54707 254 254 254
-2.03363 -3.39599 1.54812 254 254 254
-2.04662 -3.39881 1.54918 254 254 254
-2.05959 -3.40163 1.55023 254 254 254
-2.07255 -3.40445 1.55128 254 254 254
-2.08548 -3.40726 1.55233 254 254 254
-2.09839 -3.41006 1.55338 254 254 254
-2.11128 -3.41286 1.55442 254 254 254
-2.12416 -3.41566 1.55547 254 254 254
-2.13701 -3.41845 1.55651 254 254 254
-2.14984 -3.42124 1.55755 253 254 254
-2.16266 -3.42403 1.55859 253 254 254
-2.17545 -3.42681 1.55963 254 254 254
-2.18822 -3.42958 1.56067 254 254 254
-2.20098 -3.43236 1.56170 253 254 254
-2.21371 -3.43512 1.56273 253 254 254
-2.22643 -3.43789 1.56377 254 254 254
-2.23913 -3.44065 1.56480 254 254 254
-2.25180 -3.44340 1.56582 254 254 254
-2.26446 -3.44615 1.56685 254 254 254
-2.27710 -3.44890 1.56788 253 254 254
-2.28972 -3.45164 1.56890 253 254 254
-2.30232 -3.45438 1.56992 254 254 254
-2.31490 -3.45711 1.57094 254 254 254
-2.32746 -3.45984 1.57196 254 254 254
-2.34000 -3.46257 1.57298 254 254 254
-2.35252 -3.46529 1.57400 254 254 254
-2.36503 -3.46800 1.57501 252 254 254
-2.37751 -3.47072 1.57602 252 253 253
-2.38998 -3.47343 1.57703 252 253 253
-2.40242 -3.47613 1.57804 251 253 253
-2.41485 -3.47883 1.57905 250 253 253
-2.42726 -3.48153 1.58006 250 253 253
-2.43965 -3.48422 1.58106 251 253 253
-2.45202 -3.48691 1.58207 251 253 253
-2.46438 -3.48959 1.58307 248 250 251
-2.47671 -3.49228 1.58407 244 247 249
-2.48903 -3.49495 1.58507 243 247 249
-2.50132 -3.49762 1.58607 241 247 250
-2.51360 -3.50029 1.58706 239 248 250
-2.52586 -3.50296 1.58806 242 249 251
-2.53811 -3.50562 1.58905 244 250 252
-2.55033 -3.50827 1.59004 246 250 253
-2.56253 -3.51093 1.59103 248 251 252
-2.57472 -3.51357 1.59202 249 251 252
-2.58689 -3.51622 1.59301 250 252 252
-2.64746 -3.52938 1.59792 249 251 253
-2.65952 -3.53200 1.59890 254 254 254
-2.67156 -3.53462 1.59988 254 254 254
-2.68359 -3.53723 1.60085 254 254 254
-2.69559 -3.53984 1.60183 254 254 254
-2.70758 -3.54245 1.60280 254 254 254
-2.71955 -3.54505 1.60377 254 254 254
-2.73150 -3.54764 1.60474 254 254 254
-2.74344 -3.55024 1.60571 254 254 254
-2.75536 -3.55283 1.60668 254 254 254
-2.76726 -3.55541 1.60764 254 254 254
-2.77914 -3.55800 1.60861 254 254 254
-2.79100 -3.56057 1.60957 254 254 254
-2.80285 -3.56315 1.61053 254 254 254
-2.81468 -3.56572 1.61149 254 254 254
-2.82649 -3.56829 1.61245 254 254 254
-2.83829 -3.57085 1.61340 254 254 254
-2.85006 -3.57341 1.61436 254 254 254
-2.86182 -3.57596 1.61531 254 254 254
-2.87356 -3.57852 1.61627 254 254 254
-2.88529 -3.58106 1.61722 254 254 254
-2.89700 -3.58361 1.61817 254 254 254
-2.90869 -3.58615 1.61912 254 254 254
-2.92036 -3.58869 1.62006 254 254 254
-2.93202 -3.59122 1.62101 254 254 254
-2.94366 -3.59375 1.62195 254 254 254
-2.95528 -3.59627 1.62290 254 254 254
-2.96688 -3.59880 1.62384 254 254 254
-2.97847 -3.60131 1.62478 254 254 254
-2.99004 -3.60383 1.62572 254 254 254
-3.00160 -3.60634 1.62665 254 254 254
-3.01314 -3.60885 1.62759 254 254 254
-3.02466 -3.61135 1.62852 254 254 254
-3.03616 -3.61385 1.62946 254 254 254
-3.04765 -3.61635 1.63039 254 254 254
-3.05912 -3.61884 1.63132 254 254 254
-3.07057 -3.62133 1.63225 254 254 254
-3.08201 -3.62381 1.63318 254 254 254
-2.03913 -3.37942 1.53329 254 254 254
-2.05205 -3.38225 1.53435 254 254 254
-2.06496 -3.38506 1.53541 254 254 254
-2.07784 -3.38788 1.53647 254 254 254
-2.09071 -3.39069 1.53752 254 254 254
-2.10355 -3.39349 1.53858 254 254 254
-2.11638 -3.39629 1.53963 254 254 254
-2.12918 -3.39909 1.54068 254 254 254
-2.14197 -3.40188 1.54173 254 254 254
-2.15474 -3.40467 1.54277 254 254 254
-2.16748 -3.40745 1.54382 254 254 254
-2.18021 -3.41023 1.54486 254 254 254
-2.19292 -3.41301 1.54591 254 254 254
-2.20561 -3.41578 1.54695 253 254 254
-2.21828 -3.41855 1.54799 253 254 254
-2.23093 -3.42131 1.54902 254 254 254
-2.24356 -3.42407 1.55006 254 254 254
-2.25617 -3.42682 1.55110 254 254 254
-2.26876 -3.42957 1.55213 254 254 254
-2.28134 -3.43232 1.55316 254 254 254
-2.29389 -3.43506 1.55419 254 254 254
-2.30643 -3.43779 1.55522 254 254 254
-2.31894 -3.44053 1.55625 254 254 254
-2.33144 -3.44326 1.55727 254 254 254
-2.34392 -3.44598 1.55829 254 254 254
-2.35638 -3.44870 1.55932 254 254 254
-2.36882 -3.45142 1.56034 253 254 254
-2.38124 -3.45413 1.56136 252 253 253
-2.39364 -3.45684 1.56237 252 253 253
-2.40603 -3.45954 1.56339 252 253 253
-2.41839 -3.46225 1.56440 251 253 253
-2.43074 -3.46494 1.56542 251 253 253
-2.44307 -3.46763 1.56643 251 253 253
-2.45538 -3.47032 1.56744 250 252 253
-2.46767 -3.47301 1.56845 247 249 251
-2.47994 -3.47569 1.56945 244 247 249
-2.49220 -3.47836 1.57046 242 246 249
-2.50443 -3.48103 1.57146 240 246 249
-2.51665 -3.48370 1.57247 240 247 249
-2.52885 -3.48637 1.57347 243 249 250
-2.54103 -3.48903 1.57447 246 250 252
-2.55320 -3.49168 1.57546 248 251 253
-2.56534 -3.49433 1.57646 250 252 253
-2.57747 -3.49698 1.57745 251 253 253
-2.63783 -3.51016 1.58241 248 251 253
-2.64985 -3.51279 1.58339 254 254 254
-2.66185 -3.51541 1.58438 254 254 254
-2.67383 -3.51803 1.58536 254 254 254
-2.68580 -3.52064 1.58634 254 254 254
-2.69775 -3.52325 1.58732 254 254 254
-2.70968 -3.52585 1.58830 254 254 254
-2.72159 -3.52845 1.58928 254 254 254
-2.73348 -3.53105 1.59025 254 254 254
-2.74536 -3.53365 1.59123 254 254 254
-2.75722 -3.53624 1.59220 254 254 254
-2.76906 -3.53882 1.59317 254 254 254
-2.78089 -3.54140 1.59414 254 254 254
-2.79270 -3.54398 1.59511 254 254 254
-2.80448 -3.54656 1.59608 254 254 254
-2.81626 -3.54913 1.59705 254 254 254
-2.82801 -3.55169 1.59801 254 254 254
-2.83975 -3.55426 1.59897 254 254 254
-2.85147 -3.55682 1.59993 254 254 254
-2.86318 -3.55937 1.60089 254 254 254
-2.87486 -3.56192 1.60185 254 254 254
-2.88653 -3.56447 1.60281 254 254 254
-2.89818 -3.56702 1.60377 254 254 254
-2.90982 -3.56956 1.60472 254 254 254
-2.92144 -3.57209 1.60567 254 254 254
-2.93304 -3.57463 1.60663 254 254 254
-2.94462 -3.57716 1.60758 254 254 254
-2.95619 -3.57968 1.60853 254 254 254
-2.96774 -3.58221 1.60947 254 254 254
-2.97927 -3.58472 1.61042 254 254 254
-2.99079 -3.58724 1.61136 254 254 254
-3.00229 -3.58975 1.61231 254 254 254
-3.01378 -3.59226 1.61325 254 254 254
-3.02524 -3.59476 1.61419 254 254 254
-3.03669 -3.59726 1.61513 254 254 254
-3.04813 -3.59976 1.61607 254 254 254
-3.05954 -3.60225 1.61700 254 254 254
-3.07094 -3.60474 1.61794 254 254 254
-2.07027 -3.36866 1.52073 254 254 254
-2.08308 -3.37147 1.52179 254 254 254
-2.09588 -3.37428 1.52286 254 254 254
-2.10866 -3.37709 1.52392 254 254 254
-2.12142 -3.37989 1.52497 254 254 254
-2.13416 -3.38268 1.52603 254 254 254
-2.14688 -3.38547 1.52709 254 254 254
-2.15958 -3.38826 1.52814 254 254 254
-2.17226 -3.39104 1.52919 254 254 254
-2.18493 -3.39382 1.53024 254 254 254
-2.19757 -3.39659 1.53129 254 254 254
-2.21019 -3.39936 1.53234 254 254 254
-2.22280 -3.40213 1.53338 254 254 254
-2.23538 -3.40489 1.53443 254 254 254
-2.24795 -3.40765 1.53547 254 254 254
-2.26050 -3.41040 1.53651 254 254 254
-2.27302 -3.41315 1.53755 254 254 254
-2.28553 -3.41590 1.53859 254 254 254
-2.29803 -3.41864 1.53962 254 254 254
-2.31050 -3.42137 1.54066 254 254 254
-2.32295 -3.42410 1.54169 254 254 254
-2.33538 -3.42683 1.54272 254 254 254
-2.34780 -3.42956 1.54375 254 254 254
-2.36020 -3.43228 1.54478 254 254 254
-2.37257 -3.43499 1.54581 253 254 254
-2.38493 -3.43771 1.54683 251 253 253
-2.39727 -3.44041 1.54785 251 253 253
-2.40960 -3.44312 1.54888 253 254 254
-2.42190 -3.44582 1.54990 253 254 254
-2.43419 -3.44851 1.55092 253 254 253
-2.44645 -3.45120 1.55193 252 253 253
-2.45870 -3.45389 1.55295 251 253 253
-2.47093 -3.45657 1.55396 249 252 252
-2.48314 -3.45925 1.55498 249 252 252
-2.49534 -3.46193 1.55599 249 252 252
-2.50751 -3.46460 1.55700 248 251 252
-2.51967 -3.46727 1.55801 248 252 252
-2.53181 -3.46993 1.55901 250 253 253
-2.54393 -3.47259 1.56002 252 254 253
-2.55603 -3.47525 1.56102 253 254 254
-2.56812 -3.47790 1.56202 253 254 254
-2.64025 -3.49373 1.56801 253 254 254
-2.65222 -3.49635 1.56900 254 254 254
-2.66416 -3.49897 1.56999 254 254 254
-2.67608 -3.50159 1.57098 254 254 254
-2.68799 -3.50420 1.57197 254 254 254
-2.69988 -3.50681 1.57295 254 254 254
-2.71175 -3.50942 1.57394 254 254 254
-2.72361 -3.51202 1.57492 254 254 254
-2.73544 -3.51461 1.57590 254 254 254
-2.74726 -3.51721 1.57688 254 254 254
-2.75907 -3.51980 1.57786 254 254 254
-2.77085 -3.52238 1.57884 254 254 254
-2.78262 -3.52497 1.57982 254 254 254
-2.79437 -3.52754 1.58079 254 254 254
-2.80611 -3.53012 1.58176 254 254 254
-2.81782 -3.53269 1.58274 254 254 254
-2.82952 -3.53526 1.58371 254 254 254
-2.84120 -3.53782 1.58467 254 254 254
-2.85287 -3.54038 1.58564 254 254 254
-2.86452 -3.54293 1.58661 254 254 254
-2.87615 -3.54549 1.58757 254 254 254
-2.88776 -3.54804 1.58854 254 254 254
-2.89936 -3.55058 1.58950 254 254 254
-2.91094 -3.55312 1.59046 254 254 254
-2.92250 -3.55566 1.59142 254 254 254
-2.93405 -3.55819 1.59238 254 254 254
-2.94558 -3.56072 1.59333 254 254 254
-2.95709 -3.56325 1.59429 254 254 254
-2.96859 -3.56577 1.59524 254 254 254
-2.98007 -3.56829 1.59619 254 254 254
-2.99153 -3.57080 1.59714 254 254 254
-3.00298 -3.57332 1.59809 254 254 254
-3.01441 -3.57582 1.59904 254 254 254
-3.02582 -3.57833 1.59999 254 254 254
-3.03722 -3.58083 1.60093 254 254 254
-3.04860 -3.58333 1.60188 254 254 254
-3.05996 -3.58582 1.60282 254 254 254
-3.07131 -3.58831 1.60376 254 254 254
-2.10101 -3.35804 1.50833 254 254 254
-2.11372 -3.36084 1.50940 254 254 254
-2.12642 -3.36364 1.51046 254 254 254
-2.13909 -3.36643 1.51153 254 254 254
-2.15174 -3.36922 1.51259 254 254 254
-2.16438 -3.37201 1.51365 254 254 254
-2.17700 -3.37479 1.51470 254 254 254
-2.18959 -3.37756 1.51576 254 254 254
-2.20217 -3.38034 1.51681 254 254 254
-2.21473 -3.38311 1.51787 254 254 254
-2.22727 -3.38587 1.51892 254 254 254
-2.23979 -3.38863 1.51997 254 254 254
-2.25230 -3.39139 1.52102 254 254 254
-2.26478 -3.39414 1.52206 254 254 254
-2.27725 -3.39689 1.52311 254 254 254
-2.28969 -3.39963 1.52415 254 254 254
-2.30212 -3.40237 1.52519 254 254 254
-2.31453 -3.40511 1.52623 254 254 254
-2.32692 -3.40784 1.52727 254 254 254
-2.33929 -3.41057 1.52831 254 254 254
-2.35164 -3.41329 1.52935 254 254 254
-2.36398 -3.41601 1.53038 254 254 254
-2.37629 -3.41872 1.53141 254 254 254
-2.38859 -3.42144 1.53244 251 253 254
-2.40087 -3.42414 1.53347 252 253 254
-2.41313 -3.42685 1.53450 254 254 254
-2.42537 -3.42954 1.53553 254 254 254
-2.43760 -3.43224 1.53655 253 254 253
-2.44980 -3.43493 1.53758 252 253 253
-2.46199 -3.43762 1.53860 252 253 253
-2.47416 -3.44030 1.53962 251 253 253
-2.48631 -3.44298 1.54064 251 252 252
-2.49845 -3.44565 1.54165 252 253 253
-2.51056 -3.44832 1.54267 253 254 253
-2.52266 -3.45099 1.54368 252 254 253
-2.53474 -3.45366 1.54470 252 254 253
-2.54680 -3.45631 1.54571 252 254 254
-2.55885 -3.45897 1.54672 253 254 254
-2.63074 -3.47482 1.55274 252 254 254
-2.64266 -3.47745 1.55374 254 254 254
-2.65456 -3.48007 1.55474 254 254 254
-2.66644 -3.48269 1.55574 254 254 254
-2.67831 -3.48531 1.55673 254 254 254
-2.69016 -3.48792 1.55773 254 254 254
-2.70199 -3.49053 1.55872 254 254 254
-2.71381 -3.49313 1.55971 254 254 254
-2.72561 -3.49573 1.56070 254 254 254
-2.73739 -3.49833 1.56169 254 254 254
-2.74915 -3.50092 1.56267 254 254 254
-2.76090 -3.50351 1.56366 254 254 254
-2.77263 -3.50610 1.56464 254 254 254
-2.78434 -3.50868 1.56562 254 254 254
-2.79603 -3.51126 1.56660 254 254 254
-2.80771 -3.51383 1.56758 254 254 254
-2.81937 -3.51640 1.56856 254 254 254
-2.83102 -3.51897 1.56953 254 254 254
-2.84264 -3.52153 1.57051 254 254 254
-2.85425 -3.52409 1.57148 254 254 254
-2.86585 -3.52665 1.57245 254 254 254
-2.87742 -3.52920 1.57343 254 254 254
-2.88898 -3.53175 1.57439 254 254 254
-2.90052 -3.53430 1.57536 254 254 254
-2.91205 -3.53684 1.57633 254 254 254
-2.92356 -3.53937 1.57729 254 254 254
-2.93505 -3.54191 1.57826 254 254 254
-2.94653 -3.54444 1.57922 254 254 254
-2.95799 -3.54696 1.58018 254 254 254
-2.96943 -3.54949 1.58114 254 254 254
-2.98086 -3.55201 1.58210 254 254 254
-2.99227 -3.55452 1.58305 254 254 254
-3.00366 -3.55703 1.58401 254 254 254
-3.01504 -3.55954 1.58496 254 254 254
-3.02640 -3.56205 1.58592 254 254 254
-3.03774 -3.56455 1.58687 254 254 254
-3.04907 -3.56704 1.58782 254 254 254
-3.06038 -3.56954 1.58876 254 254 254
-2.14397 -3.35034 1.49716 254 254 254
-2.15656 -3.35313 1.49823 254 254 254
-2.16913 -3.35591 1.49929 254 254 254
-2.18168 -3.35869 1.50036 254 254 254
-2.19422 -3.36147 1.50142 254 254 254
-2.20673 -3.36424 1.50248 254 254 254
-2.21923 -3.36701 1.50354 254 254 254
-2.23171 -3.36977 1.50459 254 254 254
-2.24416 -3.37253 1.50565 254 254 254
-2.25660 -3.37528 1.50670 254 254 254
-2.26902 -3.37803 1.50776 254 254 254
-2.28143 -3.38078 1.50881 254 254 254
-2.29381 -3.38352 1.50986 254 254 254
-2.30617 -3.38626 1.51090 254 254 254
-2.31852 -3.38900 1.51195 254 254 254
-2.33085 -3.39173 1.51299 254 254 254
-2.34316 -3.39445 1.51404 254 254 254
-2.35545 -3.39718 1.51508 253 254 254
-2.36772 -3.39990 1.51612 254 254 254
-2.37998 -3.40261 1.51716 254 254 254
-2.39221 -3.40532 1.51819 253 254 254
-2.40443 -3.40803 1.51923 252 252 253
-2.41663 -3.41073 1.52026 253 253 254
-2.42881 -3.41343 1.52129 254 254 254
-2.44098 -3.41612 1.52232 253 254 254
-2.45312 -3.41881 1.52335 252 253 253
-2.46525 -3.42150 1.52438 252 253 253
-2.47736 -3.42418 1.52541 252 253 253
-2.48945 -3.42686 1.52643 252 253 253
-2.50153 -3.42953 1.52745 253 254 254
-2.51358 -3.43220 1.52848 254 254 254
-2.52562 -3.43487 1.52950 254 254 254
-2.53764 -3.43753 1.53051 253 254 254
-2.54965 -3.44019 1.53153 254 254 254
-2.56163 -3.44284 1.53255 254 254 254
-2.62129 -3.45606 1.53760 252 254 254
-2.63317 -3.45869 1.53861 254 254 254
-2.64504 -3.46132 1.53961 254 254 254
-2.65688 -3.46394 1.54062 254 254 254
-2.66871 -3.46656 1.54162 254 254 254
-2.68052 -3.46918 1.54262 254 254 254
-2.69231 -3.47179 1.54362 254 254 254
-2.70409 -3.47440 1.54462 254 254 254
-2.71585 -3.47700 1.54561 254 254 254
-2.72759 -3.47960 1.54661 254 254 254
-2.73931 -3.48220 1.54760 254 254 254
-2.75102 -3.48479 1.54859 254 254 254
-2.76271 -3.48738 1.54958 254 254 254
-2.77438 -3.48997 1.55057 254 254 254
-2.78604 -3.49255 1.55156 254 254 254
-2.79768 -3.49513 1.55255 254 254 254
-2.80930 -3.49770 1.55353 254 254 254
-2.82091 -3.50027 1.55451 254 254 254
-2.83250 -3.50284 1.55550 254 254 254
-2.84407 -3.50540 1.55648 254 254 254
-2.85562 -3.50796 1.55745 254 254 254
-2.86716 -3.51052 1.55843 254 254 254
-2.87868 -3.51307 1.55941 254 254 254
-2.89019 -3.51562 1.56038 254 254 254
-2.90168 -3.51816 1.56136 254 254 254
-2.91315 -3.52070 1.56233 254 254 254
-2.92461 -3.52324 1.56330 254 254 254
-2.93604 -3.52577 1.56427 254 254 254
-2.94747 -3.52830 1.56524 254 254 254
-2.95887 -3.53083 1.56620 254 254 254
-2.97026 -3.53335 1.56717 254 254 254
-2.98164 -3.53587 1.56813 254 254 254
-2.99299 -3.53839 1.56909 254 254 254
-3.00434 -3.54090 1.57005 254 254 254
-3.01566 -3.54341 1.57101 254 254 254
-3.02697 -3.54591 1.57197 254 254 254
-3.03826 -3.54841 1.57293 254 254 254
-3.04954 -3.55091 1.57388 254 254 254
-2.17384 -3.33997 1.48508 254 254 254
-2.18633 -3.34275 1.48615 254 254 254
-2.19880 -3.34552 1.48721 254 254 254
-2.21125 -3.34829 1.48828 254 254 254
-2.22368 -3.35106 1.48934 254 254 254
-2.23610 -3.35382 1.49041 254 254 254
-2.24849 -3.35658 1.49147 254 254 254
-2.26087 -3.35933 1.49253 254 254 254
-2.27323 -3.36208 1.49358 254 254 254
-2.28557 -3.36483 1.49464 254 254 254
-2.29789 -3.36757 1.49570 254 254 254
-2.31019 -3.37031 1.49675 254 254 254
-2.32248 -3.37304 1.49780 254 254 254
-2.33474 -3.37577 1.49885 254 254 254
-2.34699 -3.37850 1.49990 254 254 254
-2.35922 -3.38122 1.50095 254 254 254
-2.37143 -3.38393 1.50199 254 254 254
-2.38363 -3.38665 1.50304 254 254 254
-2.39580 -3.38936 1.50408 254 254 254
-2.45641 -3.40284 1.50927 253 254 254
-2.46848 -3.40553 1.51030 253 254 253
-2.48053 -3.40821 1.51133 253 254 254
-2.49256 -3.41089 1.51236 253 254 254
-2.50458 -3.41356 1.51339 254 254 254
-2.51658 -3.41623 1.51442 254 254 254
-2.52856 -3.41890 1.51544 254 254 254
-2.54052 -3.42156 1.51647 254 254 254
-2.55246 -3.42422 1.51749 254 254 254
-2.61192 -3.43745 1.52258 251 253 253
-2.62376 -3.44008 1.52359 254 254 254
-2.63559 -3.44271 1.52460 254 254 254
-2.64739 -3.44534 1.52561 254 254 254
-2.65918 -3.44796 1.52662 254 254 254
-2.67095 -3.45058 1.52763 254 254 254
-2.68271 -3.45319 1.52864 254 254 254
-2.69444 -3.45581 1.52964 254 254 254
-2.70616 -3.45841 1.53064 254 254 254
-2.71786 -3.46102 1.53165 254 254 254
-2.72955 -3.46362 1.53265 254 254 254
-2.74122 -3.46622 1.53365 254 254 254
-2.75287 -3.46881 1.53464 254 254 254
-2.76451 -3.47140 1.53564 254 254 254
-2.77612 -3.47398 1.53663 254 254 254
-2.78773 -3.47656 1.53763 254 254 254
-2.79931 -3.47914 1.53862 254 254 254
-2.81088 -3.48171 1.53961 254 254 254
-2.82243 -3.48428 1.54060 254 254 254
-2.83396 -3.48685 1.54158 254 254 254
-2.84548 -3.48941 1.54257 254 254 254
-2.85698 -3.49197 1.54356 254 254 254
-2.86847 -3.49453 1.54454 254 254 254
-2.87993 -3.49708 1.54552 254 254 254
-2.89139 -3.49963 1.54650 254 254 254
-2.90282 -3.50217 1.54748 254 254 254
-2.91424 -3.50471 1.54846 254 254 254
-2.92564 -3.50725 1.54943 254 254 254
-2.93703 -3.50978 1.55041 254 254 254
-2.94840 -3.51231 1.55138 254 254 254
-2.95975 -3.51484 1.55235 254 254 254
-2.97109 -3.51736 1.55332 254 254 254
-2.98241 -3.51988 1.55429 254 254 254
-2.99371 -3.52240 1.55526 254 254 254
-3.00500 -3.52491 1.55623 254 254 254
-3.01628 -3.52742 1.55719 254 254 254
-3.02753 -3.52992 1.55815 254 254 254
-3.03877 -3.53242 1.55912 254 254 254
-2.20333 -3.32973 1.47314 254 254 254
-2.21572 -3.33250 1.47422 254 254 254
-2.22809 -3.33526 1.47529 254 254 254
-2.24044 -3.33802 1.47635 254 254 254
-2.25278 -3.34078 1.47742 254 254 254
-2.26509 -3.34353 1.47848 254 254 254
-2.27739 -3.34628 1.47955 254 254 254
-2.28967 -3.34903 1.48061 254 254 254
-2.30193 -3.35177 1.48167 254 254 254
-2.31417 -3.35450 1.48273 254 254 254
-2.32639 -3.35724 1.48379 254 254 254
-2.33860 -3.35996 1.48484 254 254 254
-2.35079 -3.36269 1.48589 254 254 254
-2.36296 -3.36541 1.48695 254 254 254
-2.37511 -3.36812 1.48800 254 254 254
-2.38724 -3.37084 1.48905 254 254 254
-2.39936 -3.37354 1.49009 254 254 254
-2.47168 -3.38971 1.49635 254 254 254
-2.48367 -3.39239 1.49739 253 254 254
-2.49565 -3.39507 1.49842 254 254 254
-2.50760 -3.39774 1.49945 254 254 254
-2.51954 -3.40041 1.50049 254 254 254
-2.53146 -3.40307 1.50152 254 254 254
-2.54337 -3.40573 1.50255 254 254 254
-2.60263 -3.41898 1.50767 251 253 253
-2.61443 -3.42162 1.50869 254 254 254
-2.62621 -3.42425 1.50971 254 254 254
-2.63798 -3.42688 1.51073 254 254 254
-2.64973 -3.42951 1.51174 254 254 254
-2.66146 -3.43213 1.51276 254 254 254
-2.67317 -3.43475 1.51377 254 254 254
-2.68487 -3.43736 1.51478 254 254 254
-2.69655 -3.43997 1.51579 254 254 254
-2.70822 -3.44258 1.51680 254 254 254
-2.71986 -3.44518 1.51781 254 254 254
-2.73149 -3.44778 1.51882 254 254 254
-2.74311 -3.45038 1.51982 254 254 254
-2.75471 -3.45297 1.52082 254 254 254
-2.76628 -3.45556 1.52182 254 254 254
-2.77785 -3.45814 1.52282 254 254 254
-2.78940 -3.46073 1.52382 254 254 254
-2.80093 -3.46330 1.52482 254 254 254
-2.81244 -3.46588 1.52581 254 254 254
-2.82394 -3.46845 1.52681 254 254 254
-2.83542 -3.47101 1.52780 254 254 254
-2.84688 -3.47357 1.52879 254 254 254
-2.85833 -3.47613 1.52978 254 254 254
-2.86976 -3.47869 1.53077 254 254 254
-2.88117 -3.48124 1.53176 254 254 254
-2.89257 -3.48379 1.53274 254 254 254
-2.90395 -3.48633 1.53373 254 254 254
-2.91532 -3.48887 1.53471 254 254 254
-2.92667 -3.49141 1.53569 254 254 254
-2.93800 -3.49394 1.53667 254 254 254
-2.94932 -3.49647 1.53765 254 254 254
-2.96062 -3.49900 1.53863 254 254 254
-2.97191 -3.50152 1.53960 254 254 254
-2.98318 -3.50404 1.54058 254 254 254
-2.99443 -3.50655 1.54155 254 254 254
-3.00567 -3.50907 1.54252 254 254 254
-3.01689 -3.51157 1.54349 254 254 254
-3.02809 -3.51408 1.54446 254 254 254
-2.23246 -3.31962 1.46136 254 254 254
-2.24475 -3.32238 1.46243 254 254 254
-2.25702 -3.32513 1.46350 254 254 254
-2.26928 -3.32788 1.46457 254 254 254
-2.28151 -3.33063 1.46564 254 254 254
-2.29373 -3.33337 1.46671 254 254 254
-2.30593 -3.33611 1.46778 254 254 254
-2.31811 -3.33885 1.46884 254 254 254
-2.33028 -3.34158 1.46990 254 254 254
-2.34242 -3.34430 1.47096 254 254 254
-2.35455 -3.34703 1.47202 254 254 254
-2.36666 -3.34975 1.47308 254 254 254
-2.37875 -3.35246 1.47414 254 254 254
-2.39082 -3.35517 1.47519 254 254 254
-2.40288 -3.35788 1.47624 254 254 254
-2.47485 -3.37404 1.48253 254 254 254
-2.48678 -3.37672 1.48357 254 254 254
-2.49870 -3.37939 1.48461 254 254 254
-2.51060 -3.38206 1.48565 254 254 254
-2.52248 -3.38473 1.48669 254 254 254
-2.53434 -3.38740 1.48772 254 254 254
-2.54619 -3.39006 1.48876 254 254 254
-2.59341 -3.40066 1.49288 250 251 252
-2.60517 -3.40330 1.49391 254 254 254
-2.61691 -3.40593 1.49494 254 254 254
-2.62864 -3.40857 1.49596 254 254 254
-2.64035 -3.41120 1.49698 254 254 254
-2.65204 -3.41382 1.49800 254 254 254
-2.66372 -3.41644 1.49902 254 254 254
-2.67538 -3.41906 1.50004 254 254 254
-2.68702 -3.42168 1.50106 254 254 254
-2.69864 -3.42429 1.50207 254 254 254
-2.71025 -3.42689 1.50309 254 254 254
-2.72185 -3.42949 1.50410 254 254 254
-2.73342 -3.43209 1.50511 254 254 254
-2.74498 -3.43469 1.50612 254 254 254
-2.75652 -3.43728 1.50713 254 254 254
-2.76805 -3.43987 1.50813 254 254 254
-2.77956 -3.44245 1.50914 254 254 254
-2.79105 -3.44503 1.51014 254 254 254
-2.80253 -3.44761 1.51115 254 254 254
-2.81399 -3.45018 1.51215 254 254 254
-2.82543 -3.45275 1.51315 254 254 254
-2.83686 -3.45532 1.51414 254 254 254
-2.84827 -3.45788 1.51514 254 254 254
-2.85966 -3.46044 1.51614 254 254 254
-2.87104 -3.46299 1.51713 254 254 254
-2.88240 -3.46554 1.51812 254 254 254
-2.89375 -3.46809 1.51911 254 254 254
-2.90508 -3.47063 1.52010 254 254 254
-2.91639 -3.47317 1.52109 254 254 254
-2.92769 -3.47571 1.52208 254 254 254
-2.93897 -3.47824 1.52306 254 254 254
-2.95023 -3.48077 1.52405 254 254 254
-2.96148 -3.48330 1.52503 254 254 254
-2.97272 -3.48582 1.52601 254 254 254
-2.98394 -3.48834 1.52699 254 254 254
-2.99514 -3.49086 1.52797 254 254 254
-3.00632 -3.49337 1.52894 254 254 254
-3.01749 -3.49587 1.52992 254 254 254
-2.26123 -3.30963 1.44972 254 254 254
-2.27342 -3.31238 1.45080 254 254 254
-2.28560 -3.31512 1.45187 254 254 254
-2.29776 -3.31787 1.45294 254 254 254
-2.30989 -3.32060 1.45401 254 254 254
-2.32202 -3.32334 1.45508 254 254 254
-2.33412 -3.32607 1.45615 254 254 254
-2.34621 -3.32879 1.45721 254 254 254
-2.35827 -3.33151 1.45828 254 254 254
-2.37032 -3.33423 1.45934 254 254 254
-2.38236 -3.33695 1.46040 254 254 254
-2.39437 -3.33966 1.46146 254 254 254
-2.40637 -3.34236 1.46252 254 254 254
-2.47799 -3.35851 1.46884 254 254 254
-2.48987 -3.36119 1.46988 254 254 254
-2.50172 -3.36387 1.47093 254 254 254
-2.51357 -3.36654 1.47197 254 254 254
-2.52539 -3.36920 1.47302 254 254 254
-2.53720 -3.37186 1.47406 254 254 254
-2.54899 -3.37452 1.47510 254 254 253
-2.58425 -3.38248 1.47821 250 251 251
-2.59598 -3.38512 1.47924 254 254 254
-2.60768 -3.38776 1.48027 254 254 254
-2.61937 -3.39040 1.48130 254 254 254
-2.63104 -3.39303 1.48233 254 254 254
-2.64270 -3.39566 1.48336 254 254 254
-2.65433 -3.39828 1.48439 254 254 254
-2.66595 -3.40090 1.48541 254 254 254
-2.67756 -3.40352 1.48644 254 254 254
-2.68915 -3.40613 1.48746 254 254 254
-2.70072 -3.40874 1.48848 254 254 254
-2.71227 -3.41135 1.48950 254 254 254
-2.72381 -3.41395 1.49052 254 254 254
-2.73533 -3.41655 1.49153 254 254 254
-2.74683 -3.41914 1.49255 254 254 254
-2.75832 -3.42173 1.49356 254 254 254
-2.76979 -3.42432 1.49457 254 254 254
-2.78125 -3.42690 1.49558 254 254 254
-2.79269 -3.42948 1.49659 254 254 254
-2.80411 -3.43206 1.49760 254 254 254
-2.81552 -3.43463 1.49860 254 254 254
-2.82691 -3.43720 1.49961 254 254 254
-2.83828 -3.43976 1.50061 254 254 254
-2.84964 -3.44233 1.50161 254 254 254
-2.86098 -3.44488 1.50261 254 254 254
-2.87231 -3.44744 1.50361 254 254 254
-2.88362 -3.44999 1.50461 254 254 254
-2.89491 -3.45254 1.50560 254 254 254
-2.90619 -3.45508 1.50660 254 254 254
-2.91745 -3.45762 1.50759 254 254 254
-2.92870 -3.46015 1.50858 254 254 254
-2.93993 -3.46269 1.50957 254 254 254
-2.95114 -3.46522 1.51056 254 254 254
-2.96234 -3.46774 1.51155 254 254 254
-2.97352 -3.47026 1.51254 254 254 254
-2.98469 -3.47278 1.51352 254 254 254
-2.99584 -3.47530 1.51451 254 254 254
-3.00697 -3.47781 1.51549 254 254 254
-3.01809 -3.48032 1.51647 254 254 254
-2.28964 -3.29977 1.43822 254 254 254
-2.30174 -3.30251 1.43930 254 254 254
-2.31382 -3.30524 1.44038 254 254 254
-2.32588 -3.30797 1.44145 254 254 254
-2.33793 -3.31070 1.44252 253 254 254
-2.34996 -3.31343 1.44359 254 254 254
-2.36196 -3.31615 1.44466 254 254 254
-2.37396 -3.31886 1.44573 254 254 254
-2.38593 -3.32157 1.44680 254 254 254
-2.39789 -3.32428 1.44786 254 254 254
-2.40983 -3.32699 1.44893 254 254 254
-2.48110 -3.34313 1.45527 253 254 254
-2.49292 -3.34581 1.45632 254 254 254
-2.50472 -3.34848 1.45737 254 254 254
-2.51651 -3.35115 1.45842 254 254 254
-2.52827 -3.35382 1.45947 254 254 254
-2.54002 -3.35648 1.46052 254 254 254
-2.55176 -3.35913 1.46156 254 254 254
-2.56347 -3.36179 1.46261 253 254 252
-2.57517 -3.36444 1.46365 253 254 253
-2.58686 -3.36708 1.46469 254 254 254
-2.59852 -3.36973 1.46573 254 254 254
-2.61017 -3.37237 1.46676 254 254 254
-2.62181 -3.37500 1.46780 254 254 254
-2.63342 -3.37763 1.46883 254 254 254
-2.64502 -3.38026 1.46987 254 254 254
-2.65660 -3.38288 1.47090 254 254 254
-2.66817 -3.38550 1.47193 254 254 254
-2.67972 -3.38812 1.47296 254 254 254
-2.69125 -3.39073 1.47398 254 254 254
-2.70277 -3.39334 1.47501 254 254 254
-2.71427 -3.39594 1.47603 254 254 254
-2.72575 -3.39854 1.47705 254 254 254
-2.73722 -3.40114 1.47808 254 254 254
-2.74867 -3.40374 1.47910 254 254 254
-2.76011 -3.40633 1.48011 254 254 254
-2.77153 -3.40891 1.48113 254 254 254
-2.78293 -3.41149 1.48215 254 254 254
-2.79431 -3.41407 1.48316 254 254 254
-2.80568 -3.41665 1.48417 254 254 254
-2.81704 -3.41922 1.48518 254 254 254
-2.82838 -3.42179 1.48619 254 254 254
-2.83970 -3.42435 1.48720 254 254 254
-2.85100 -3.42691 1.48821 254 254 254
-2.86229 -3.42947 1.48921 254 254 254
-2.87357 -3.43202 1.49022 254 254 254
-2.88482 -3.43457 1.49122 254 254 254
-2.89607 -3.43712 1.49222 254 254 254
-2.90729 -3.43966 1.49322 254 254 254
-2.91850 -3.44220 1.49422 254 254 254
-2.92970 -3.44474 1.49521 254 254 254
-2.94088 -3.44727 1.49621 254 254 254
-2.95204 -3.44980 1.49720 254 254 254
-2.96319 -3.45232 1.49819 254 254 254
-2.97432 -3.45484 1.49919 254 254 254
-2.98543 -3.45736 1.50018 254 254 254
-2.99653 -3.45988 1.50116 254 254 254
-3.00762 -3.46239 1.50215 254 254 254
-2.31771 -3.29002 1.42687 254 254 254
-2.32972 -3.29275 1.42795 254 254 254
-2.34170 -3.29548 1.42903 254 254 254
-2.35367 -3.29820 1.43010 254 254 254
-2.36562 -3.30092 1.43117 254 254 254
-2.37755 -3.30363 1.43225 254 254 254
-2.38947 -3.30634 1.43332 254 254 254
-2.40137 -3.30905 1.43439 254 254 254
-2.48418 -3.32789 1.44183 253 254 254
-2.49594 -3.33056 1.44289 254 254 254
-2.50769 -3.33324 1.44394 254 254 254
-2.51942 -3.33590 1.44500 254 254 254
-2.53113 -3.33857 1.44605 254 254 254
-2.54282 -3.34123 1.44710 254 254 254
-2.55450 -3.34389 1.44815 254 254 254
-2.56616 -3.34654 1.44920 254 254 254
-2.57781 -3.34919 1.45025 254 254 254
-2.58944 -3.35183 1.45129 254 254 254
-2.60105 -3.35447 1.45233 254 254 254
-2.61264 -3.35711 1.45338 254 254 254
-2.62422 -3.35975 1.45442 254 254 254
-2.63578 -3.36237 1.45546 254 254 254
-2.64733 -3.36500 1.45649 254 254 254
-2.65885 -3.36762 1.45753 254 254 254
-2.67037 -3.37024 1.45856 254 254 254
-2.68186 -3.37286 1.45960 254 254 254
