ply
format ascii 1.0
element face 0
property list uchar int vertex_indices
element vertex 1238
property float x
property float y
property float z
property uchar diffuse_red
property uchar diffuse_green
property uchar diffuse_blue
end_header
0.24308 -0.36766 -0.67947 254 254 254
0.24993 -0.37039 -0.67607 254 254 254
0.25677 -0.37312 -0.67267 254 254 254
0.26361 -0.37584 -0.66928 254 254 254
0.27043 -0.37856 -0.66589 254 254 254
0.27724 -0.38128 -0.66251 254 254 254
0.28404 -0.38399 -0.65913 254 254 254
0.29084 -0.38670 -0.65576 254 254 254
0.29762 -0.38941 -0.65239 254 254 254
0.30439 -0.39211 -0.64903 254 254 254
0.31116 -0.39480 -0.64567 254 254 254
0.31791 -0.39750 -0.64231 254 254 254
0.32465 -0.40019 -0.63897 254 254 254
0.33139 -0.40287 -0.63562 254 254 254
0.33811 -0.40555 -0.63228 254 254 254
0.34483 -0.40823 -0.62895 254 254 254
0.35153 -0.41090 -0.62562 254 254 254
0.35823 -0.41357 -0.62230 254 254 254
0.36491 -0.41624 -0.61898 254 254 254
0.37159 -0.41890 -0.61566 254 254 254
0.37826 -0.42156 -0.61235 254 254 254
0.38491 -0.42421 -0.60905 254 254 254
0.39156 -0.42686 -0.60574 254 254 254
0.39820 -0.42951 -0.60245 254 254 254
0.16814 -0.34918 -0.70638 254 254 254
0.17507 -0.35193 -0.70294 254 254 254
0.18199 -0.35468 -0.69951 254 254 254
0.18890 -0.35743 -0.69609 254 254 254
0.19580 -0.36017 -0.69267 254 254 254
0.20269 -0.36291 -0.68926 254 254 254
0.20957 -0.36565 -0.68585 254 254 254
0.21644 -0.36838 -0.68245 254 254 254
0.22330 -0.37111 -0.67905 254 254 254
0.23015 -0.37383 -0.67565 254 254 254
0.23699 -0.37655 -0.67226 254 254 254
0.24382 -0.37926 -0.66888 254 254 254
0.25064 -0.38198 -0.66550 254 254 254
0.25745 -0.38468 -0.66213 254 254 254
0.26425 -0.38739 -0.65876 254 254 254
0.27104 -0.39009 -0.65539 254 254 254
0.27783 -0.39278 -0.65203 254 254 254
0.28460 -0.39547 -0.64868 254 254 254
0.29136 -0.39816 -0.64533 254 254 254
0.29811 -0.40085 -0.64198 254 254 254
0.30485 -0.40353 -0.63864 254 254 254
0.31159 -0.40620 -0.63531 254 254 254
0.31831 -0.40888 -0.63198 254 254 254
0.32502 -0.41154 -0.62865 254 254 254
0.33173 -0.41421 -0.62533 254 254 254
0.33842 -0.41687 -0.62201 254 254 254
0.34510 -0.41953 -0.61870 254 254 254
0.35178 -0.42218 -0.61539 254 254 254
0.35844 -0.42483 -0.61209 254 254 254
0.36510 -0.42748 -0.60879 254 254 254
0.37175 -0.43012 -0.60550 254 254 254
0.37838 -0.43276 -0.60221 254 254 254
0.38501 -0.43539 -0.59893 254 254 254
0.39163 -0.43802 -0.59565 254 254 254
0.01488 -0.29974 -0.77193 254 254 254
0.02200 -0.30256 -0.76841 254 254 254
0.02912 -0.30538 -0.76489 254 254 254
0.03622 -0.30819 -0.76138 254 254 254
0.05747 -0.31661 -0.75087 254 254 254
0.06453 -0.31941 -0.74738 254 254 254
0.07158 -0.32221 -0.74390 254 254 254
0.07862 -0.32500 -0.74042 254 254 254
0.08565 -0.32779 -0.73694 254 254 254
0.09267 -0.33057 -0.73347 254 254 254
0.09968 -0.33335 -0.73001 254 254 254
0.10668 -0.33612 -0.72654 254 254 254
0.11367 -0.33889 -0.72309 254 254 254
0.12065 -0.34166 -0.71964 254 254 254
0.12762 -0.34442 -0.71619 254 254 254
0.13458 -0.34718 -0.71275 254 254 254
0.14153 -0.34993 -0.70932 254 254 254
0.14847 -0.35268 -0.70589 254 254 254
0.15539 -0.35543 -0.70246 254 254 254
0.16231 -0.35817 -0.69904 254 254 254
0.16922 -0.36091 -0.69563 254 254 254
0.17612 -0.36364 -0.69222 254 254 254
0.18301 -0.36637 -0.68881 254 254 254
0.18989 -0.36910 -0.68541 254 254 254
0.19675 -0.37182 -0.68202 254 254 254
0.20361 -0.37454 -0.67863 254 254 254
0.21046 -0.37725 -0.67524 254 254 254
0.21730 -0.37996 -0.67186 254 254 254
0.22413 -0.38267 -0.66848 254 254 254
0.23095 -0.38537 -0.66511 254 254 254
0.23776 -0.38807 -0.66175 254 254 254
0.24456 -0.39077 -0.65839 254 254 254
0.25134 -0.39346 -0.65503 254 254 254
0.25812 -0.39614 -0.65168 254 254 254
0.26489 -0.39883 -0.64833 254 254 254
0.27165 -0.40151 -0.64499 254 254 254
0.27840 -0.40418 -0.64165 254 254 254
0.28515 -0.40685 -0.63832 254 254 254
0.29188 -0.40952 -0.63499 254 254 254
0.29860 -0.41219 -0.63167 254 254 254
0.30531 -0.41485 -0.62835 254 254 254
0.31201 -0.41750 -0.62504 254 254 254
0.31870 -0.42015 -0.62173 254 254 254
0.32539 -0.42280 -0.61843 254 254 254
0.33206 -0.42545 -0.61513 254 254 254
0.33872 -0.42809 -0.61183 254 254 254
0.34538 -0.43073 -0.60854 254 254 254
0.35202 -0.43336 -0.60526 254 254 254
0.35866 -0.43599 -0.60198 254 254 254
0.36529 -0.43862 -0.59870 254 254 254
0.37190 -0.44124 -0.59543 254 254 254
0.37851 -0.44386 -0.59217 254 254 254
0.38511 -0.44647 -0.58890 254 254 254
0.00247 -0.30621 -0.76776 254 254 254
0.00958 -0.30902 -0.76426 254 254 254
0.01668 -0.31183 -0.76075 254 254 254
0.02377 -0.31463 -0.75726 254 254 254
0.03085 -0.31743 -0.75376 254 254 254
0.03792 -0.32022 -0.75028 254 254 254
0.04498 -0.32301 -0.74679 254 254 254
0.05203 -0.32580 -0.74332 254 254 254
0.05907 -0.32858 -0.73985 254 254 254
0.06610 -0.33135 -0.73638 254 254 254
0.07311 -0.33413 -0.73292 254 254 254
0.08012 -0.33690 -0.72946 254 254 254
0.08712 -0.33966 -0.72601 254 254 254
0.09411 -0.34242 -0.72256 254 254 254
0.10108 -0.34518 -0.71912 254 254 254
0.10805 -0.34793 -0.71568 254 254 254
0.11501 -0.35068 -0.71225 254 254 254
0.12195 -0.35343 -0.70883 254 254 254
0.12889 -0.35617 -0.70540 254 254 254
0.13581 -0.35891 -0.70199 254 254 254
0.14273 -0.36164 -0.69858 254 254 254
0.14964 -0.36437 -0.69517 254 254 254
0.15653 -0.36709 -0.69177 254 254 254
0.16342 -0.36981 -0.68837 254 254 254
0.17030 -0.37253 -0.68498 254 254 254
0.17716 -0.37524 -0.68159 254 254 254
0.18402 -0.37795 -0.67821 254 254 254
0.19087 -0.38066 -0.67483 254 254 254
0.19770 -0.38336 -0.67146 254 254 254
0.20453 -0.38606 -0.66809 254 254 254
0.21135 -0.38875 -0.66473 254 254 254
0.21815 -0.39144 -0.66137 254 254 254
0.22495 -0.39413 -0.65802 254 254 254
0.23174 -0.39681 -0.65467 254 254 254
0.23852 -0.39949 -0.65133 254 254 254
0.24528 -0.40216 -0.64799 254 254 254
0.25204 -0.40483 -0.64465 254 254 254
0.25879 -0.40750 -0.64132 254 254 254
0.26553 -0.41016 -0.63800 254 254 254
0.27226 -0.41282 -0.63468 254 254 254
0.27898 -0.41548 -0.63137 254 254 254
0.28569 -0.41813 -0.62806 254 254 254
0.29239 -0.42078 -0.62475 254 254 254
0.29908 -0.42342 -0.62145 254 254 254
0.30576 -0.42606 -0.61815 254 254 254
0.31243 -0.42870 -0.61486 254 254 254
0.31910 -0.43133 -0.61158 254 254 254
0.32575 -0.43396 -0.60829 254 254 254
0.33239 -0.43659 -0.60502 254 254 254
0.33903 -0.43921 -0.60174 254 254 254
0.34565 -0.44183 -0.59848 254 254 254
0.35227 -0.44444 -0.59521 254 254 254
0.35887 -0.44705 -0.59195 254 254 254
0.36547 -0.44966 -0.58870 254 254 254
0.37206 -0.45226 -0.58545 254 254 254
0.37863 -0.45486 -0.58221 254 254 254
-0.00276 -0.31545 -0.76013 254 254 254
0.00432 -0.31824 -0.75664 254 254 254
0.01140 -0.32103 -0.75316 254 254 254
0.01847 -0.32381 -0.74968 254 254 254
0.02552 -0.32659 -0.74621 254 254 254
0.03257 -0.32937 -0.74274 254 254 254
0.03961 -0.33214 -0.73928 254 254 254
0.04663 -0.33491 -0.73582 254 254 254
0.05365 -0.33767 -0.73237 254 254 254
0.06065 -0.34043 -0.72892 254 254 254
0.06765 -0.34319 -0.72547 254 254 254
0.07463 -0.34594 -0.72204 254 254 254
0.08161 -0.34869 -0.71860 254 254 254
0.08857 -0.35143 -0.71518 254 254 254
0.09553 -0.35417 -0.71175 254 254 254
0.10247 -0.35691 -0.70833 254 254 254
0.10940 -0.35964 -0.70492 254 254 254
0.11633 -0.36237 -0.70151 254 254 254
0.12324 -0.36509 -0.69811 254 254 254
0.13015 -0.36781 -0.69471 254 254 254
0.13704 -0.37053 -0.69132 254 254 254
0.14392 -0.37324 -0.68793 254 254 254
0.15080 -0.37595 -0.68455 254 254 254
0.15766 -0.37865 -0.68117 254 254 254
0.16452 -0.38135 -0.67779 254 254 254
0.17136 -0.38405 -0.67442 254 254 254
0.17820 -0.38674 -0.67106 254 254 254
0.18502 -0.38943 -0.66770 254 254 254
0.19184 -0.39212 -0.66435 254 254 254
0.19864 -0.39480 -0.66100 254 254 254
0.20544 -0.39748 -0.65765 254 254 254
0.21222 -0.40015 -0.65431 254 254 254
0.21900 -0.40282 -0.65098 254 254 254
0.22576 -0.40548 -0.64764 254 254 254
0.23252 -0.40815 -0.64432 254 254 254
0.23927 -0.41080 -0.64100 254 254 254
0.24601 -0.41346 -0.63768 254 254 254
0.25273 -0.41611 -0.63437 254 254 254
0.25945 -0.41876 -0.63106 254 254 254
0.29290 -0.43193 -0.61460 254 254 254
0.29956 -0.43456 -0.61132 254 254 254
0.30621 -0.43718 -0.60805 254 254 254
0.31285 -0.43980 -0.60478 254 254 254
0.31949 -0.44241 -0.60151 254 254 254
0.32611 -0.44502 -0.59825 254 254 254
0.33272 -0.44763 -0.59500 254 254 254
0.33933 -0.45023 -0.59175 254 254 254
0.34592 -0.45283 -0.58850 254 254 254
0.35251 -0.45542 -0.58526 254 254 254
0.35908 -0.45801 -0.58202 254 254 254
0.36565 -0.46060 -0.57879 254 254 254
-0.00796 -0.32461 -0.75256 254 254 254
-0.00089 -0.32738 -0.74909 254 254 254
0.00616 -0.33015 -0.74563 254 254 254
0.01321 -0.33292 -0.74217 254 254 254
0.02024 -0.33568 -0.73871 254 254 254
0.02726 -0.33844 -0.73526 254 254 254
0.03427 -0.34120 -0.73182 254 254 254
0.04128 -0.34395 -0.72838 254 254 254
0.04827 -0.34670 -0.72494 254 254 254
0.05525 -0.34944 -0.72151 254 254 254
0.06222 -0.35218 -0.71809 254 254 254
0.06919 -0.35491 -0.71467 254 254 254
0.07614 -0.35764 -0.71126 254 254 254
0.08308 -0.36037 -0.70785 254 254 254
0.09001 -0.36309 -0.70444 254 254 254
0.09693 -0.36581 -0.70104 254 254 254
0.10384 -0.36853 -0.69765 254 254 254
0.11075 -0.37124 -0.69426 254 254 254
0.11764 -0.37395 -0.69087 254 254 254
0.12452 -0.37665 -0.68749 254 254 254
0.13139 -0.37935 -0.68411 254 254 254
0.13825 -0.38204 -0.68074 254 254 254
0.14511 -0.38474 -0.67738 254 254 254
0.15195 -0.38742 -0.67402 254 254 254
0.15878 -0.39011 -0.67066 254 254 254
0.16560 -0.39279 -0.66731 254 254 254
0.17242 -0.39547 -0.66396 254 254 254
0.17922 -0.39814 -0.66062 254 254 254
0.18601 -0.40081 -0.65729 254 254 254
0.19280 -0.40347 -0.65395 254 254 254
0.19957 -0.40613 -0.65063 254 254 254
0.20634 -0.40879 -0.64730 254 254 254
0.21309 -0.41144 -0.64399 254 254 254
0.21984 -0.41409 -0.64067 254 254 254
0.22657 -0.41674 -0.63736 254 254 254
0.23330 -0.41938 -0.63406 254 254 254
0.24001 -0.42202 -0.63076 254 254 254
0.24672 -0.42465 -0.62747 254 254 254
0.29340 -0.44299 -0.60454 254 254 254
0.30003 -0.44560 -0.60128 254 254 254
0.30666 -0.44820 -0.59803 254 254 254
0.31327 -0.45080 -0.59478 254 254 254
0.31987 -0.45339 -0.59154 254 254 254
0.32646 -0.45598 -0.58830 254 254 254
0.33305 -0.45857 -0.58506 254 254 254
0.33962 -0.46115 -0.58183 254 254 254
0.34619 -0.46373 -0.57861 254 254 254
0.35275 -0.46630 -0.57539 254 254 254
-0.02016 -0.33094 -0.74850 253 253 253
-0.01311 -0.33370 -0.74505 253 253 254
-0.00607 -0.33646 -0.74159 254 254 254
0.00096 -0.33921 -0.73815 254 254 254
0.00798 -0.34196 -0.73471 254 254 254
0.01499 -0.34471 -0.73127 254 254 254
0.02199 -0.34745 -0.72784 254 254 254
0.02898 -0.35019 -0.72441 254 254 254
0.03596 -0.35292 -0.72099 254 254 254
0.04293 -0.35565 -0.71758 254 254 254
0.04989 -0.35838 -0.71417 254 254 254
0.05684 -0.36110 -0.71076 254 254 254
0.06378 -0.36382 -0.70736 254 254 254
0.07071 -0.36653 -0.70396 254 254 254
0.07763 -0.36924 -0.70057 254 254 254
0.08454 -0.37195 -0.69718 254 254 254
0.09144 -0.37465 -0.69380 254 254 254
0.09833 -0.37735 -0.69043 254 254 254
0.10521 -0.38004 -0.68705 254 254 254
0.11208 -0.38273 -0.68369 254 254 254
0.11894 -0.38542 -0.68032 254 254 254
0.12579 -0.38810 -0.67697 254 254 254
0.13263 -0.39078 -0.67361 254 254 254
0.13946 -0.39346 -0.67027 254 254 254
0.14628 -0.39613 -0.66692 254 254 254
0.15309 -0.39880 -0.66358 254 254 254
0.15989 -0.40146 -0.66025 254 254 254
0.16668 -0.40412 -0.65692 254 254 254
0.17346 -0.40678 -0.65360 254 254 254
0.18024 -0.40943 -0.65028 254 254 254
0.18700 -0.41208 -0.64696 254 254 254
0.19375 -0.41473 -0.64365 254 254 254
0.20049 -0.41737 -0.64035 254 254 254
0.20723 -0.42000 -0.63705 254 254 254
0.21395 -0.42264 -0.63375 254 254 254
0.22067 -0.42527 -0.63046 254 254 254
0.22737 -0.42789 -0.62717 254 254 254
0.23407 -0.43052 -0.62389 254 254 254
0.28729 -0.45136 -0.59781 254 254 254
0.29390 -0.45395 -0.59457 254 254 254
0.30050 -0.45654 -0.59133 254 254 254
0.30710 -0.45912 -0.58810 254 254 254
0.31368 -0.46170 -0.58487 254 254 254
0.32025 -0.46427 -0.58165 254 254 254
0.32682 -0.46685 -0.57843 254 254 254
0.33337 -0.46941 -0.57522 254 254 254
0.33992 -0.47198 -0.57201 254 254 254
-0.03229 -0.33723 -0.74447 253 253 253
-0.02525 -0.33998 -0.74103 253 253 253
-0.01822 -0.34272 -0.73759 253 253 253
-0.01121 -0.34546 -0.73416 253 253 253
-0.00420 -0.34820 -0.73073 253 253 254
0.00280 -0.35093 -0.72731 254 254 254
0.00979 -0.35366 -0.72389 254 254 254
0.01676 -0.35639 -0.72048 254 254 254
0.02373 -0.35911 -0.71707 254 254 254
0.03069 -0.36183 -0.71367 254 254 254
0.03764 -0.36454 -0.71027 254 254 254
0.04457 -0.36725 -0.70687 254 254 254
0.05150 -0.36995 -0.70349 254 254 254
0.05842 -0.37265 -0.70010 254 254 254
0.06532 -0.37535 -0.69672 254 254 254
0.07222 -0.37805 -0.69335 254 254 254
0.07911 -0.38074 -0.68998 254 254 254
0.08599 -0.38342 -0.68662 254 254 254
0.09285 -0.38610 -0.68326 254 254 254
0.09971 -0.38878 -0.67991 254 254 254
0.10656 -0.39146 -0.67656 254 254 254
0.11340 -0.39413 -0.67321 254 254 254
0.12022 -0.39679 -0.66987 254 254 254
0.12704 -0.39946 -0.66654 254 254 254
0.13385 -0.40212 -0.66321 254 254 254
0.14065 -0.40477 -0.65988 254 254 254
0.14744 -0.40742 -0.65656 254 254 254
0.15422 -0.41007 -0.65324 254 254 254
0.16099 -0.41271 -0.64993 254 254 254
0.16775 -0.41536 -0.64663 254 254 254
0.17450 -0.41799 -0.64332 254 254 254
0.18124 -0.42062 -0.64003 254 254 254
0.18797 -0.42325 -0.63673 254 254 254
0.19470 -0.42588 -0.63345 254 254 254
0.20141 -0.42850 -0.63016 254 254 254
0.20811 -0.43112 -0.62688 254 254 254
0.21481 -0.43373 -0.62361 254 254 254
0.22149 -0.43634 -0.62034 254 254 254
0.28123 -0.45967 -0.59112 254 254 254
0.28782 -0.46225 -0.58790 254 254 254
0.29440 -0.46482 -0.58468 254 254 254
0.30097 -0.46738 -0.58147 254 254 254
0.30753 -0.46995 -0.57826 254 254 254
0.31409 -0.47251 -0.57505 254 254 254
0.32063 -0.47506 -0.57185 254 254 254
-0.05842 -0.33800 -0.74733 252 252 253
-0.05138 -0.34074 -0.74389 252 252 253
-0.04434 -0.34348 -0.74046 253 253 253
-0.03732 -0.34622 -0.73703 253 253 253
-0.03030 -0.34895 -0.73361 253 253 253
-0.02330 -0.35168 -0.73019 253 253 253
-0.01630 -0.35440 -0.72677 253 253 253
-0.00932 -0.35712 -0.72337 253 253 253
-0.00234 -0.35984 -0.71996 254 253 253
0.00462 -0.36255 -0.71656 254 254 254
0.01157 -0.36526 -0.71317 254 254 254
0.01852 -0.36796 -0.70978 254 254 254
0.02545 -0.37066 -0.70639 254 254 254
0.03238 -0.37336 -0.70301 254 254 254
0.03929 -0.37605 -0.69964 254 254 254
0.04620 -0.37874 -0.69627 254 254 254
0.05309 -0.38143 -0.69290 254 254 254
0.05998 -0.38411 -0.68954 254 254 254
0.06685 -0.38678 -0.68619 254 254 254
0.07372 -0.38946 -0.68284 254 254 254
0.08057 -0.39213 -0.67949 254 254 254
0.08742 -0.39479 -0.67615 254 254 254
0.09425 -0.39745 -0.67281 254 254 254
0.10108 -0.40011 -0.66948 254 254 254
0.10790 -0.40277 -0.66615 254 254 254
0.11470 -0.40542 -0.66283 254 254 254
0.12150 -0.40806 -0.65951 254 254 254
0.12829 -0.41071 -0.65620 254 254 254
0.13507 -0.41335 -0.65289 254 254 254
0.14183 -0.41598 -0.64959 254 254 254
0.14859 -0.41861 -0.64629 254 254 254
0.15534 -0.42124 -0.64299 254 254 254
0.16208 -0.42387 -0.63971 254 254 254
0.16881 -0.42649 -0.63642 254 254 254
0.17553 -0.42911 -0.63314 254 254 254
0.18224 -0.43172 -0.62986 254 254 254
0.18894 -0.43433 -0.62659 254 254 254
0.19563 -0.43693 -0.62333 254 254 254
0.20232 -0.43954 -0.62007 254 254 254
0.20899 -0.44213 -0.61681 254 254 254
0.27520 -0.46792 -0.58449 254 254 254
0.28177 -0.47048 -0.58128 254 254 254
0.28834 -0.47303 -0.57808 254 254 254
0.29489 -0.47559 -0.57488 254 254 254
-0.07038 -0.34424 -0.74332 252 252 252
-0.06334 -0.34697 -0.73990 252 252 252
-0.05632 -0.34970 -0.73648 252 252 252
-0.04931 -0.35242 -0.73306 252 252 253
-0.04231 -0.35514 -0.72965 253 252 253
-0.03532 -0.35785 -0.72624 253 253 253
-0.02833 -0.36056 -0.72284 253 253 253
-0.02136 -0.36327 -0.71945 253 253 253
-0.01440 -0.36597 -0.71606 253 253 253
-0.00745 -0.36867 -0.71267 253 253 253
-0.00051 -0.37137 -0.70929 253 253 253
0.00642 -0.37406 -0.70591 253 253 254
0.01335 -0.37675 -0.70254 253 253 254
0.02026 -0.37943 -0.69917 253 253 254
0.02716 -0.38211 -0.69581 254 254 254
0.03405 -0.38479 -0.69246 254 254 254
0.04094 -0.38746 -0.68910 254 254 254
0.04781 -0.39013 -0.68576 254 254 254
0.05467 -0.39280 -0.68241 254 254 254
0.06152 -0.39546 -0.67907 254 254 254
0.06837 -0.39811 -0.67574 254 254 254
0.07520 -0.40077 -0.67241 254 254 254
0.08202 -0.40342 -0.66909 254 254 254
0.08884 -0.40606 -0.66577 254 254 254
0.09564 -0.40870 -0.66246 254 254 254
0.10244 -0.41134 -0.65915 254 254 254
0.10922 -0.41398 -0.65584 254 254 254
0.11600 -0.41661 -0.65254 254 254 254
0.12276 -0.41924 -0.64924 254 254 254
0.12952 -0.42186 -0.64595 254 254 254
0.13627 -0.42448 -0.64267 254 254 254
0.14300 -0.42710 -0.63939 254 254 254
0.14973 -0.42971 -0.63611 254 254 254
0.15645 -0.43232 -0.63284 254 254 254
0.16316 -0.43492 -0.62957 254 254 254
0.16986 -0.43752 -0.62631 254 254 254
0.17655 -0.44012 -0.62305 254 254 254
0.18323 -0.44271 -0.61979 254 254 254
0.18990 -0.44530 -0.61654 254 254 254
0.19656 -0.44789 -0.61330 254 254 254
0.26267 -0.47356 -0.58110 254 254 254
-0.09633 -0.34499 -0.74617 252 252 252
-0.08929 -0.34772 -0.74275 252 252 252
-0.08226 -0.35044 -0.73934 252 252 252
-0.07524 -0.35316 -0.73592 252 252 252
-0.06823 -0.35587 -0.73252 252 252 252
-0.06123 -0.35858 -0.72911 252 252 252
-0.05424 -0.36129 -0.72572 252 252 252
-0.04726 -0.36399 -0.72232 252 252 252
-0.04029 -0.36669 -0.71894 252 252 252
-0.03333 -0.36938 -0.71555 252 253 253
-0.02638 -0.37207 -0.71218 253 253 253
-0.01944 -0.37476 -0.70880 253 253 253
-0.01252 -0.37744 -0.70544 253 253 253
-0.00560 -0.38012 -0.70207 253 253 253
0.00131 -0.38280 -0.69871 253 253 253
0.00821 -0.38547 -0.69536 253 253 253
0.01510 -0.38814 -0.69201 253 253 253
0.02198 -0.39080 -0.68867 254 253 254
0.02885 -0.39346 -0.68533 254 254 254
0.03571 -0.39612 -0.68199 254 254 254
0.04256 -0.39877 -0.67866 254 254 254
0.04940 -0.40142 -0.67534 254 254 254
0.05624 -0.40406 -0.67202 254 254 254
0.06306 -0.40671 -0.66870 254 254 254
0.06987 -0.40934 -0.66539 254 254 254
0.07667 -0.41198 -0.66208 254 254 254
0.08346 -0.41461 -0.65878 254 254 254
0.09025 -0.41723 -0.65548 254 254 254
0.09702 -0.41986 -0.65219 254 254 254
0.10378 -0.42247 -0.64890 254 254 254
0.11054 -0.42509 -0.64562 254 254 254
0.11728 -0.42770 -0.64234 254 254 254
0.12402 -0.43031 -0.63907 254 254 254
0.13074 -0.43291 -0.63580 254 254 254
0.13746 -0.43551 -0.63253 254 254 254
0.14417 -0.43811 -0.62927 254 254 254
0.15086 -0.44070 -0.62602 254 254 254
0.15755 -0.44329 -0.62277 254 254 254
0.16423 -0.44588 -0.61952 254 254 254
0.17090 -0.44846 -0.61628 254 254 254
0.17756 -0.45104 -0.61304 254 254 254
0.18421 -0.45361 -0.60981 254 254 254
0.25020 -0.47917 -0.57773 254 254 254
-0.12219 -0.34574 -0.74902 252 252 252
-0.11515 -0.34846 -0.74560 252 252 252
-0.10811 -0.35118 -0.74219 252 252 252
-0.10108 -0.35389 -0.73878 252 252 252
-0.09407 -0.35660 -0.73537 252 252 252
-0.08706 -0.35931 -0.73198 252 252 252
-0.08006 -0.36201 -0.72858 252 252 252
-0.07308 -0.36471 -0.72519 252 252 252
-0.06610 -0.36740 -0.72181 252 252 252
-0.05913 -0.37009 -0.71843 252 252 252
-0.05218 -0.37278 -0.71505 252 252 252
-0.04523 -0.37546 -0.71168 252 252 252
-0.03829 -0.37814 -0.70832 252 252 252
-0.03137 -0.38081 -0.70496 253 253 253
-0.02445 -0.38348 -0.70160 253 253 253
-0.01754 -0.38615 -0.69825 253 253 253
-0.01065 -0.38881 -0.69491 253 253 253
-0.00376 -0.39147 -0.69157 253 253 253
0.00312 -0.39413 -0.68823 253 253 253
0.00999 -0.39678 -0.68490 253 253 253
0.01684 -0.39942 -0.68157 253 253 253
0.02369 -0.40207 -0.67825 253 253 253
0.03053 -0.40471 -0.67493 253 253 254
0.03736 -0.40735 -0.67162 254 254 254
0.04418 -0.40998 -0.66831 254 254 254
0.05099 -0.41261 -0.66501 254 254 254
0.05779 -0.41523 -0.66171 254 254 254
0.06458 -0.41785 -0.65842 254 254 254
0.07136 -0.42047 -0.65513 254 254 254
0.07813 -0.42309 -0.65184 254 254 254
0.08489 -0.42570 -0.64856 254 254 254
0.09164 -0.42830 -0.64529 254 254 254
0.09838 -0.43091 -0.64202 254 254 254
0.10512 -0.43351 -0.63875 254 254 254
0.11184 -0.43610 -0.63549 254 254 254
0.11856 -0.43870 -0.63223 254 254 254
0.12526 -0.44128 -0.62898 254 254 254
0.13196 -0.44387 -0.62573 254 254 254
0.13864 -0.44645 -0.62249 254 254 254
0.14532 -0.44903 -0.61925 254 254 254
0.15198 -0.45160 -0.61602 254 254 254
0.15864 -0.45417 -0.61279 254 254 254
0.16529 -0.45674 -0.60956 254 254 254
0.17193 -0.45930 -0.60634 254 254 254
0.23782 -0.48474 -0.57438 254 254 254
-0.14092 -0.34921 -0.74844 252 251 251
-0.13388 -0.35192 -0.74503 252 251 251
-0.12684 -0.35463 -0.74162 252 251 252
-0.11982 -0.35733 -0.73822 252 251 252
-0.11280 -0.36003 -0.73483 252 251 251
-0.10580 -0.36273 -0.73144 252 251 251
-0.09881 -0.36542 -0.72805 252 252 252
-0.09182 -0.36811 -0.72467 252 252 252
-0.08485 -0.37080 -0.72129 252 252 252
-0.07789 -0.37348 -0.71792 252 252 252
-0.07093 -0.37615 -0.71456 252 252 252
-0.06399 -0.37883 -0.71120 252 252 252
-0.05706 -0.38150 -0.70784 252 252 252
-0.05013 -0.38416 -0.70449 252 252 252
-0.04322 -0.38682 -0.70114 252 252 252
-0.03631 -0.38948 -0.69780 252 252 252
-0.02942 -0.39214 -0.69446 252 252 253
-0.02254 -0.39479 -0.69113 253 253 253
-0.01566 -0.39743 -0.68780 253 253 253
-0.00880 -0.40008 -0.68448 253 253 253
-0.00194 -0.40272 -0.68116 253 253 253
0.00491 -0.40535 -0.67784 253 253 253
0.01174 -0.40798 -0.67453 253 253 253
0.01857 -0.41061 -0.67123 253 253 253
0.02538 -0.41324 -0.66793 253 253 253
0.03219 -0.41586 -0.66463 254 253 254
0.03899 -0.41847 -0.66134 254 254 254
0.04578 -0.42109 -0.65806 254 254 254
0.05256 -0.42370 -0.65478 254 254 254
0.05932 -0.42630 -0.65150 254 254 254
0.06608 -0.42891 -0.64823 254 254 254
0.07283 -0.43150 -0.64496 254 254 254
0.07957 -0.43410 -0.64170 254 254 254
0.08630 -0.43669 -0.63844 254 254 254
0.09303 -0.43928 -0.63518 254 254 254
0.09974 -0.44186 -0.63193 254 254 254
0.10644 -0.44444 -0.62869 254 254 254
0.11313 -0.44702 -0.62545 254 254 254
0.11982 -0.44959 -0.62221 254 254 254
0.12649 -0.45216 -0.61898 254 254 254
-0.15956 -0.35266 -0.74786 252 250 251
-0.15252 -0.35536 -0.74446 252 250 251
-0.14549 -0.35806 -0.74106 252 250 251
-0.13847 -0.36076 -0.73767 252 251 251
-0.13146 -0.36345 -0.73428 252 251 251
-0.12446 -0.36613 -0.73090 252 251 251
-0.11747 -0.36882 -0.72752 252 251 251
-0.11048 -0.37150 -0.72415 252 251 251
-0.10351 -0.37417 -0.72078 252 251 251
-0.09655 -0.37685 -0.71742 252 251 252
-0.08960 -0.37952 -0.71406 252 252 252
-0.08266 -0.38218 -0.71071 252 252 252
-0.07573 -0.38484 -0.70736 252 252 252
-0.06881 -0.38750 -0.70402 252 252 252
-0.06190 -0.39015 -0.70068 252 252 252
-0.05500 -0.39280 -0.69734 252 252 252
-0.04811 -0.39545 -0.69401 252 252 252
-0.04122 -0.39809 -0.69069 252 252 252
-0.03435 -0.40073 -0.68737 252 252 252
-0.02749 -0.40336 -0.68405 253 252 252
-0.02064 -0.40599 -0.68074 253 253 253
-0.01379 -0.40862 -0.67744 253 253 253
-0.00696 -0.41124 -0.67413 253 253 253
-0.00014 -0.41386 -0.67084 253 253 253
0.00668 -0.41648 -0.66755 253 253 253
0.01348 -0.41909 -0.66426 253 253 253
0.02028 -0.42170 -0.66097 253 253 253
0.02706 -0.42431 -0.65770 253 253 253
0.03384 -0.42691 -0.65442 253 253 253
0.04061 -0.42951 -0.65115 253 253 254
0.04736 -0.43210 -0.64789 254 254 254
0.05411 -0.43469 -0.64463 254 254 254
0.06085 -0.43728 -0.64137 254 254 254
0.06758 -0.43986 -0.63812 254 254 254
0.07430 -0.44244 -0.63488 254 254 254
-0.24191 -0.33167 -0.77804 252 250 251
-0.23478 -0.33440 -0.77461 252 250 251
-0.22766 -0.33712 -0.77117 252 250 251
-0.22055 -0.33984 -0.76775 252 250 251
-0.21345 -0.34256 -0.76432 252 250 251
-0.20636 -0.34527 -0.76091 252 250 251
-0.19928 -0.34798 -0.75749 252 250 251
-0.19222 -0.35069 -0.75409 252 250 251
-0.18516 -0.35339 -0.75068 252 250 251
-0.17811 -0.35609 -0.74728 252 250 251
-0.17107 -0.35878 -0.74389 252 250 251
-0.16405 -0.36148 -0.74050 252 250 251
-0.15703 -0.36416 -0.73712 252 250 251
-0.15002 -0.36684 -0.73374 252 250 251
-0.14302 -0.36952 -0.73037 252 250 251
-0.13604 -0.37220 -0.72700 252 250 251
-0.12906 -0.37487 -0.72363 252 250 251
-0.12209 -0.37754 -0.72027 252 251 251
-0.11513 -0.38020 -0.71692 252 251 251
-0.10819 -0.38286 -0.71357 252 251 251
-0.10125 -0.38552 -0.71022 252 251 251
-0.09432 -0.38817 -0.70688 252 251 251
-0.08740 -0.39082 -0.70355 252 251 251
-0.08049 -0.39346 -0.70022 252 251 251
-0.07359 -0.39610 -0.69689 252 251 252
-0.06671 -0.39874 -0.69357 252 252 252
-0.05983 -0.40138 -0.69025 252 252 252
-0.05296 -0.40401 -0.68694 252 252 252
-0.04610 -0.40663 -0.68363 252 252 252
-0.03925 -0.40925 -0.68033 252 252 252
-0.03241 -0.41187 -0.67703 252 252 252
-0.02558 -0.41449 -0.67374 252 252 252
-0.01875 -0.41710 -0.67045 252 252 253
-0.01194 -0.41971 -0.66716 252 252 253
-0.00514 -0.42231 -0.66388 253 253 253
0.00165 -0.42491 -0.66061 253 253 253
0.00844 -0.42751 -0.65734 253 253 253
0.01521 -0.43010 -0.65407 253 253 253
0.02197 -0.43269 -0.65081 253 253 253
0.02873 -0.43528 -0.64755 253 253 253
0.03547 -0.43786 -0.64430 253 253 253
0.04221 -0.44044 -0.64105 253 253 254
0.04893 -0.44301 -0.63781 254 254 254
0.05565 -0.44559 -0.63457 254 254 254
0.06236 -0.44815 -0.63134 254 254 254
0.06906 -0.45072 -0.62811 254 254 254
-0.32494 -0.31050 -0.80848 252 252 252
-0.31772 -0.31326 -0.80500 252 252 252
-0.31051 -0.31601 -0.80154 252 251 251
-0.30331 -0.31876 -0.79807 252 251 251
-0.29612 -0.32150 -0.79461 252 251 251
-0.28895 -0.32424 -0.79116 252 251 251
-0.28178 -0.32698 -0.78771 252 251 251
-0.27462 -0.32971 -0.78427 252 250 251
-0.26748 -0.33244 -0.78083 252 250 251
-0.26034 -0.33516 -0.77739 252 250 251
-0.25322 -0.33788 -0.77397 252 250 251
-0.24610 -0.34060 -0.77054 251 250 251
-0.23900 -0.34331 -0.76712 251 250 251
-0.23190 -0.34602 -0.76371 251 250 251
-0.22482 -0.34873 -0.76030 251 250 251
-0.21774 -0.35143 -0.75690 251 250 251
-0.21068 -0.35412 -0.75350 251 250 251
-0.20362 -0.35682 -0.75010 251 250 251
-0.19658 -0.35951 -0.74671 251 250 251
-0.18954 -0.36219 -0.74333 251 250 251
-0.18252 -0.36487 -0.73995 251 250 251
-0.17550 -0.36755 -0.73657 251 250 251
-0.16850 -0.37023 -0.73320 251 250 251
-0.16151 -0.37290 -0.72984 251 250 251
-0.15452 -0.37556 -0.72647 251 250 251
-0.14755 -0.37823 -0.72312 251 250 251
-0.14058 -0.38089 -0.71977 251 250 251
-0.13363 -0.38354 -0.71642 252 250 251
-0.12668 -0.38619 -0.71308 252 250 251
-0.11975 -0.38884 -0.70974 252 250 251
-0.11282 -0.39148 -0.70641 252 250 251
-0.10591 -0.39412 -0.70308 252 251 251
-0.09900 -0.39676 -0.69976 252 251 251
-0.09211 -0.39939 -0.69644 252 251 251
-0.08522 -0.40202 -0.69313 252 251 251
-0.07834 -0.40465 -0.68982 252 251 251
-0.07148 -0.40727 -0.68651 252 251 252
-0.06462 -0.40989 -0.68321 252 252 252
-0.05777 -0.41250 -0.67992 252 252 252
-0.05093 -0.41511 -0.67663 252 252 252
-0.04411 -0.41772 -0.67334 252 252 252
-0.03729 -0.42032 -0.67006 252 252 252
-0.03048 -0.42292 -0.66678 252 252 252
-0.02368 -0.42552 -0.66351 252 252 252
-0.01689 -0.42811 -0.66024 252 252 252
-0.01011 -0.43070 -0.65698 252 252 253
-0.00334 -0.43328 -0.65372 253 253 253
0.00343 -0.43587 -0.65047 253 253 253
0.01018 -0.43844 -0.64722 253 253 253
0.01692 -0.44102 -0.64398 253 253 253
0.02365 -0.44359 -0.64074 253 253 253
0.03038 -0.44616 -0.63750 253 253 253
0.03709 -0.44872 -0.63427 253 253 253
0.04380 -0.45128 -0.63104 253 253 254
0.05049 -0.45384 -0.62782 254 254 254
0.05718 -0.45639 -0.62460 254 254 254
0.06386 -0.45894 -0.62139 254 254 254
-0.32883 -0.31955 -0.80083 252 252 252
-0.32164 -0.32229 -0.79737 252 251 252
-0.31446 -0.32503 -0.79393 252 251 251
-0.30728 -0.32776 -0.79048 252 251 251
-0.30012 -0.33048 -0.78704 252 251 251
-0.29297 -0.33321 -0.78360 252 250 251
-0.28582 -0.33593 -0.78017 252 250 251
-0.27869 -0.33864 -0.77675 252 250 251
-0.27157 -0.34135 -0.77333 251 250 251
-0.26446 -0.34406 -0.76991 251 250 251
-0.25736 -0.34677 -0.76650 251 250 251
-0.25026 -0.34947 -0.76310 251 250 251
-0.24318 -0.35216 -0.75970 251 250 251
-0.23611 -0.35485 -0.75630 251 250 251
-0.22905 -0.35754 -0.75291 251 250 251
-0.22200 -0.36023 -0.74952 251 250 251
-0.21496 -0.36291 -0.74614 251 250 251
-0.20793 -0.36558 -0.74276 251 250 251
-0.20091 -0.36826 -0.73939 251 250 251
-0.19390 -0.37093 -0.73603 251 250 251
-0.18689 -0.37359 -0.73266 251 250 251
-0.17990 -0.37625 -0.72931 251 250 251
-0.17292 -0.37891 -0.72595 251 250 251
-0.16595 -0.38157 -0.72261 251 250 251
-0.15899 -0.38422 -0.71926 251 250 251
-0.15204 -0.38686 -0.71592 251 250 251
-0.14509 -0.38951 -0.71259 251 250 251
-0.13816 -0.39215 -0.70926 251 250 251
-0.13124 -0.39478 -0.70594 251 250 251
-0.12433 -0.39741 -0.70262 251 250 251
-0.11742 -0.40004 -0.69930 252 250 251
-0.11053 -0.40267 -0.69599 252 250 251
-0.10365 -0.40529 -0.69269 252 250 251
-0.09677 -0.40790 -0.68938 252 251 251
-0.08991 -0.41052 -0.68609 252 251 251
-0.08306 -0.41313 -0.68280 252 251 251
-0.07621 -0.41573 -0.67951 252 251 251
-0.06938 -0.41834 -0.67623 252 251 252
-0.06255 -0.42093 -0.67295 252 251 252
-0.05573 -0.42353 -0.66967 252 252 252
-0.04893 -0.42612 -0.66641 252 252 252
-0.04213 -0.42871 -0.66314 252 252 252
-0.03534 -0.43129 -0.65988 252 252 252
-0.02857 -0.43387 -0.65663 252 252 252
-0.02180 -0.43645 -0.65338 252 252 252
-0.01504 -0.43902 -0.65013 252 252 252
-0.00829 -0.44159 -0.64689 252 252 252
-0.00155 -0.44416 -0.64365 252 252 253
0.00518 -0.44672 -0.64042 253 253 253
0.01190 -0.44928 -0.63719 253 253 253
0.01862 -0.45184 -0.63397 253 253 253
0.02532 -0.45439 -0.63075 253 253 253
0.03201 -0.45694 -0.62753 253 253 253
0.03870 -0.45948 -0.62432 253 253 253
0.04537 -0.46202 -0.62112 253 253 254
0.05204 -0.46456 -0.61792 254 254 254
0.05869 -0.46710 -0.61472 254 254 254
-0.33270 -0.32853 -0.79324 252 251 252
-0.32553 -0.33126 -0.78980 252 251 251
-0.31837 -0.33397 -0.78637 252 251 251
-0.31122 -0.33669 -0.78295 252 250 251
-0.30409 -0.33940 -0.77952 252 250 251
-0.29696 -0.34211 -0.77611 252 250 251
-0.28984 -0.34481 -0.77270 251 250 251
-0.28273 -0.34751 -0.76929 251 250 251
-0.27563 -0.35020 -0.76589 251 250 251
-0.26854 -0.35289 -0.76249 251 250 251
-0.26147 -0.35558 -0.75910 251 250 251
-0.25440 -0.35827 -0.75571 251 250 251
-0.24734 -0.36094 -0.75233 251 250 251
-0.24029 -0.36362 -0.74895 251 250 251
-0.23325 -0.36629 -0.74557 251 250 251
-0.22623 -0.36896 -0.74221 251 250 251
-0.21921 -0.37163 -0.73884 251 250 251
-0.21220 -0.37429 -0.73548 251 250 251
-0.20520 -0.37694 -0.73213 251 250 251
-0.19821 -0.37960 -0.72878 251 250 251
-0.19124 -0.38225 -0.72543 251 250 251
-0.18427 -0.38489 -0.72210 251 250 251
-0.17731 -0.38753 -0.71876 251 250 251
-0.17036 -0.39017 -0.71543 251 250 251
-0.16342 -0.39281 -0.71210 251 250 251
-0.15649 -0.39544 -0.70878 251 250 251
-0.14957 -0.39807 -0.70547 251 250 251
-0.14266 -0.40069 -0.70215 251 250 250
-0.13576 -0.40331 -0.69885 251 250 251
-0.12887 -0.40592 -0.69554 251 250 251
-0.12199 -0.40854 -0.69225 251 250 251
-0.11512 -0.41115 -0.68895 252 250 251
-0.10826 -0.41375 -0.68566 252 250 251
-0.10141 -0.41635 -0.68238 252 250 251
-0.09457 -0.41895 -0.67910 252 250 251
-0.08774 -0.42154 -0.67583 252 250 251
-0.08091 -0.42414 -0.67256 252 250 251
-0.07410 -0.42672 -0.66929 252 251 251
-0.06730 -0.42931 -0.66603 252 251 251
-0.06050 -0.43189 -0.66277 252 251 251
-0.05372 -0.43446 -0.65952 252 252 252
-0.04694 -0.43703 -0.65627 252 252 252
-0.04017 -0.43960 -0.65303 252 252 252
-0.03342 -0.44217 -0.64979 252 252 252
-0.02667 -0.44473 -0.64656 252 252 252
-0.01993 -0.44729 -0.64333 252 252 252
-0.01321 -0.44984 -0.64010 252 252 252
-0.00649 -0.45239 -0.63688 252 252 252
0.00022 -0.45494 -0.63367 252 252 253
0.00692 -0.45749 -0.63046 253 253 253
0.01362 -0.46003 -0.62725 253 253 253
0.02030 -0.46256 -0.62405 253 253 253
0.02697 -0.46510 -0.62085 253 253 253
0.03363 -0.46763 -0.61765 253 253 253
0.04029 -0.47015 -0.61447 253 253 253
0.04693 -0.47268 -0.61128 253 253 254
-0.33654 -0.33745 -0.78571 252 251 251
-0.32940 -0.34015 -0.78229 252 251 251
-0.32226 -0.34286 -0.77888 252 250 251
-0.31514 -0.34555 -0.77547 252 250 251
-0.30802 -0.34825 -0.77206 251 250 251
-0.30092 -0.35094 -0.76867 251 250 251
-0.29382 -0.35362 -0.76527 251 250 251
-0.28674 -0.35631 -0.76188 251 250 251
-0.27966 -0.35899 -0.75850 251 250 251
-0.27260 -0.36166 -0.75512 251 250 251
-0.26554 -0.36433 -0.75174 251 250 251
-0.25850 -0.36700 -0.74837 251 250 251
-0.25146 -0.36966 -0.74501 251 250 251
-0.24444 -0.37232 -0.74165 251 250 251
-0.23743 -0.37498 -0.73829 251 250 251
-0.23042 -0.37763 -0.73494 251 250 251
-0.22343 -0.38028 -0.73160 251 250 251
-0.21644 -0.38292 -0.72826 251 250 251
-0.20947 -0.38557 -0.72492 251 250 251
-0.20250 -0.38820 -0.72159 251 250 251
-0.19555 -0.39084 -0.71826 251 250 251
-0.18860 -0.39347 -0.71494 251 250 251
-0.18166 -0.39609 -0.71162 251 250 251
-0.17474 -0.39871 -0.70831 251 250 251
-0.16782 -0.40133 -0.70500 251 250 251
-0.16092 -0.40395 -0.70169 251 250 251
-0.15402 -0.40656 -0.69839 251 250 251
-0.14713 -0.40917 -0.69510 251 250 251
-0.14025 -0.41177 -0.69181 251 250 251
-0.13339 -0.41437 -0.68852 251 250 251
-0.12653 -0.41697 -0.68524 251 250 251
-0.11968 -0.41956 -0.68197 251 250 251
-0.11284 -0.42215 -0.67870 251 250 251
-0.10601 -0.42474 -0.67543 251 250 251
-0.09919 -0.42732 -0.67217 251 250 251
-0.09238 -0.42990 -0.66891 251 250 251
-0.08558 -0.43248 -0.66566 252 250 251
-0.07879 -0.43505 -0.66241 252 250 251
-0.07200 -0.43762 -0.65916 252 251 251
-0.06523 -0.44018 -0.65592 252 251 251
-0.05847 -0.44274 -0.65269 252 251 251
-0.05171 -0.44530 -0.64946 252 252 252
-0.04497 -0.44785 -0.64623 252 252 252
-0.03824 -0.45040 -0.64301 252 252 252
-0.03151 -0.45295 -0.63979 252 252 252
-0.02479 -0.45549 -0.63658 252 252 252
-0.01809 -0.45803 -0.63337 252 252 252
-0.01139 -0.46057 -0.63016 252 252 252
-0.00470 -0.46310 -0.62697 252 252 252
0.00198 -0.46563 -0.62377 252 252 252
0.00865 -0.46816 -0.62058 252 252 253
0.01531 -0.47068 -0.61739 253 253 253
0.02196 -0.47320 -0.61421 253 253 253
0.02861 -0.47571 -0.61103 253 253 253
-0.34035 -0.34630 -0.77823 252 251 251
-0.33323 -0.34898 -0.77483 252 250 251
-0.32612 -0.35167 -0.77144 252 250 251
-0.31902 -0.35435 -0.76805 251 250 251
-0.31193 -0.35703 -0.76466 251 250 251
-0.30485 -0.35970 -0.76128 251 250 251
-0.29778 -0.36237 -0.75790 251 250 251
-0.29072 -0.36504 -0.75453 251 250 251
-0.28366 -0.36770 -0.75117 251 250 251
-0.27662 -0.37036 -0.74780 251 250 251
-0.26959 -0.37302 -0.74445 251 250 251
-0.26257 -0.37567 -0.74110 251 250 251
-0.25556 -0.37832 -0.73775 251 249 251
-0.24856 -0.38096 -0.73441 251 249 251
-0.24157 -0.38360 -0.73107 251 249 251
-0.23459 -0.38624 -0.72773 251 249 251
-0.22761 -0.38887 -0.72441 251 249 251
-0.22065 -0.39150 -0.72108 251 249 251
-0.21370 -0.39412 -0.71776 251 249 251
-0.20676 -0.39674 -0.71445 251 249 251
-0.19982 -0.39936 -0.71114 251 249 251
-0.19290 -0.40198 -0.70783 251 249 251
-0.18599 -0.40459 -0.70453 251 249 251
-0.17908 -0.40719 -0.70124 251 250 251
-0.17219 -0.40980 -0.69794 251 250 251
-0.16531 -0.41240 -0.69466 251 250 251
-0.15843 -0.41499 -0.69138 251 250 251
-0.15157 -0.41759 -0.68810 251 250 251
-0.14471 -0.42017 -0.68482 251 250 251
-0.13787 -0.42276 -0.68156 251 250 251
-0.13103 -0.42534 -0.67829 251 250 251
-0.12420 -0.42792 -0.67503 251 250 251
-0.11739 -0.43049 -0.67178 251 250 251
-0.11058 -0.43306 -0.66853 251 250 251
-0.10378 -0.43563 -0.66528 251 250 251
-0.09699 -0.43819 -0.66204 251 250 251
-0.09021 -0.44075 -0.65880 251 250 251
-0.08344 -0.44331 -0.65557 252 250 251
-0.07668 -0.44586 -0.65234 252 251 251
-0.06993 -0.44841 -0.64912 252 251 251
-0.06319 -0.45096 -0.64590 252 251 251
-0.05645 -0.45350 -0.64269 252 251 251
-0.04973 -0.45604 -0.63948 252 252 252
-0.04302 -0.45858 -0.63627 252 252 252
-0.03631 -0.46111 -0.63307 252 252 252
-0.02962 -0.46364 -0.62987 252 252 252
-0.02293 -0.46616 -0.62668 252 252 252
-0.01625 -0.46868 -0.62349 252 252 252
-0.00959 -0.47120 -0.62031 252 252 252
-0.00293 -0.47371 -0.61713 252 252 252
0.00372 -0.47623 -0.61396 252 252 252
0.01036 -0.47873 -0.61079 252 252 253
-0.35124 -0.35240 -0.77420 252 251 251
-0.34414 -0.35508 -0.77081 252 250 251
-0.33704 -0.35775 -0.76743 252 250 251
-0.32995 -0.36042 -0.76405 251 250 251
-0.32287 -0.36308 -0.76068 251 250 251
-0.31581 -0.36575 -0.75731 251 250 251
-0.30875 -0.36840 -0.75395 251 250 251
-0.30170 -0.37106 -0.75059 251 250 251
-0.29466 -0.37371 -0.74724 251 250 251
-0.28764 -0.37635 -0.74389 251 250 251
-0.28062 -0.37900 -0.74054 251 250 251
-0.27361 -0.38164 -0.73720 251 250 251
-0.26661 -0.38427 -0.73387 251 250 251
-0.25962 -0.38690 -0.73054 251 249 251
-0.25265 -0.38953 -0.72721 251 249 251
-0.24568 -0.39216 -0.72389 251 249 251
-0.23872 -0.39478 -0.72058 251 249 251
-0.23177 -0.39739 -0.71727 251 249 251
-0.22483 -0.40001 -0.71396 251 249 251
-0.21790 -0.40262 -0.71066 251 249 251
-0.21098 -0.40522 -0.70736 251 249 251
-0.20407 -0.40783 -0.70407 251 249 251
-0.19717 -0.41042 -0.70078 251 249 251
-0.19028 -0.41302 -0.69750 251 249 251
-0.18340 -0.41561 -0.69422 251 249 251
-0.17653 -0.41820 -0.69094 251 250 251
-0.16966 -0.42078 -0.68767 251 250 251
-0.16281 -0.42336 -0.68441 251 250 251
-0.15597 -0.42594 -0.68115 251 250 251
-0.14914 -0.42851 -0.67789 251 250 251
-0.14231 -0.43108 -0.67464 251 250 251
-0.13550 -0.43365 -0.67139 251 250 251
-0.12869 -0.43621 -0.66815 251 250 251
-0.12190 -0.43877 -0.66491 251 250 251
-0.11511 -0.44133 -0.66168 251 250 251
-0.10833 -0.44388 -0.65845 251 250 251
-0.10157 -0.44643 -0.65522 251 250 251
-0.09481 -0.44897 -0.65200 251 250 251
-0.08806 -0.45152 -0.64879 251 250 251
-0.08132 -0.45405 -0.64558 252 250 251
-0.07459 -0.45659 -0.64237 252 251 251
-0.06787 -0.45912 -0.63917 252 251 251
-0.06116 -0.46165 -0.63597 252 251 251
-0.05446 -0.46417 -0.63278 252 251 251
-0.04776 -0.46669 -0.62959 252 251 252
-0.04108 -0.46921 -0.62640 252 252 252
-0.03441 -0.47172 -0.62322 252 252 252
-0.02774 -0.47423 -0.62004 252 252 252
-0.02108 -0.47674 -0.61687 252 252 252
-0.01444 -0.47924 -0.61371 252 252 252
-0.34789 -0.36379 -0.76345 252 250 251
-0.34082 -0.36645 -0.76008 251 250 251
-0.33375 -0.36910 -0.75672 251 250 251
-0.32670 -0.37175 -0.75337 251 250 251
-0.31965 -0.37440 -0.75002 251 250 251
-0.31262 -0.37704 -0.74667 251 250 251
-0.30560 -0.37968 -0.74333 251 250 251
-0.29858 -0.38231 -0.74000 251 250 251
-0.29158 -0.38494 -0.73666 251 250 251
-0.28458 -0.38757 -0.73334 251 250 251
-0.27760 -0.39019 -0.73002 251 249 251
-0.27062 -0.39281 -0.72670 251 249 251
-0.26366 -0.39543 -0.72339 251 249 251
-0.25670 -0.39804 -0.72008 251 249 251
-0.24976 -0.40065 -0.71677 251 249 251
-0.24282 -0.40326 -0.71348 251 249 251
-0.23589 -0.40586 -0.71018 251 249 251
-0.22898 -0.40846 -0.70689 251 249 251
-0.22207 -0.41105 -0.70361 251 249 251
-0.21517 -0.41364 -0.70033 251 249 251
-0.20829 -0.41623 -0.69705 251 249 251
-0.20141 -0.41881 -0.69378 251 249 251
-0.19454 -0.42139 -0.69051 251 249 251
-0.18768 -0.42397 -0.68725 251 249 251
-0.18083 -0.42654 -0.68399 251 249 251
-0.17399 -0.42911 -0.68074 251 250 251
-0.16716 -0.43167 -0.67749 251 250 251
-0.16034 -0.43423 -0.67425 251 250 251
-0.15353 -0.43679 -0.67101 251 250 251
-0.14673 -0.43935 -0.66777 251 250 251
-0.13993 -0.44190 -0.66454 251 250 251
-0.13315 -0.44445 -0.66132 251 250 251
-0.12638 -0.44699 -0.65809 251 250 251
-0.11961 -0.44953 -0.65488 251 250 251
-0.11286 -0.45207 -0.65166 251 250 251
-0.10611 -0.45460 -0.64846 251 250 251
-0.09937 -0.45713 -0.64525 251 250 251
-0.09265 -0.45966 -0.64205 251 250 251
-0.08593 -0.46218 -0.63886 251 250 251
-0.07922 -0.46470 -0.63567 252 250 251
-0.07252 -0.46722 -0.63248 252 251 251
-0.06583 -0.46973 -0.62930 252 251 251
-0.05915 -0.47224 -0.62612 252 251 251
-0.05248 -0.47475 -0.62295 252 251 251
-0.04581 -0.47725 -0.61978 252 251 252
-0.03916 -0.47975 -0.61661 252 252 252
-0.03252 -0.48224 -0.61345 252 252 252
-0.35162 -0.37244 -0.75614 251 250 251
-0.34457 -0.37509 -0.75279 251 250 251
-0.33753 -0.37772 -0.74945 251 250 251
-0.33050 -0.38036 -0.74611 251 250 251
-0.32348 -0.38299 -0.74278 251 250 251
-0.31646 -0.38561 -0.73945 251 250 251
-0.30946 -0.38823 -0.73613 251 249 251
-0.30247 -0.39085 -0.73281 251 249 251
-0.29549 -0.39347 -0.72949 251 249 251
-0.28852 -0.39608 -0.72618 251 249 251
-0.28156 -0.39869 -0.72288 251 249 251
-0.27461 -0.40129 -0.71958 251 249 251
-0.26766 -0.40389 -0.71628 251 249 251
-0.26073 -0.40649 -0.71299 251 249 251
-0.25381 -0.40908 -0.70971 251 249 251
-0.24689 -0.41167 -0.70642 251 249 251
-0.23999 -0.41426 -0.70315 251 249 251
-0.23310 -0.41684 -0.69987 251 249 251
-0.22621 -0.41942 -0.69661 251 249 251
-0.21934 -0.42199 -0.69334 251 249 251
-0.21247 -0.42457 -0.69008 251 249 251
-0.20562 -0.42713 -0.68683 251 249 251
-0.19877 -0.42970 -0.68358 251 249 251
-0.19193 -0.43226 -0.68033 251 249 251
-0.18510 -0.43482 -0.67709 251 249 251
-0.17829 -0.43737 -0.67386 251 249 251
-0.17148 -0.43992 -0.67062 251 250 251
-0.16468 -0.44247 -0.66740 251 250 251
-0.15789 -0.44501 -0.66417 251 250 251
-0.15111 -0.44755 -0.66096 251 250 251
-0.14434 -0.45009 -0.65774 251 250 251
-0.13758 -0.45262 -0.65453 251 250 251
-0.13082 -0.45515 -0.65133 251 250 251
-0.12408 -0.45768 -0.64813 251 250 251
-0.11735 -0.46020 -0.64493 251 250 251
-0.11062 -0.46272 -0.64174 251 250 251
-0.10391 -0.46523 -0.63855 251 250 251
-0.09720 -0.46775 -0.63537 251 250 251
-0.09050 -0.47025 -0.63219 251 250 251
-0.08382 -0.47276 -0.62901 252 250 251
-0.07714 -0.47526 -0.62584 252 250 251
-0.07047 -0.47776 -0.62268 252 251 251
-0.06381 -0.48025 -0.61951 252 251 251
-0.35532 -0.38103 -0.74888 251 250 251
-0.34829 -0.38366 -0.74555 251 250 251
-0.34127 -0.38628 -0.74222 251 250 251
-0.33426 -0.38890 -0.73890 251 250 251
-0.32727 -0.39151 -0.73559 251 249 251
-0.32028 -0.39412 -0.73228 251 250 251
-0.31330 -0.39673 -0.72897 251 249 251
-0.30633 -0.39933 -0.72567 251 249 251
-0.29938 -0.40193 -0.72237 251 249 251
-0.29243 -0.40453 -0.71908 251 249 251
-0.28549 -0.40712 -0.71579 251 249 251
-0.27856 -0.40971 -0.71251 251 249 251
-0.27164 -0.41229 -0.70923 251 249 251
-0.26473 -0.41487 -0.70596 251 249 251
-0.25783 -0.41745 -0.70269 251 249 251
-0.25094 -0.42003 -0.69942 251 249 251
-0.24406 -0.42260 -0.69616 251 249 251
-0.23718 -0.42517 -0.69291 251 249 251
-0.23032 -0.42773 -0.68966 251 249 251
-0.22347 -0.43029 -0.68641 251 249 251
-0.21663 -0.43285 -0.68317 251 249 251
-0.20979 -0.43540 -0.67993 251 249 251
-0.20297 -0.43795 -0.67670 251 249 251
-0.19615 -0.44049 -0.67347 251 249 251
-0.18935 -0.44304 -0.67024 251 249 251
-0.18255 -0.44558 -0.66702 251 249 251
-0.17576 -0.44811 -0.66381 251 249 251
-0.16899 -0.45064 -0.66060 251 249 251
-0.16222 -0.45317 -0.65739 251 250 251
-0.15546 -0.45570 -0.65419 251 250 251
-0.14871 -0.45822 -0.65099 251 250 251
-0.14197 -0.46074 -0.64780 251 250 251
-0.13524 -0.46325 -0.64461 251 250 251
-0.12852 -0.46576 -0.64142 251 250 251
-0.12180 -0.46827 -0.63824 251 250 251
-0.11510 -0.47077 -0.63507 251 250 251
-0.10841 -0.47328 -0.63189 251 250 251
-0.10172 -0.47577 -0.62873 251 250 251
-0.09505 -0.47827 -0.62556 251 250 251
-0.08838 -0.48076 -0.62240 251 250 251
-0.08172 -0.48325 -0.61925 252 250 251
-0.07507 -0.48573 -0.61610 252 250 251
-0.35899 -0.38956 -0.74168 251 250 251
-0.35198 -0.39217 -0.73836 251 250 251
-0.34499 -0.39477 -0.73506 251 250 251
-0.33801 -0.39737 -0.73175 251 249 251
-0.33103 -0.39997 -0.72845 251 249 251
-0.32407 -0.40257 -0.72516 251 249 251
-0.31711 -0.40516 -0.72187 251 249 251
-0.31017 -0.40775 -0.71859 251 249 251
-0.30323 -0.41033 -0.71531 251 249 251
-0.29631 -0.41291 -0.71203 251 249 251
-0.28939 -0.41549 -0.70876 251 249 251
-0.28248 -0.41806 -0.70550 251 249 251
-0.27558 -0.42063 -0.70223 251 249 251
-0.26870 -0.42320 -0.69898 250 249 251
-0.26182 -0.42576 -0.69572 250 249 251
-0.25495 -0.42832 -0.69248 251 249 251
-0.24809 -0.43088 -0.68923 251 249 251
-0.24124 -0.43343 -0.68599 251 249 251
-0.23440 -0.43598 -0.68276 251 249 251
-0.22757 -0.43852 -0.67953 251 249 251
-0.22075 -0.44106 -0.67630 251 249 251
-0.21394 -0.44360 -0.67308 251 249 251
-0.20714 -0.44614 -0.66986 251 249 251
-0.20034 -0.44867 -0.66665 251 249 251
-0.19356 -0.45120 -0.66344 251 249 251
-0.18678 -0.45372 -0.66024 251 249 251
-0.18002 -0.45624 -0.65704 251 249 251
-0.17326 -0.45876 -0.65385 251 249 251
-0.16652 -0.46127 -0.65065 251 249 251
-0.15978 -0.46378 -0.64747 251 250 251
-0.15305 -0.46629 -0.64429 251 250 251
-0.14633 -0.46879 -0.64111 251 250 251
-0.13962 -0.47129 -0.63794 251 250 251
-0.36263 -0.39802 -0.73452 251 250 251
-0.35565 -0.40061 -0.73123 251 250 251
-0.34868 -0.40320 -0.72794 251 249 251
-0.34172 -0.40579 -0.72465 251 249 251
-0.33477 -0.40837 -0.72137 251 249 251
-0.32783 -0.41095 -0.71810 251 249 251
-0.32089 -0.41353 -0.71482 251 249 251
-0.31397 -0.41610 -0.71156 250 249 251
-0.30706 -0.41867 -0.70829 251 249 251
-0.30016 -0.42124 -0.70503 251 249 251
-0.29326 -0.42380 -0.70178 251 249 251
-0.28638 -0.42636 -0.69853 250 249 251
-0.27950 -0.42891 -0.69529 250 249 251
-0.27264 -0.43146 -0.69205 250 249 251
-0.26578 -0.43401 -0.68881 250 249 251
-0.25893 -0.43656 -0.68558 250 249 251
-0.25210 -0.43910 -0.68235 250 249 251
-0.24527 -0.44163 -0.67913 250 249 251
-0.23845 -0.44417 -0.67591 250 249 251
-0.23164 -0.44670 -0.67270 250 249 251
-0.22484 -0.44922 -0.66949 250 249 251
-0.36625 -0.40642 -0.72743 251 250 251
-0.35929 -0.40900 -0.72415 251 249 251
-0.35235 -0.41157 -0.72088 251 249 251
-0.34541 -0.41414 -0.71761 251 249 251
-0.33848 -0.41671 -0.71434 251 249 251
-0.33156 -0.41928 -0.71108 250 249 251
-0.32465 -0.42184 -0.70783 250 249 251
-0.31775 -0.42440 -0.70458 250 249 251
-0.31086 -0.42695 -0.70133 250 249 251
-0.30398 -0.42950 -0.69809 250 249 251
-0.29711 -0.43205 -0.69485 250 249 251
-0.29024 -0.43459 -0.69162 250 249 251
-0.28339 -0.43713 -0.68839 250 249 251
-0.27655 -0.43967 -0.68516 250 249 251
-0.26972 -0.44220 -0.68194 250 249 251
-0.26289 -0.44473 -0.67873 250 249 251
-0.25608 -0.44726 -0.67552 250 249 251
-0.24927 -0.44978 -0.67231 250 249 251
-0.24247 -0.45230 -0.66911 250 249 251
-0.23569 -0.45481 -0.66591 250 249 251
-0.22891 -0.45733 -0.66272 250 249 251
-0.36984 -0.41476 -0.72038 251 249 251
-0.36291 -0.41732 -0.71712 251 249 251
-0.35598 -0.41988 -0.71386 251 249 251
-0.34907 -0.42244 -0.71061 250 249 251
-0.34216 -0.42499 -0.70736 250 249 251
-0.33526 -0.42754 -0.70412 250 249 251
-0.32838 -0.43009 -0.70088 251 249 251
-0.32150 -0.43263 -0.69765 250 249 251
-0.31463 -0.43517 -0.69442 250 249 251
-0.30777 -0.43770 -0.69119 250 249 251
-0.30092 -0.44024 -0.68797 250 249 251
-0.29408 -0.44277 -0.68475 250 249 251
-0.28725 -0.44529 -0.68154 250 249 251
-0.28043 -0.44781 -0.67833 250 249 251
-0.27362 -0.45033 -0.67513 250 249 251
-0.26682 -0.45285 -0.67193 250 249 251
-0.26002 -0.45536 -0.66874 250 249 251
-0.25324 -0.45786 -0.66555 250 249 251
-0.24647 -0.46037 -0.66236 250 249 251
-0.23970 -0.46287 -0.65918 250 249 251
-0.23294 -0.46537 -0.65600 250 249 251
-0.37341 -0.42304 -0.71338 251 249 251
-0.36650 -0.42559 -0.71014 251 249 251
-0.35959 -0.42813 -0.70690 251 249 251
-0.35270 -0.43067 -0.70366 250 249 251
-0.34582 -0.43321 -0.70043 251 249 251
-0.33894 -0.43575 -0.69721 250 249 251
-0.33208 -0.43828 -0.69398 250 249 251
-0.32522 -0.44080 -0.69077 250 249 251
-0.31838 -0.44333 -0.68755 250 249 251
-0.31154 -0.44585 -0.68434 250 249 251
-0.30471 -0.44837 -0.68114 250 249 251
-0.29790 -0.45088 -0.67794 250 249 251
-0.29109 -0.45339 -0.67474 250 249 251
-0.28429 -0.45590 -0.67155 250 249 251
-0.27750 -0.45840 -0.66836 250 249 250
-0.27072 -0.46090 -0.66518 250 249 250
-0.26395 -0.46340 -0.66200 250 249 250
-0.25718 -0.46589 -0.65883 250 249 251
-0.25043 -0.46838 -0.65566 250 249 251
-0.24369 -0.47087 -0.65249 250 249 251
-0.23695 -0.47335 -0.64933 250 249 251
-0.38385 -0.42872 -0.70967 251 249 251
-0.37695 -0.43126 -0.70644 251 249 251
-0.37006 -0.43379 -0.70321 251 249 251
-0.36318 -0.43632 -0.69999 251 249 251
-0.35631 -0.43885 -0.69677 250 249 251
-0.34945 -0.44137 -0.69355 250 249 251
-0.34260 -0.44389 -0.69034 250 249 251
-0.33575 -0.44641 -0.68714 250 249 251
-0.32892 -0.44892 -0.68393 250 249 251
-0.32210 -0.45143 -0.68074 250 249 251
-0.31528 -0.45394 -0.67754 250 249 251
