ply
format ascii 1.0
element face 0
property list uchar int vertex_indices
element vertex 1256
property float x
property float y
property float z
property uchar diffuse_red
property uchar diffuse_green
property uchar diffuse_blue
end_header
-5.25368 -7.37234 2.42409 219 220 224
-5.27617 -7.37853 2.42689 222 222 221
-5.29865 -7.38473 2.42969 216 218 222
-5.32114 -7.39092 2.43250 210 214 220
-5.34363 -7.39712 2.43530 223 226 221
-5.36612 -7.40332 2.43811 212 210 220
-5.38861 -7.40951 2.44091 214 213 218
-5.41110 -7.41571 2.44372 222 218 220
-5.43359 -7.42190 2.44652 215 209 211
-5.45609 -7.42810 2.44933 207 206 209
-5.47858 -7.43430 2.45213 204 210 209
-5.50108 -7.44050 2.45494 212 217 214
-5.52357 -7.44669 2.45774 209 207 209
-5.54607 -7.45289 2.46055 211 214 214
-5.56857 -7.45909 2.46335 212 213 214
-5.59107 -7.46529 2.46616 205 207 211
-5.61357 -7.47149 2.46896 207 212 216
-5.63607 -7.47768 2.47177 209 213 214
-5.65857 -7.48388 2.47458 211 210 210
-5.68107 -7.49008 2.47738 206 207 206
-5.70358 -7.49628 2.48019 202 203 204
-5.72608 -7.50248 2.48299 201 200 206
-5.74859 -7.50868 2.48580 205 203 208
-5.77109 -7.51488 2.48861 202 203 205
-5.79360 -7.52108 2.49141 205 208 206
-5.81611 -7.52729 2.49422 209 207 208
-5.83862 -7.53349 2.49703 203 206 213
-5.86113 -7.53969 2.49984 197 200 203
-5.88364 -7.54589 2.50264 195 196 201
-5.90615 -7.55209 2.50545 200 199 210
-5.92867 -7.55829 2.50826 201 200 207
-5.95118 -7.56450 2.51107 198 199 202
-5.97370 -7.57070 2.51387 197 198 201
-5.99621 -7.57690 2.51668 198 197 199
-6.01873 -7.58311 2.51949 196 195 198
-6.04125 -7.58931 2.52230 194 193 197
-6.06377 -7.59551 2.52510 194 195 199
-6.08629 -7.60172 2.52791 195 197 200
-6.10881 -7.60792 2.53072 196 203 202
-6.13133 -7.61413 2.53353 194 201 202
-6.15386 -7.62033 2.53634 196 200 200
-6.17638 -7.62654 2.53915 202 203 198
-6.19890 -7.63274 2.54196 202 200 191
-6.22143 -7.63895 2.54477 197 198 194
-6.24396 -7.64516 2.54757 192 195 198
-6.26649 -7.65136 2.55038 189 192 197
-6.28901 -7.65757 2.55319 189 195 198
-6.31155 -7.66377 2.55600 194 199 199
-6.33408 -7.66998 2.55881 194 195 194
-4.42766 -7.10773 2.28888 205 212 214
-4.45000 -7.11388 2.29166 203 208 209
-4.47233 -7.12003 2.29445 202 203 205
-4.49466 -7.12619 2.29723 206 209 211
-4.51699 -7.13234 2.30002 211 218 220
-4.53933 -7.13849 2.30280 211 213 218
-4.56166 -7.14464 2.30559 209 212 217
-4.58400 -7.15080 2.30837 207 211 216
-4.60634 -7.15695 2.31115 211 213 216
-4.62868 -7.16310 2.31394 213 218 217
-4.65102 -7.16926 2.31672 213 219 218
-4.67336 -7.17541 2.31951 208 209 213
-4.69570 -7.18156 2.32230 207 208 214
-4.71804 -7.18772 2.32508 208 209 215
-4.74038 -7.19387 2.32787 206 207 211
-4.76273 -7.20003 2.33065 207 212 209
-4.78507 -7.20618 2.33344 203 206 206
-4.80742 -7.21234 2.33622 207 211 214
-4.82977 -7.21849 2.33901 209 212 212
-4.85212 -7.22465 2.34180 206 212 207
-4.87446 -7.23081 2.34458 204 208 209
-4.89681 -7.23696 2.34737 209 208 212
-4.91917 -7.24312 2.35016 203 205 208
-4.94152 -7.24928 2.35294 202 208 210
-4.96387 -7.25543 2.35573 202 204 206
-4.98622 -7.26159 2.35852 206 211 215
-5.00858 -7.26775 2.36130 208 211 215
-5.03093 -7.27391 2.36409 210 213 216
-5.05329 -7.28007 2.36688 212 214 219
-5.07565 -7.28622 2.36966 219 223 221
-5.09801 -7.29238 2.37245 219 222 223
-5.12037 -7.29854 2.37524 214 216 219
-5.14273 -7.30470 2.37803 208 207 213
-5.16509 -7.31086 2.38081 205 208 207
-5.18745 -7.31702 2.38360 207 207 209
-5.20982 -7.32318 2.38639 211 208 208
-5.23218 -7.32934 2.38918 215 212 216
-5.25454 -7.33550 2.39197 220 221 223
-5.27691 -7.34166 2.39476 227 226 226
-5.29928 -7.34783 2.39754 219 221 226
-5.32165 -7.35399 2.40033 216 220 224
-5.34402 -7.36015 2.40312 224 227 223
-5.36638 -7.36631 2.40591 211 210 223
-5.38876 -7.37247 2.40870 212 217 224
-5.41113 -7.37864 2.41149 221 221 226
-5.43350 -7.38480 2.41428 223 220 221
-5.45587 -7.39096 2.41707 216 216 216
-5.47825 -7.39712 2.41986 218 218 215
-5.50063 -7.40329 2.42265 220 221 219
-5.52300 -7.40945 2.42544 214 211 216
-5.54538 -7.41562 2.42823 215 220 221
-5.56776 -7.42178 2.43102 216 221 223
-5.59014 -7.42795 2.43381 207 209 211
-5.61252 -7.43411 2.43660 209 212 219
-5.63490 -7.44028 2.43939 206 209 216
-5.65728 -7.44644 2.44218 209 210 212
-5.67967 -7.45261 2.44497 207 209 209
-5.70205 -7.45877 2.44776 205 207 208
-5.72444 -7.46494 2.45055 204 203 210
-5.74682 -7.47111 2.45334 205 205 212
-5.76921 -7.47727 2.45613 206 209 211
-5.79160 -7.48344 2.45892 203 205 208
-5.81399 -7.48961 2.46171 205 204 205
-5.83638 -7.49577 2.46450 200 203 207
-5.85877 -7.50194 2.46730 195 195 198
-5.88116 -7.50811 2.47009 194 193 195
-5.90355 -7.51428 2.47288 193 195 198
-5.92595 -7.52045 2.47567 194 197 202
-5.94834 -7.52662 2.47846 197 200 206
-5.97074 -7.53278 2.48126 200 202 208
-5.99313 -7.53895 2.48405 198 198 202
-6.01553 -7.54512 2.48684 195 195 200
-6.03793 -7.55129 2.48963 193 196 200
-6.06033 -7.55746 2.49243 195 198 200
-6.08273 -7.56363 2.49522 196 197 199
-6.10513 -7.56980 2.49801 196 198 204
-6.12753 -7.57598 2.50080 197 199 204
-6.14994 -7.58215 2.50360 196 199 203
-6.17234 -7.58832 2.50639 198 201 203
-6.19475 -7.59449 2.50918 197 198 197
-6.21715 -7.60066 2.51198 193 198 200
-6.23956 -7.60683 2.51477 195 201 203
-6.26197 -7.61301 2.51756 196 198 199
-6.28438 -7.61918 2.52036 192 194 196
-6.30679 -7.62535 2.52315 190 193 196
-6.32920 -7.63153 2.52595 191 192 194
-4.43288 -7.07251 2.25767 201 205 210
-4.45509 -7.07863 2.26044 200 205 208
-4.47731 -7.08475 2.26321 204 208 207
-4.49952 -7.09087 2.26597 207 212 210
-4.52174 -7.09699 2.26874 207 211 214
-4.54395 -7.10311 2.27151 208 210 216
-4.56617 -7.10923 2.27428 211 212 219
-4.58839 -7.11535 2.27705 209 210 218
-4.61061 -7.12147 2.27982 214 218 221
-4.63283 -7.12759 2.28259 216 220 220
-4.65505 -7.13371 2.28536 209 213 216
-4.67728 -7.13983 2.28813 205 206 211
-4.69950 -7.14595 2.29090 211 212 218
-4.72172 -7.15207 2.29367 213 213 219
-4.74395 -7.15819 2.29644 218 218 219
-4.76618 -7.16431 2.29921 220 219 214
-4.78840 -7.17043 2.30198 210 206 204
-4.81063 -7.17656 2.30475 206 208 211
-4.83286 -7.18268 2.30752 209 212 212
-4.85509 -7.18880 2.31029 208 213 210
-4.87732 -7.19492 2.31306 209 213 214
-4.89955 -7.20105 2.31584 214 217 217
-4.92179 -7.20717 2.31861 205 205 209
-4.94402 -7.21329 2.32138 204 209 211
-4.96626 -7.21942 2.32415 211 210 209
-4.98849 -7.22554 2.32692 210 213 217
-5.01073 -7.23167 2.32969 209 213 217
-5.03297 -7.23779 2.33246 208 213 216
-5.05521 -7.24392 2.33524 206 213 217
-5.07745 -7.25004 2.33801 211 214 216
-5.09969 -7.25617 2.34078 212 215 213
-5.12193 -7.26229 2.34355 203 199 203
-5.14417 -7.26842 2.34632 202 198 203
-5.16641 -7.27455 2.34910 207 211 209
-5.18866 -7.28067 2.35187 209 211 213
-5.21090 -7.28680 2.35464 213 216 215
-5.23315 -7.29293 2.35741 207 211 216
-5.25540 -7.29906 2.36019 213 219 224
-5.27765 -7.30518 2.36296 220 222 229
-5.29989 -7.31131 2.36573 222 228 229
-5.32214 -7.31744 2.36851 224 225 227
-5.34440 -7.32357 2.37128 224 225 223
-5.36665 -7.32970 2.37405 220 222 225
-5.38890 -7.33582 2.37683 214 218 221
-5.41115 -7.34195 2.37960 214 213 222
-5.43341 -7.34808 2.38238 210 212 219
-5.45566 -7.35421 2.38515 211 215 216
-5.47792 -7.36034 2.38792 217 217 215
-5.50018 -7.36647 2.39070 217 221 220
-5.52244 -7.37260 2.39347 211 207 215
-5.54470 -7.37874 2.39625 212 215 217
-5.56696 -7.38487 2.39902 212 216 219
-5.58922 -7.39100 2.40180 207 210 209
-5.61148 -7.39713 2.40457 208 207 215
-5.63374 -7.40326 2.40735 204 207 216
-5.65601 -7.40939 2.41012 204 208 212
-5.67827 -7.41552 2.41290 206 212 214
-5.70054 -7.42166 2.41567 207 210 213
-5.72281 -7.42779 2.41845 205 207 214
-5.74507 -7.43392 2.42122 206 210 215
-5.76734 -7.44006 2.42400 205 209 213
-5.78961 -7.44619 2.42677 204 207 213
-5.81188 -7.45232 2.42955 208 208 210
-5.83416 -7.45846 2.43232 207 209 209
-5.85643 -7.46459 2.43510 197 200 196
-5.87870 -7.47073 2.43788 193 198 194
-5.90098 -7.47686 2.44065 194 202 199
-5.92325 -7.48300 2.44343 195 199 201
-5.94553 -7.48913 2.44621 198 198 203
-5.96781 -7.49527 2.44898 201 202 206
-5.99009 -7.50141 2.45176 193 190 199
-6.01236 -7.50754 2.45454 188 193 203
-6.03464 -7.51368 2.45731 197 207 209
-6.05692 -7.51981 2.46009 207 207 207
-6.07921 -7.52595 2.46287 208 203 202
-6.10149 -7.53209 2.46565 200 198 201
-6.12377 -7.53823 2.46842 193 192 198
-6.14606 -7.54436 2.47120 188 191 196
-6.16835 -7.55050 2.47398 187 192 197
-6.19063 -7.55664 2.47676 191 194 200
-6.21292 -7.56278 2.47953 190 194 202
-6.23521 -7.56892 2.48231 191 197 203
-6.25750 -7.57506 2.48509 197 198 201
-6.27979 -7.58120 2.48787 197 196 195
-6.30208 -7.58734 2.49065 193 192 191
-6.32437 -7.59348 2.49343 191 189 190
-6.39126 -7.61190 2.50176 195 194 185
-6.41355 -7.61804 2.50454 198 200 190
-6.43585 -7.62418 2.50732 193 191 190
-4.43804 -7.03767 2.22678 206 208 214
-4.46013 -7.04375 2.22954 205 208 211
-4.48223 -7.04984 2.23229 206 209 209
-4.50433 -7.05592 2.23505 204 207 209
-4.52643 -7.06201 2.23780 200 204 209
-4.54853 -7.06809 2.24055 198 203 210
-4.57063 -7.07418 2.24331 201 203 213
-4.59273 -7.08027 2.24606 204 207 217
-4.61484 -7.08635 2.24882 213 218 220
-4.63694 -7.09244 2.25157 214 214 216
-4.65905 -7.09853 2.25433 205 206 209
-4.68115 -7.10462 2.25708 209 215 214
-4.70326 -7.11071 2.25983 222 227 225
-4.72537 -7.11679 2.26259 216 218 222
-4.74748 -7.12288 2.26534 214 218 223
-4.76959 -7.12897 2.26810 217 219 222
-4.79170 -7.13506 2.27085 216 215 217
-4.81381 -7.14115 2.27361 211 211 213
-4.83592 -7.14724 2.27637 210 213 211
-4.85804 -7.15333 2.27912 208 213 210
-4.88015 -7.15942 2.28188 214 218 218
-4.90227 -7.16551 2.28463 215 213 216
-4.92438 -7.17160 2.28739 211 208 211
-4.94650 -7.17769 2.29014 212 216 217
-4.96862 -7.18378 2.29290 220 220 218
-4.99074 -7.18987 2.29566 215 216 218
-5.01286 -7.19596 2.29841 211 215 216
-5.03498 -7.20206 2.30117 208 212 214
-5.05710 -7.20815 2.30393 204 210 213
-5.07922 -7.21424 2.30668 206 207 213
-5.10135 -7.22033 2.30944 203 209 207
-5.12347 -7.22643 2.31220 200 199 196
-5.14560 -7.23252 2.31495 203 202 204
-5.16773 -7.23861 2.31771 209 214 215
-5.18985 -7.24471 2.32047 214 219 221
-5.21198 -7.25080 2.32323 217 219 220
-5.23411 -7.25690 2.32598 207 210 214
-5.25624 -7.26299 2.32874 212 220 223
-5.27837 -7.26908 2.33150 216 221 227
-5.30050 -7.27518 2.33426 223 227 229
-5.32264 -7.28127 2.33702 223 225 228
-5.34477 -7.28737 2.33977 216 213 216
-5.36691 -7.29347 2.34253 218 218 219
-5.38904 -7.29956 2.34529 208 212 216
-5.41118 -7.30566 2.34805 214 216 220
-5.43332 -7.31176 2.35081 211 212 218
-5.45546 -7.31785 2.35357 209 210 215
-5.47760 -7.32395 2.35633 214 219 215
-5.49974 -7.33005 2.35908 217 220 218
-5.52188 -7.33614 2.36184 211 209 214
-5.54402 -7.34224 2.36460 211 211 212
-5.56616 -7.34834 2.36736 205 204 209
-5.58831 -7.35444 2.37012 209 210 212
-5.61045 -7.36054 2.37288 210 212 215
-5.63260 -7.36664 2.37564 212 214 215
-5.65475 -7.37273 2.37840 205 206 209
-5.67690 -7.37883 2.38116 205 210 217
-5.69905 -7.38493 2.38392 209 211 214
-5.72120 -7.39103 2.38668 207 209 212
-5.74335 -7.39713 2.38944 208 210 216
-5.76550 -7.40323 2.39220 206 209 214
-5.78765 -7.40933 2.39496 206 206 216
-5.80980 -7.41544 2.39772 211 210 214
-5.83196 -7.42154 2.40048 206 203 207
-5.85412 -7.42764 2.40324 193 195 190
-5.87627 -7.43374 2.40600 192 198 191
-5.89843 -7.43984 2.40877 196 202 200
-5.92059 -7.44594 2.41153 194 200 200
-5.94275 -7.45205 2.41429 197 199 203
-5.96491 -7.45815 2.41705 202 204 208
-5.98707 -7.46425 2.41981 196 196 203
-6.00923 -7.47036 2.42257 191 196 203
-6.03139 -7.47646 2.42533 196 204 211
-6.05356 -7.48256 2.42810 201 202 211
-6.07572 -7.48867 2.43086 201 201 205
-6.09789 -7.49477 2.43362 196 198 201
-6.12005 -7.50088 2.43638 191 191 198
-6.14222 -7.50698 2.43914 189 191 198
-6.16439 -7.51308 2.44191 194 196 199
-6.18656 -7.51919 2.44467 202 200 200
-6.20873 -7.52530 2.44743 201 199 199
-6.23090 -7.53140 2.45020 197 198 200
-6.25308 -7.53751 2.45296 194 193 201
-6.27525 -7.54361 2.45572 193 189 197
-6.29742 -7.54972 2.45848 192 189 194
-6.31960 -7.55583 2.46125 191 190 193
-6.34177 -7.56193 2.46401 190 190 192
-6.36395 -7.56804 2.46677 192 194 192
-6.38613 -7.57415 2.46954 198 201 195
-6.40831 -7.58026 2.47230 199 200 196
-6.43049 -7.58637 2.47507 195 190 193
-6.45267 -7.59247 2.47783 193 191 190
-6.47485 -7.59858 2.48059 196 198 192
-4.44314 -7.00318 2.19622 208 206 211
-4.46512 -7.00923 2.19896 208 209 212
-4.48711 -7.01529 2.20170 207 211 212
-4.50909 -7.02134 2.20444 204 207 212
-4.53108 -7.02739 2.20718 205 207 212
-4.55306 -7.03345 2.20992 204 207 208
-4.57505 -7.03950 2.21266 199 203 209
-4.59703 -7.04556 2.21540 202 211 216
-4.61902 -7.05161 2.21814 210 216 216
-4.64101 -7.05767 2.22087 211 210 213
-4.66300 -7.06372 2.22361 208 208 211
-4.68499 -7.06978 2.22635 212 219 217
-4.70698 -7.07583 2.22909 223 225 224
-4.72898 -7.08189 2.23183 221 223 222
-4.75097 -7.08794 2.23457 213 214 216
-4.77296 -7.09400 2.23731 207 211 212
-4.79496 -7.10006 2.24005 208 210 216
-4.81696 -7.10611 2.24279 205 206 209
-4.83895 -7.11217 2.24553 209 213 210
-4.86095 -7.11823 2.24828 209 212 212
-4.88295 -7.12428 2.25102 215 217 216
-4.90495 -7.13034 2.25376 209 204 211
-4.92695 -7.13640 2.25650 208 210 211
-4.94895 -7.14246 2.25924 211 215 219
-4.97096 -7.14852 2.26198 216 221 221
-4.99296 -7.15458 2.26472 213 216 218
-5.01496 -7.16063 2.26746 210 213 216
-5.03697 -7.16669 2.27020 207 212 213
-5.05898 -7.17275 2.27295 205 209 209
-5.08098 -7.17881 2.27569 207 209 214
-5.10299 -7.18487 2.27843 203 207 208
-5.12500 -7.19093 2.28117 211 220 212
-5.14701 -7.19699 2.28391 212 214 217
-5.16902 -7.20306 2.28665 213 218 218
-5.19103 -7.20912 2.28940 216 220 221
-5.21305 -7.21518 2.29214 222 223 222
-5.23506 -7.22124 2.29488 215 220 217
-5.25708 -7.22730 2.29762 215 222 223
-5.27909 -7.23336 2.30037 218 219 225
-5.30111 -7.23943 2.30311 225 230 225
-5.32313 -7.24549 2.30585 221 222 222
-5.34515 -7.25155 2.30860 214 209 211
-5.36716 -7.25762 2.31134 220 222 219
-5.38918 -7.26368 2.31408 206 208 211
-5.41121 -7.26974 2.31683 209 213 219
-5.43323 -7.27581 2.31957 218 222 223
-5.45525 -7.28187 2.32231 216 215 217
-5.47728 -7.28793 2.32506 217 221 221
-5.49930 -7.29400 2.32780 217 222 222
-5.52133 -7.30006 2.33055 216 219 223
-5.54335 -7.30613 2.33329 216 218 222
-5.56538 -7.31220 2.33603 207 208 214
-5.58741 -7.31826 2.33878 214 216 221
-5.60944 -7.32433 2.34152 214 216 217
-5.63147 -7.33039 2.34427 212 212 213
-5.65350 -7.33646 2.34701 200 202 206
-5.67553 -7.34253 2.34976 203 206 212
-5.69757 -7.34859 2.35250 208 210 213
-5.71960 -7.35466 2.35525 208 210 213
-5.74164 -7.36073 2.35799 210 213 221
-5.76367 -7.36680 2.36074 211 215 223
-5.78571 -7.37286 2.36348 209 208 218
-5.80775 -7.37893 2.36623 211 212 215
-5.82979 -7.38500 2.36897 205 205 212
-5.85182 -7.39107 2.37172 202 205 207
-5.87387 -7.39714 2.37446 200 207 204
-5.89591 -7.40321 2.37721 196 195 199
-5.91795 -7.40928 2.37996 189 188 194
-5.93999 -7.41535 2.38270 194 195 201
-5.96204 -7.42142 2.38545 199 200 207
-5.98408 -7.42749 2.38820 197 197 205
-6.00613 -7.43356 2.39094 196 197 205
-6.02818 -7.43963 2.39369 195 198 208
-6.05022 -7.44570 2.39644 194 198 207
-6.07227 -7.45177 2.39918 195 197 203
-6.09432 -7.45784 2.40193 192 192 200
-6.11637 -7.46391 2.40468 188 189 201
-6.13843 -7.46999 2.40742 195 201 204
-6.16048 -7.47606 2.41017 204 209 208
-6.18253 -7.48213 2.41292 205 204 208
-6.20459 -7.48820 2.41567 202 203 203
-6.22664 -7.49428 2.41841 199 204 201
-6.24870 -7.50035 2.42116 200 202 203
-6.27076 -7.50642 2.42391 201 201 205
-6.29281 -7.51250 2.42666 195 195 199
-6.31487 -7.51857 2.42941 192 188 191
-6.33693 -7.52465 2.43215 194 192 193
-6.35899 -7.53072 2.43490 194 194 196
-6.38106 -7.53680 2.43765 194 192 194
-6.40312 -7.54287 2.44040 191 189 189
-6.42518 -7.54895 2.44315 190 190 186
-6.44725 -7.55502 2.44590 193 193 187
-6.46931 -7.56110 2.44865 190 189 191
-6.49138 -7.56717 2.45140 193 192 195
-4.38260 -6.95099 2.15781 173 166 153
-4.42633 -6.96303 2.16326 215 214 215
-4.44820 -6.96906 2.16598 215 216 218
-4.47006 -6.97508 2.16870 214 219 220
-4.49193 -6.98110 2.17143 213 217 214
-4.51380 -6.98712 2.17415 209 208 211
-4.53567 -6.99314 2.17688 205 207 210
-4.55754 -6.99916 2.17960 204 209 208
-4.57941 -7.00518 2.18232 199 204 206
-4.60129 -7.01120 2.18505 200 207 212
-4.62316 -7.01723 2.18777 209 213 216
-4.64504 -7.02325 2.19050 213 214 216
-4.66691 -7.02927 2.19322 212 212 211
-4.68879 -7.03530 2.19595 207 211 212
-4.71067 -7.04132 2.19867 215 218 219
-4.73254 -7.04734 2.20140 218 222 220
-4.75442 -7.05337 2.20412 211 210 209
-4.77631 -7.05939 2.20685 208 208 205
-4.79819 -7.06541 2.20957 206 207 209
-4.82007 -7.07144 2.21230 206 207 208
-4.84195 -7.07746 2.21502 210 215 214
-4.86384 -7.08349 2.21775 212 216 217
-4.88572 -7.08951 2.22047 214 214 214
-4.90761 -7.09554 2.22320 205 203 205
-4.92949 -7.10157 2.22593 203 208 208
-4.95138 -7.10759 2.22865 207 210 216
-4.97327 -7.11362 2.23138 210 214 213
-4.99516 -7.11965 2.23411 206 209 211
-5.01705 -7.12567 2.23683 206 209 214
-5.03894 -7.13170 2.23956 205 206 210
-5.06083 -7.13773 2.24229 202 204 206
-5.08273 -7.14375 2.24501 205 207 211
-5.10462 -7.14978 2.24774 198 198 201
-5.12651 -7.15581 2.25047 213 221 219
-5.14841 -7.16184 2.25319 218 224 224
-5.17031 -7.16787 2.25592 220 222 221
-5.19220 -7.17390 2.25865 214 215 213
-5.21410 -7.17993 2.26138 217 217 220
-5.23600 -7.18596 2.26410 216 220 221
-5.25790 -7.19198 2.26683 215 220 221
-5.27980 -7.19801 2.26956 217 218 224
-5.30171 -7.20405 2.27229 218 225 221
-5.32361 -7.21008 2.27501 214 218 219
-5.34551 -7.21611 2.27774 217 218 220
-5.36742 -7.22214 2.28047 221 224 225
-5.38932 -7.22817 2.28320 211 211 211
-5.41123 -7.23420 2.28593 206 206 212
-5.43314 -7.24023 2.28866 215 218 222
-5.45505 -7.24626 2.29139 218 217 220
-5.47696 -7.25230 2.29411 221 223 224
-5.49887 -7.25833 2.29684 218 220 224
-5.52078 -7.26436 2.29957 220 221 225
-5.54269 -7.27039 2.30230 215 215 220
-5.56460 -7.27643 2.30503 209 208 215
-5.58652 -7.28246 2.30776 208 210 217
-5.60843 -7.28849 2.31049 213 213 219
-5.63035 -7.29453 2.31322 213 211 214
-5.65227 -7.30056 2.31595 206 205 208
-5.67418 -7.30660 2.31868 207 208 209
-5.69610 -7.31263 2.32141 206 206 210
-5.71802 -7.31867 2.32414 206 203 212
-5.73994 -7.32470 2.32687 204 207 215
-5.76186 -7.33074 2.32960 205 207 215
-5.78379 -7.33677 2.33233 205 207 216
-5.80571 -7.34281 2.33506 208 208 216
-5.82763 -7.34884 2.33779 209 213 217
-5.84956 -7.35488 2.34052 210 213 215
-5.87149 -7.36092 2.34325 200 202 205
-5.89341 -7.36695 2.34598 191 189 198
-5.91534 -7.37299 2.34872 192 187 194
-5.93727 -7.37903 2.35145 197 196 200
-5.95920 -7.38507 2.35418 197 196 206
-5.98113 -7.39110 2.35691 198 198 206
-6.00306 -7.39714 2.35964 200 203 207
-6.02499 -7.40318 2.36237 198 201 207
-6.04693 -7.40922 2.36511 190 194 198
-6.06886 -7.41526 2.36784 189 192 194
-6.09080 -7.42130 2.37057 194 192 196
-6.11273 -7.42734 2.37330 194 191 199
-6.13467 -7.43338 2.37603 192 194 201
-6.15661 -7.43942 2.37877 192 194 201
-6.17854 -7.44546 2.38150 197 200 201
-6.20049 -7.45150 2.38423 199 202 202
-6.22243 -7.45754 2.38696 191 192 202
-6.24437 -7.46358 2.38970 190 195 203
-6.26631 -7.46962 2.39243 196 201 205
-6.28825 -7.47566 2.39516 197 197 201
-6.31020 -7.48170 2.39790 197 193 198
-6.33214 -7.48775 2.40063 198 199 201
-6.35409 -7.49379 2.40336 194 194 201
-6.37604 -7.49983 2.40610 192 189 199
-6.39798 -7.50587 2.40883 195 195 195
-6.41993 -7.51192 2.41156 195 197 195
-6.44188 -7.51796 2.41430 195 198 194
-6.46383 -7.52400 2.41703 191 190 189
-6.48579 -7.53005 2.41977 191 189 191
-4.36619 -6.91133 2.12522 156 142 125
-4.38794 -6.91732 2.12792 184 185 177
-4.43144 -6.92929 2.13334 218 223 219
-4.45320 -6.93528 2.13605 215 218 218
-4.47495 -6.94127 2.13876 212 213 219
-4.49671 -6.94726 2.14147 213 215 217
-4.51846 -6.95325 2.14418 215 214 212
-4.54022 -6.95924 2.14689 208 210 209
-4.56198 -6.96523 2.14960 201 208 208
-4.58374 -6.97122 2.15231 203 206 205
-4.60550 -6.97721 2.15501 209 209 207
-4.62726 -6.98320 2.15772 211 214 214
-4.64902 -6.98919 2.16043 212 214 217
-4.67078 -6.99518 2.16314 214 216 215
-4.69255 -7.00117 2.16585 210 214 215
-4.71431 -7.00716 2.16856 209 214 216
-4.73608 -7.01316 2.17127 211 216 218
-4.75784 -7.01915 2.17399 209 213 210
-4.77961 -7.02514 2.17670 212 210 207
-4.80138 -7.03113 2.17941 207 204 207
-4.82315 -7.03713 2.18212 207 207 209
-4.84492 -7.04312 2.18483 207 209 214
-4.86669 -7.04911 2.18754 208 207 213
-4.88846 -7.05511 2.19025 207 201 206
-4.91023 -7.06110 2.19296 204 207 206
-4.93201 -7.06709 2.19567 205 209 209
-4.95378 -7.07309 2.19838 206 210 216
-4.97556 -7.07908 2.20110 205 205 208
-4.99733 -7.08508 2.20381 205 208 207
-5.01911 -7.09107 2.20652 205 207 212
-5.04089 -7.09707 2.20923 204 204 209
-5.06267 -7.10306 2.21194 200 204 206
-5.08445 -7.10906 2.21465 203 202 204
-5.10623 -7.11505 2.21737 191 191 190
-5.12801 -7.12105 2.22008 203 212 214
-5.14979 -7.12705 2.22279 214 221 221
-5.17158 -7.13304 2.22550 220 223 221
-5.19336 -7.13904 2.22822 216 216 217
-5.21515 -7.14504 2.23093 212 206 213
-5.23693 -7.15104 2.23364 209 207 215
-5.25872 -7.15703 2.23636 212 214 218
-5.28051 -7.16303 2.23907 217 222 223
-5.30230 -7.16903 2.24178 212 216 219
-5.32409 -7.17503 2.24450 210 214 218
-5.34588 -7.18103 2.24721 222 225 226
-5.36767 -7.18702 2.24992 217 217 223
-5.38946 -7.19302 2.25264 213 212 217
-5.41126 -7.19902 2.25535 213 212 219
-5.43305 -7.20502 2.25806 217 218 221
-5.45485 -7.21102 2.26078 216 216 225
-5.47664 -7.21702 2.26349 221 222 224
-5.49844 -7.22302 2.26621 216 216 219
-5.52024 -7.22903 2.26892 215 216 221
-5.54204 -7.23503 2.27163 217 218 219
-5.56384 -7.24103 2.27435 212 212 217
-5.58564 -7.24703 2.27706 202 208 211
-5.60744 -7.25303 2.27978 210 215 218
-5.62924 -7.25903 2.28249 214 212 211
-5.65104 -7.26503 2.28521 215 212 210
-5.67285 -7.27104 2.28792 209 209 207
-5.69465 -7.27704 2.29064 206 208 211
-5.71646 -7.28304 2.29335 210 211 216
-5.73827 -7.28905 2.29607 211 212 215
-5.76008 -7.29505 2.29879 204 207 212
-5.78188 -7.30105 2.30150 204 206 214
-5.80369 -7.30706 2.30422 209 209 215
-5.82551 -7.31306 2.30693 207 209 217
-5.84732 -7.31907 2.30965 205 206 212
-5.86913 -7.32507 2.31237 201 202 203
-5.89094 -7.33108 2.31508 198 196 200
-5.91276 -7.33708 2.31780 196 192 195
-5.93457 -7.34309 2.32051 197 197 199
-5.95639 -7.34909 2.32323 195 196 204
-5.97821 -7.35510 2.32595 195 198 204
-6.00002 -7.36110 2.32866 200 205 207
-6.02184 -7.36711 2.33138 203 203 208
-6.04366 -7.37312 2.33410 199 196 201
-6.06548 -7.37912 2.33682 199 200 199
-6.08730 -7.38513 2.33953 203 204 204
-6.10913 -7.39114 2.34225 199 200 205
-6.13095 -7.39715 2.34497 194 198 201
-6.15278 -7.40316 2.34769 195 193 196
-6.17460 -7.40916 2.35040 197 191 195
-6.19643 -7.41517 2.35312 194 194 197
-6.21825 -7.42118 2.35584 190 193 201
-6.24008 -7.42719 2.35856 191 194 202
-6.26191 -7.43320 2.36128 197 202 203
-6.28374 -7.43921 2.36399 200 201 200
-6.30557 -7.44522 2.36671 200 197 199
-6.32740 -7.45123 2.36943 201 199 201
-6.34923 -7.45724 2.37215 194 193 198
-6.37107 -7.46325 2.37487 192 192 191
-6.39290 -7.46926 2.37759 195 190 189
-6.41474 -7.47527 2.38031 191 189 194
-6.43657 -7.48128 2.38302 187 193 193
-6.45841 -7.48729 2.38574 184 185 188
-6.48025 -7.49330 2.38846 190 185 188
-4.37158 -6.87803 2.09565 165 149 133
-4.39322 -6.88399 2.09834 196 196 193
-4.43650 -6.89590 2.10373 205 210 212
-4.45815 -6.90186 2.10643 208 211 214
-4.47979 -6.90781 2.10912 211 214 217
-4.50143 -6.91377 2.11182 210 215 220
-4.52308 -6.91973 2.11451 207 211 216
-4.54472 -6.92569 2.11720 206 207 209
-4.56637 -6.93164 2.11990 205 207 206
-4.58802 -6.93760 2.12259 210 215 213
-4.60966 -6.94356 2.12529 213 217 218
-4.63131 -6.94952 2.12799 212 218 217
-4.65296 -6.95548 2.13068 212 216 217
-4.67462 -6.96144 2.13338 212 215 217
-4.69627 -6.96740 2.13607 210 211 214
-4.71792 -6.97336 2.13877 204 206 208
-4.73957 -6.97932 2.14146 206 210 214
-4.76123 -6.98528 2.14416 207 212 211
-4.78288 -6.99124 2.14685 208 212 212
-4.80454 -6.99720 2.14955 205 204 211
-4.82620 -7.00316 2.15225 202 203 208
-4.84786 -7.00912 2.15494 198 201 209
-4.86951 -7.01509 2.15764 203 205 209
-4.89117 -7.02105 2.16034 204 205 206
-4.91284 -7.02701 2.16303 206 211 214
-4.93450 -7.03297 2.16573 209 214 215
-4.95616 -7.03894 2.16843 210 213 215
-4.97782 -7.04490 2.17112 202 197 204
-4.99949 -7.05086 2.17382 203 206 207
-5.02115 -7.05683 2.17652 204 205 210
-5.04282 -7.06279 2.17921 207 209 212
-5.06449 -7.06875 2.18191 202 205 207
-5.08615 -7.07472 2.18461 203 202 205
-5.10782 -7.08068 2.18731 198 205 200
-5.12949 -7.08665 2.19001 202 210 217
-5.15116 -7.09261 2.19270 211 214 221
-5.17283 -7.09858 2.19540 213 218 221
-5.19451 -7.10454 2.19810 217 217 222
-5.21618 -7.11051 2.20080 214 210 215
-5.23786 -7.11647 2.20350 210 208 214
-5.25953 -7.12244 2.20619 209 217 216
-5.28121 -7.12841 2.20889 216 219 219
-5.30288 -7.13437 2.21159 212 213 216
-5.32456 -7.14034 2.21429 214 215 216
-5.34624 -7.14631 2.21699 218 223 224
-5.36792 -7.15228 2.21969 208 206 214
-5.38960 -7.15824 2.22239 212 215 220
-5.41128 -7.16421 2.22509 211 212 222
-5.43296 -7.17018 2.22779 212 212 217
-5.45465 -7.17615 2.23048 214 213 218
-5.47633 -7.18212 2.23318 218 219 222
-5.49802 -7.18808 2.23588 213 216 218
-5.51970 -7.19405 2.23858 210 209 215
-5.54139 -7.20002 2.24128 211 208 213
-5.56308 -7.20599 2.24398 210 211 213
-5.58476 -7.21196 2.24668 203 208 213
-5.60645 -7.21793 2.24938 208 214 217
-5.62814 -7.22390 2.25208 211 213 215
-5.64984 -7.22987 2.25478 212 211 213
-5.67153 -7.23585 2.25749 204 206 207
-5.69322 -7.24182 2.26019 207 210 213
-5.71491 -7.24779 2.26289 211 215 221
-5.73661 -7.25376 2.26559 212 216 219
-5.75831 -7.25973 2.26829 208 210 212
-5.78000 -7.26570 2.27099 205 205 209
-5.80170 -7.27167 2.27369 208 208 211
-5.82340 -7.27765 2.27639 205 205 212
-5.84510 -7.28362 2.27909 203 202 208
-5.86680 -7.28959 2.28179 205 202 206
-5.88850 -7.29557 2.28450 207 202 207
-5.91020 -7.30154 2.28720 205 201 202
-5.93190 -7.30751 2.28990 198 197 199
-5.95361 -7.31349 2.29260 193 194 200
-5.97531 -7.31946 2.29530 197 196 202
-5.99702 -7.32544 2.29801 203 206 208
-6.01872 -7.33141 2.30071 204 204 212
-6.04043 -7.33739 2.30341 203 200 210
-6.06214 -7.34336 2.30611 204 206 209
-6.08385 -7.34934 2.30882 204 206 207
-6.10556 -7.35531 2.31152 199 198 204
-6.12727 -7.36129 2.31422 193 194 201
-6.14898 -7.36727 2.31693 190 192 201
-6.17070 -7.37324 2.31963 190 194 203
-6.19241 -7.37922 2.32233 193 199 204
-6.21412 -7.38520 2.32503 191 196 203
-6.23584 -7.39117 2.32774 190 193 201
-6.25756 -7.39715 2.33044 195 198 199
-6.27927 -7.40313 2.33315 197 194 194
-6.30099 -7.40911 2.33585 196 188 195
-6.32271 -7.41509 2.33855 198 193 200
-6.34443 -7.42106 2.34126 196 198 198
-6.36615 -7.42704 2.34396 196 198 194
-6.38787 -7.43302 2.34667 193 192 193
-6.40960 -7.43900 2.34937 188 189 198
-6.43132 -7.44498 2.35207 187 189 197
-6.45304 -7.45096 2.35478 192 194 192
-6.47477 -7.45694 2.35748 202 199 188
-4.37692 -6.84507 2.06639 172 162 138
-4.39845 -6.85099 2.06907 201 206 200
-4.44151 -6.86284 2.07443 212 217 217
-4.46304 -6.86877 2.07711 211 216 217
-4.48458 -6.87470 2.07979 212 216 218
-4.50611 -6.88062 2.08247 208 210 215
-4.52764 -6.88655 2.08515 204 202 210
-4.54918 -6.89248 2.08783 202 203 210
-4.57071 -6.89840 2.09051 206 210 209
-4.59225 -6.90433 2.09319 211 217 215
-4.61379 -6.91026 2.09587 209 216 218
-4.63533 -6.91619 2.09855 212 221 215
-4.65687 -6.92212 2.10123 208 210 212
-4.67841 -6.92804 2.10391 204 205 213
-4.69995 -6.93397 2.10659 207 210 212
-4.72149 -6.93990 2.10927 205 206 206
-4.74303 -6.94583 2.11196 205 212 212
-4.76458 -6.95176 2.11464 204 210 212
-4.78612 -6.95769 2.11732 207 213 214
-4.80767 -6.96362 2.12000 206 209 213
-4.82921 -6.96955 2.12268 203 205 206
-4.85076 -6.97548 2.12536 200 203 205
-4.87231 -6.98141 2.12805 206 211 207
-4.89386 -6.98734 2.13073 210 213 206
-4.91541 -6.99327 2.13341 208 210 212
-4.93696 -6.99920 2.13609 208 210 213
-4.95851 -7.00513 2.13877 211 210 209
-4.98006 -7.01107 2.14146 203 201 200
-5.00162 -7.01700 2.14414 197 203 204
-5.02317 -7.02293 2.14682 202 203 206
-5.04473 -7.02886 2.14951 207 210 210
-5.06628 -7.03480 2.15219 204 202 208
-5.08784 -7.04073 2.15487 204 204 208
-5.10940 -7.04666 2.15756 207 217 214
-5.13096 -7.05260 2.16024 205 210 218
-5.15252 -7.05853 2.16292 209 212 219
-5.17408 -7.06446 2.16561 209 212 219
-5.19564 -7.07040 2.16829 207 211 218
-5.21720 -7.07633 2.17097 206 212 217
-5.23877 -7.08227 2.17366 210 215 218
-5.26033 -7.08820 2.17634 209 213 214
-5.28190 -7.09414 2.17902 215 216 214
-5.30346 -7.10007 2.18171 211 209 214
-5.32503 -7.10601 2.18439 213 212 215
-5.34660 -7.11194 2.18708 207 209 214
-5.36817 -7.11788 2.18976 197 196 201
-5.38974 -7.12382 2.19245 213 217 219
-5.41131 -7.12975 2.19513 214 212 217
-5.43288 -7.13569 2.19782 209 209 214
-5.45445 -7.14163 2.20050 211 210 215
-5.47602 -7.14756 2.20319 212 211 219
-5.49760 -7.15350 2.20587 210 210 218
-5.51917 -7.15944 2.20856 203 201 208
-5.54075 -7.16538 2.21124 201 203 209
-5.56232 -7.17132 2.21393 206 210 211
-5.58390 -7.17726 2.21661 206 208 214
-5.60548 -7.18319 2.21930 206 207 215
-5.62706 -7.18913 2.22199 206 208 215
-5.64864 -7.19507 2.22467 211 215 218
-5.67022 -7.20101 2.22736 208 212 215
-5.69180 -7.20695 2.23004 210 210 212
-5.71339 -7.21289 2.23273 205 209 216
-5.73497 -7.21883 2.23542 208 214 220
-5.75655 -7.22477 2.23810 215 219 218
-5.77814 -7.23071 2.24079 210 212 211
-5.79973 -7.23666 2.24348 206 205 210
-5.82131 -7.24260 2.24616 206 208 214
-5.84290 -7.24854 2.24885 208 210 212
-5.86449 -7.25448 2.25154 213 212 212
-5.88608 -7.26042 2.25422 217 213 213
-5.90767 -7.26636 2.25691 216 215 213
-5.92926 -7.27231 2.25960 209 209 212
-5.95086 -7.27825 2.26229 201 198 208
-5.97245 -7.28419 2.26497 203 203 212
-5.99404 -7.29014 2.26766 209 210 215
-6.01564 -7.29608 2.27035 207 207 215
-6.03723 -7.30202 2.27304 206 205 218
-6.05883 -7.30797 2.27573 206 207 220
-6.08043 -7.31391 2.27841 200 200 212
-6.10203 -7.31986 2.28110 197 195 204
-6.12363 -7.32580 2.28379 198 197 204
-6.14523 -7.33175 2.28648 195 196 202
-6.16683 -7.33769 2.28917 193 195 201
-6.18843 -7.34364 2.29186 193 196 196
-6.21004 -7.34958 2.29455 191 193 191
-6.23164 -7.35553 2.29724 187 191 194
-6.25325 -7.36147 2.29992 188 195 198
-6.27485 -7.36742 2.30261 188 193 195
-6.29646 -7.37337 2.30530 194 198 196
-6.31807 -7.37931 2.30799 197 201 200
-6.33967 -7.38526 2.31068 194 197 202
-6.36128 -7.39121 2.31337 194 195 198
-6.38289 -7.39716 2.31606 194 195 194
-6.40451 -7.40310 2.31875 194 195 191
-6.42612 -7.40905 2.32144 189 188 189
-6.44773 -7.41500 2.32413 186 191 192
-6.46935 -7.42095 2.32682 194 197 198
-4.38221 -6.81244 2.03742 181 176 157
-4.40363 -6.81834 2.04009 210 216 212
-4.42505 -6.82423 2.04275 213 216 220
-4.44647 -6.83013 2.04542 209 212 215
-4.46789 -6.83602 2.04808 203 205 208
-4.48932 -6.84192 2.05075 201 206 210
-4.51074 -6.84781 2.05342 207 209 214
-4.53216 -6.85371 2.05608 214 216 219
-4.55359 -6.85961 2.05875 213 219 218
-4.57502 -6.86550 2.06141 209 212 212
-4.59644 -6.87140 2.06408 211 213 213
-4.61787 -6.87730 2.06675 211 215 211
-4.63930 -6.88319 2.06941 210 210 207
-4.66073 -6.88909 2.07208 206 203 207
-4.68216 -6.89499 2.07475 204 205 208
-4.70359 -6.90089 2.07741 208 213 213
-4.72503 -6.90678 2.08008 209 211 209
-4.74646 -6.91268 2.08275 209 214 209
-4.76789 -6.91858 2.08542 204 206 211
-4.78933 -6.92448 2.08808 203 207 213
-4.81076 -6.93038 2.09075 206 210 215
-4.83220 -6.93628 2.09342 207 212 213
-4.85364 -6.94218 2.09609 204 209 208
-4.87508 -6.94808 2.09875 208 210 208
-4.89652 -6.95398 2.10142 211 212 209
-4.91796 -6.95988 2.10409 208 209 209
-4.93940 -6.96578 2.10676 207 209 209
-4.96084 -6.97168 2.10943 206 206 206
-4.98228 -6.97758 2.11209 205 208 205
-5.00373 -6.98348 2.11476 202 212 209
-5.02517 -6.98938 2.11743 206 207 207
-5.04662 -6.99528 2.12010 207 209 210
-5.06807 -7.00118 2.12277 210 209 215
-5.08951 -7.00709 2.12544 210 215 215
-5.11096 -7.01299 2.12811 209 216 216
-5.13241 -7.01889 2.13077 213 217 221
-5.15386 -7.02479 2.13344 212 216 217
-5.17531 -7.03070 2.13611 209 211 219
-5.19676 -7.03660 2.13878 202 204 215
-5.21822 -7.04250 2.14145 203 209 218
-5.23967 -7.04841 2.14412 211 220 221
-5.26112 -7.05431 2.14679 210 210 212
-5.28258 -7.06022 2.14946 213 212 213
-5.30404 -7.06612 2.15213 214 219 218
-5.32549 -7.07203 2.15480 207 207 209
-5.34695 -7.07793 2.15747 196 197 201
-5.36841 -7.08384 2.16014 199 199 200
-5.38987 -7.08974 2.16281 215 212 218
-5.41133 -7.09565 2.16548 217 212 215
-5.43279 -7.10155 2.16815 207 206 211
-5.45425 -7.10746 2.17082 207 208 211
-5.47572 -7.11337 2.17350 209 212 217
-5.49718 -7.11927 2.17617 212 215 221
-5.51865 -7.12518 2.17884 212 213 214
-5.54011 -7.13109 2.18151 210 209 209
-5.56158 -7.13699 2.18418 207 206 208
-5.58305 -7.14290 2.18685 206 206 211
-5.60452 -7.14881 2.18952 204 205 211
-5.62598 -7.15472 2.19219 203 203 211
-5.64745 -7.16063 2.19487 210 214 219
-5.66893 -7.16653 2.19754 209 214 216
-5.69040 -7.17244 2.20021 204 205 208
-5.71187 -7.17835 2.20288 204 209 215
-5.73335 -7.18426 2.20555 208 214 222
-5.75482 -7.19017 2.20823 211 214 220
-5.77630 -7.19608 2.21090 206 207 210
-5.79777 -7.20199 2.21357 204 200 200
-5.81925 -7.20790 2.21624 206 205 209
-5.84073 -7.21381 2.21892 205 202 211
-5.86221 -7.21972 2.22159 202 200 207
-5.88369 -7.22563 2.22426 199 203 208
-5.90517 -7.23155 2.22693 194 199 207
-5.92665 -7.23746 2.22961 196 201 209
-5.94813 -7.24337 2.23228 200 205 213
-5.96961 -7.24928 2.23495 212 215 219
-5.99110 -7.25519 2.23763 215 213 215
-6.01258 -7.26111 2.24030 204 197 202
-6.03407 -7.26702 2.24297 203 201 207
-6.05556 -7.27293 2.24565 207 208 216
-6.07704 -7.27885 2.24832 197 198 207
-6.09853 -7.28476 2.25100 192 194 202
-6.12002 -7.29067 2.25367 197 199 208
-6.14151 -7.29659 2.25634 193 195 204
-6.16301 -7.30250 2.25902 194 193 201
-6.18450 -7.30841 2.26169 198 198 204
-6.20599 -7.31433 2.26437 201 202 201
-6.22748 -7.32024 2.26704 196 198 200
-6.24898 -7.32616 2.26972 190 193 198
-6.27047 -7.33207 2.27239 190 189 196
-6.29197 -7.33799 2.27507 195 196 200
-6.31347 -7.34391 2.27774 195 199 203
-6.33497 -7.34982 2.28042 194 197 204
-6.35647 -7.35574 2.28309 195 194 201
-6.37797 -7.36166 2.28577 194 193 198
-6.39947 -7.36757 2.28844 190 193 193
-6.42097 -7.37349 2.29112 188 193 191
-6.44247 -7.37941 2.29379 190 193 194
-6.46398 -7.38532 2.29647 196 199 203
-4.38744 -6.78015 2.00875 186 184 176
-4.40875 -6.78601 2.01140 213 217 218
-4.43007 -6.79188 2.01405 215 216 218
-4.45138 -6.79774 2.01670 209 207 207
-4.47269 -6.80361 2.01936 201 198 196
-4.49401 -6.80947 2.02201 200 204 206
-4.51532 -6.81534 2.02466 210 214 218
-4.53664 -6.82120 2.02731 218 220 221
-4.55796 -6.82707 2.02996 217 218 218
-4.57927 -6.83293 2.03262 211 212 214
-4.60059 -6.83880 2.03527 210 214 212
-4.62191 -6.84467 2.03792 208 210 211
-4.64323 -6.85053 2.04057 208 207 210
-4.66455 -6.85640 2.04323 208 211 214
-4.68588 -6.86227 2.04588 206 210 210
-4.70720 -6.86813 2.04853 209 214 214
-4.72852 -6.87400 2.05118 211 215 216
-4.74985 -6.87987 2.05384 214 221 218
-4.77117 -6.88574 2.05649 212 214 219
-4.79250 -6.89161 2.05914 207 209 213
-4.81383 -6.89747 2.06180 204 207 213
-4.83516 -6.90334 2.06445 204 212 216
-4.85649 -6.90921 2.06710 202 209 213
-4.87782 -6.91508 2.06976 208 212 212
-4.89915 -6.92095 2.07241 210 215 215
-4.92048 -6.92682 2.07507 207 211 213
-4.94181 -6.93269 2.07772 207 211 210
-4.96315 -6.93856 2.08037 206 208 210
-4.98448 -6.94443 2.08303 205 210 212
-5.00582 -6.95030 2.08568 207 215 220
-5.02715 -6.95617 2.08834 211 215 216
-5.04849 -6.96204 2.09099 208 211 214
-5.06983 -6.96791 2.09365 211 215 221
-5.09117 -6.97378 2.09630 200 206 214
-5.11251 -6.97966 2.09895 201 209 214
-5.13385 -6.98553 2.10161 215 219 221
-5.15519 -6.99140 2.10426 211 213 215
-5.17653 -6.99727 2.10692 207 210 218
-5.19787 -7.00315 2.10958 206 205 214
-5.21922 -7.00902 2.11223 211 213 218
-5.24056 -7.01489 2.11489 210 210 216
-5.26191 -7.02077 2.11754 207 210 215
-5.28326 -7.02664 2.12020 210 210 216
-5.30460 -7.03251 2.12285 212 222 223
-5.32595 -7.03839 2.12551 199 200 203
-5.34730 -7.04426 2.12817 197 201 202
-5.36865 -7.05014 2.13082 203 206 209
-5.39000 -7.05601 2.13348 216 217 222
-5.41135 -7.06189 2.13613 215 213 219
-5.43271 -7.06776 2.13879 204 205 208
-5.45406 -7.07364 2.14145 205 204 202
-5.47542 -7.07951 2.14410 205 208 207
-5.49677 -7.08539 2.14676 203 203 214
-5.51813 -7.09127 2.14942 209 209 214
-5.53948 -7.09714 2.15207 209 212 212
-5.56084 -7.10302 2.15473 205 206 208
-5.58220 -7.10890 2.15739 206 205 211
-5.60356 -7.11477 2.16005 209 214 213
-5.62492 -7.12065 2.16270 210 213 213
-5.64628 -7.12653 2.16536 213 211 213
-5.66764 -7.13241 2.16802 211 209 210
-5.68901 -7.13829 2.17068 208 208 211
-5.71037 -7.14416 2.17333 206 207 215
-5.73174 -7.15004 2.17599 202 201 214
-5.75310 -7.15592 2.17865 203 202 213
-5.77447 -7.16180 2.18131 206 208 210
-5.79584 -7.16768 2.18397 207 206 205
-5.81721 -7.17356 2.18663 206 204 209
-5.83857 -7.17944 2.18928 203 202 210
-5.85994 -7.18532 2.19194 200 200 204
-5.88132 -7.19120 2.19460 200 199 203
-5.90269 -7.19708 2.19726 196 194 200
-5.92406 -7.20296 2.19992 199 202 206
-5.94543 -7.20884 2.20258 204 209 215
-5.96681 -7.21472 2.20524 210 215 218
-5.98818 -7.22061 2.20790 209 212 210
-6.00956 -7.22649 2.21056 198 197 197
-6.03094 -7.23237 2.21322 195 195 200
-6.05232 -7.23825 2.21588 201 202 209
-6.07369 -7.24413 2.21854 199 196 196
-6.09507 -7.25002 2.22119 190 186 187
-6.11645 -7.25590 2.22386 185 183 195
-6.13784 -7.26178 2.22652 188 189 201
-6.15922 -7.26767 2.22918 194 195 202
-6.18060 -7.27355 2.23184 197 194 206
-6.20199 -7.27943 2.23450 198 195 210
-6.22337 -7.28532 2.23716 193 192 206
-6.24476 -7.29120 2.23982 189 187 200
-6.26614 -7.29709 2.24248 190 190 202
-6.28753 -7.30297 2.24514 198 199 203
-6.30892 -7.30886 2.24780 198 198 199
-6.33031 -7.31474 2.25046 193 192 199
-6.35170 -7.32063 2.25312 195 195 201
-6.37309 -7.32652 2.25578 192 193 199
-6.39448 -7.33240 2.25844 189 190 193
-6.41587 -7.33829 2.26111 187 190 191
-6.43727 -7.34417 2.26377 189 190 194
-6.45866 -7.35006 2.26643 190 185 194
-4.41383 -6.75401 1.98300 220 226 228
-4.43503 -6.75985 1.98564 221 221 223
-4.45624 -6.76568 1.98828 214 214 216
-4.47744 -6.77152 1.99092 211 213 214
-4.49865 -6.77735 1.99356 217 220 222
-4.51986 -6.78319 1.99619 220 223 226
-4.54107 -6.78902 1.99883 223 228 225
-4.56228 -6.79486 2.00147 222 225 222
-4.58349 -6.80069 2.00411 217 218 216
-4.60470 -6.80653 2.00675 212 214 213
-4.62591 -6.81236 2.00938 204 210 213
-4.64713 -6.81820 2.01202 211 216 217
-4.66834 -6.82404 2.01466 210 214 221
-4.68956 -6.82987 2.01730 203 206 213
-4.71077 -6.83571 2.01994 209 217 213
-4.73199 -6.84155 2.02258 211 215 215
-4.75321 -6.84739 2.02522 211 213 216
-4.77442 -6.85322 2.02786 213 215 217
-4.79564 -6.85906 2.03050 210 213 212
-4.81686 -6.86490 2.03313 201 203 206
-4.83808 -6.87074 2.03577 200 204 207
-4.85931 -6.87658 2.03841 197 206 209
-4.88053 -6.88242 2.04105 205 212 211
-4.90175 -6.88826 2.04369 205 204 209
-4.92298 -6.89409 2.04633 205 205 215
-4.94420 -6.89993 2.04897 206 210 213
-4.96543 -6.90577 2.05161 210 211 214
-4.98666 -6.91161 2.05425 209 213 211
-5.00788 -6.91745 2.05689 207 210 215
-5.02911 -6.92330 2.05953 213 220 220
-5.05034 -6.92914 2.06218 210 213 215
-5.07157 -6.93498 2.06482 207 209 216
-5.09280 -6.94082 2.06746 191 191 209
-5.11404 -6.94666 2.07010 192 205 212
-5.13527 -6.95250 2.07274 215 218 218
-5.15650 -6.95834 2.07538 217 218 218
-5.17774 -6.96419 2.07802 208 211 212
-5.19897 -6.97003 2.08066 203 199 207
-5.22021 -6.97587 2.08330 207 212 216
-5.24145 -6.98171 2.08595 208 208 213
-5.26269 -6.98756 2.08859 212 216 222
-5.28393 -6.99340 2.09123 216 217 225
-5.30517 -6.99924 2.09387 208 213 219
-5.32641 -7.00509 2.09651 198 201 212
-5.34765 -7.01093 2.09915 201 206 206
-5.36889 -7.01678 2.10180 201 203 209
-5.39013 -7.02262 2.10444 207 209 218
-5.41138 -7.02847 2.10708 205 205 213
-5.43262 -7.03431 2.10972 202 206 206
-5.45387 -7.04016 2.11237 206 205 201
-5.47512 -7.04600 2.11501 209 211 206
-5.49636 -7.05185 2.11765 205 202 204
-5.51761 -7.05769 2.12030 210 210 211
-5.53886 -7.06354 2.12294 208 210 216
-5.56011 -7.06939 2.12558 202 204 207
-5.58136 -7.07523 2.12822 207 206 210
-5.60262 -7.08108 2.13087 211 216 215
-5.62387 -7.08693 2.13351 212 214 214
-5.64512 -7.09278 2.13615 209 210 210
-5.66638 -7.09862 2.13880 205 200 203
-5.68763 -7.10447 2.14144 209 207 209
-5.70889 -7.11032 2.14409 214 215 215
-5.73015 -7.11617 2.14673 211 210 212
-5.75140 -7.12202 2.14937 207 200 206
-5.77266 -7.12786 2.15202 203 202 210
-5.79392 -7.13371 2.15466 205 208 216
-5.81518 -7.13956 2.15731 207 213 215
-5.83644 -7.14541 2.15995 203 208 212
-5.85771 -7.15126 2.16260 200 199 211
-5.87897 -7.15711 2.16524 201 199 208
-5.90023 -7.16296 2.16789 200 201 207
-5.92150 -7.16881 2.17053 200 203 211
-5.94276 -7.17466 2.17318 201 207 217
-5.96403 -7.18052 2.17582 202 208 214
-5.98530 -7.18637 2.17847 201 201 203
-6.00657 -7.19222 2.18111 200 194 198
-6.02784 -7.19807 2.18376 201 195 204
-6.04911 -7.20392 2.18640 202 200 207
-6.07038 -7.20977 2.18905 201 202 203
-6.09165 -7.21563 2.19169 196 197 197
-6.11292 -7.22148 2.19434 193 194 199
-6.13420 -7.22733 2.19699 195 201 206
-6.15547 -7.23318 2.19963 197 203 207
-6.17674 -7.23904 2.20228 200 203 205
-6.19802 -7.24489 2.20493 203 204 206
-6.21930 -7.25075 2.20757 197 197 205
-6.24058 -7.25660 2.21022 195 195 204
-6.26185 -7.26245 2.21286 198 200 206
-6.28313 -7.26831 2.21551 200 202 208
-6.30441 -7.27416 2.21816 196 195 200
-6.32570 -7.28002 2.22081 191 191 199
-6.34698 -7.28587 2.22345 196 202 204
-6.36826 -7.29173 2.22610 192 197 200
-6.38955 -7.29759 2.22875 192 194 199
-6.41083 -7.30344 2.23139 193 194 199
-6.43212 -7.30930 2.23404 194 197 199
-6.45340 -7.31515 2.23669 191 195 195
-4.41885 -6.72234 1.95489 219 224 229
-4.43995 -6.72814 1.95752 219 225 226
-4.46105 -6.73394 1.96014 216 219 219
-4.48215 -6.73975 1.96276 213 212 216
-4.50325 -6.74555 1.96539 212 214 219
-4.52435 -6.75136 1.96801 211 217 221
-4.54545 -6.75716 1.97064 215 219 223
-4.56656 -6.76297 1.97326 216 220 221
-4.58766 -6.76878 1.97588 214 217 216
-4.60877 -6.77458 1.97851 212 212 212
-4.62987 -6.78039 1.98113 208 210 209
-4.65098 -6.78619 1.98376 211 213 212
-4.67209 -6.79200 1.98638 206 205 212
-4.69320 -6.79781 1.98901 207 207 211
-4.71431 -6.80361 1.99163 209 212 209
-4.73542 -6.80942 1.99426 207 210 210
-4.75653 -6.81523 1.99688 205 208 209
-4.77764 -6.82104 1.99951 209 211 211
-4.79875 -6.82685 2.00214 206 210 208
-4.81987 -6.83265 2.00476 196 198 200
-4.84098 -6.83846 2.00739 197 199 198
-4.86210 -6.84427 2.01001 200 207 206
-4.88321 -6.85008 2.01264 206 213 210
-4.90433 -6.85589 2.01526 201 193 201
-4.92545 -6.86170 2.01789 202 199 212
-4.94657 -6.86751 2.02052 205 208 215
-4.96769 -6.87332 2.02314 209 211 213
-4.98881 -6.87913 2.02577 211 211 208
-5.00993 -6.88494 2.02840 208 212 209
-5.03105 -6.89075 2.03102 215 222 220
-5.05218 -6.89656 2.03365 219 221 217
-5.07330 -6.90237 2.03628 213 212 213
-5.09443 -6.90818 2.03890 202 203 209
-5.11555 -6.91400 2.04153 193 200 211
-5.13668 -6.91981 2.04416 215 220 222
-5.15781 -6.92562 2.04678 223 228 226
-5.17893 -6.93143 2.04941 213 212 212
-5.20006 -6.93724 2.05204 207 207 208
-5.22119 -6.94306 2.05467 205 207 209
-5.24232 -6.94887 2.05729 207 210 212
-5.26346 -6.95468 2.05992 212 218 223
-5.28459 -6.96050 2.06255 217 221 221
-5.30572 -6.96631 2.06518 205 200 205
-5.32686 -6.97212 2.06781 192 191 207
-5.34799 -6.97794 2.07043 196 200 206
-5.36913 -6.98375 2.07306 192 196 203
-5.39026 -6.98957 2.07569 196 198 203
-5.41140 -6.99538 2.07832 203 207 210
-5.43254 -7.00120 2.08095 203 204 203
-5.45368 -7.00701 2.08358 201 196 201
-5.47482 -7.01283 2.08621 202 206 212
-5.49596 -7.01864 2.08884 208 209 214
-5.51710 -7.02446 2.09146 211 209 212
-5.53825 -7.03028 2.09409 205 205 208
-5.55939 -7.03609 2.09672 197 197 205
-5.58053 -7.04191 2.09935 206 208 211
-5.60168 -7.04773 2.10198 212 218 219
-5.62283 -7.05354 2.10461 213 215 214
-5.64397 -7.05936 2.10724 207 209 211
-5.66512 -7.06518 2.10987 206 208 211
-5.68627 -7.07100 2.11250 215 215 215
-5.70742 -7.07681 2.11513 222 222 219
-5.72857 -7.08263 2.11776 218 220 215
-5.74972 -7.08845 2.12039 211 207 207
-5.77087 -7.09427 2.12302 204 202 208
-5.79203 -7.10009 2.12565 202 201 209
-5.81318 -7.10591 2.12828 202 204 208
-5.83434 -7.11173 2.13091 200 206 207
-5.85549 -7.11755 2.13354 203 207 213
-5.87665 -7.12337 2.13618 207 207 211
-5.89780 -7.12919 2.13881 208 205 206
-5.91896 -7.13501 2.14144 206 202 207
-5.94012 -7.14083 2.14407 199 199 209
-5.96128 -7.14665 2.14670 196 200 208
-5.98244 -7.15247 2.14933 200 202 203
-6.00360 -7.15829 2.15196 208 207 209
-6.02477 -7.16411 2.15459 211 210 214
-6.04593 -7.16994 2.15723 205 205 210
-6.06709 -7.17576 2.15986 203 205 208
-6.08826 -7.18158 2.16249 205 203 204
-6.10942 -7.18740 2.16512 198 200 201
-6.13059 -7.19323 2.16775 195 201 204
-6.15176 -7.19905 2.17039 194 200 205
-6.17293 -7.20487 2.17302 194 199 204
-6.19410 -7.21070 2.17565 197 199 201
-6.21527 -7.21652 2.17828 196 197 199
-6.23644 -7.22234 2.18092 194 195 198
-6.25761 -7.22817 2.18355 193 194 199
-6.27878 -7.23399 2.18618 200 200 207
-6.29996 -7.23982 2.18882 203 198 202
-6.32113 -7.24564 2.19145 198 196 202
-6.34230 -7.25147 2.19408 196 199 204
-6.36348 -7.25729 2.19671 195 198 204
-6.38466 -7.26312 2.19935 196 204 206
-6.40584 -7.26894 2.20198 196 202 207
-6.42701 -7.27477 2.20462 199 205 204
-6.44819 -7.28060 2.20725 194 201 193
-4.42382 -6.69097 1.92706 210 216 221
-4.44481 -6.69675 1.92967 213 219 223
-4.46581 -6.70252 1.93228 212 214 217
-4.48680 -6.70830 1.93489 212 212 217
-4.50780 -6.71407 1.93750 210 214 218
-4.52880 -6.71985 1.94011 207 213 218
-4.54979 -6.72562 1.94272 212 219 222
-4.57079 -6.73140 1.94533 211 216 221
-4.59179 -6.73718 1.94794 210 214 217
-4.61279 -6.74295 1.95055 212 217 214
-4.63379 -6.74873 1.95317 210 215 213
-4.65479 -6.75451 1.95578 208 212 210
-4.67580 -6.76028 1.95839 204 204 211
-4.69680 -6.76606 1.96100 212 216 213
-4.71781 -6.77184 1.96361 208 208 210
-4.73881 -6.77762 1.96622 207 212 214
-4.75982 -6.78339 1.96883 201 210 210
-4.78082 -6.78917 1.97145 207 210 212
-4.80183 -6.79495 1.97406 207 209 207
-4.82284 -6.80073 1.97667 196 198 197
-4.84385 -6.80651 1.97928 196 198 198
-4.86486 -6.81229 1.98189 198 205 207
-4.88587 -6.81807 1.98451 210 212 211
-4.90688 -6.82385 1.98712 204 200 204
-4.92790 -6.82963 1.98973 206 207 211
-4.94891 -6.83541 1.99234 206 208 214
-4.96993 -6.84119 1.99496 200 205 207
-4.99094 -6.84697 1.99757 209 214 211
-5.01196 -6.85275 2.00018 201 205 204
-5.03297 -6.85853 2.00279 205 211 218
-5.05399 -6.86431 2.00541 223 231 224
-5.07501 -6.87009 2.00802 213 214 213
-5.09603 -6.87587 2.01063 209 214 214
-5.11705 -6.88166 2.01325 196 202 212
-5.13807 -6.88744 2.01586 211 221 223
-5.15909 -6.89322 2.01847 216 223 222
-5.18012 -6.89900 2.02109 215 213 215
-5.20114 -6.90479 2.02370 210 209 210
-5.22217 -6.91057 2.02632 203 206 208
-5.24319 -6.91635 2.02893 204 210 212
-5.26422 -6.92213 2.03154 206 209 216
-5.28524 -6.92792 2.03416 210 212 215
-5.30627 -6.93370 2.03677 204 206 211
-5.32730 -6.93949 2.03939 203 208 208
-5.34833 -6.94527 2.04200 197 197 201
-5.36936 -6.95106 2.04462 195 201 206
-5.39039 -6.95684 2.04723 204 210 209
-5.41143 -6.96263 2.04985 202 206 207
-5.43246 -6.96841 2.05246 196 198 203
-5.45349 -6.97420 2.05508 204 207 212
-5.47453 -6.97998 2.05769 200 204 213
-5.49556 -6.98577 2.06031 205 209 218
-5.51660 -6.99156 2.06292 212 214 215
-5.53764 -6.99734 2.06554 207 207 211
-5.55867 -7.00313 2.06815 196 197 210
-5.57971 -7.00892 2.07077 199 202 211
-5.60075 -7.01470 2.07338 197 200 207
-5.62179 -7.02049 2.07600 199 202 205
-5.64284 -7.02628 2.07862 198 200 211
-5.66388 -7.03207 2.08123 202 204 212
-5.68492 -7.03786 2.08385 207 210 216
-5.70597 -7.04364 2.08647 211 215 219
-5.72701 -7.04943 2.08908 212 214 215
-5.74806 -7.05522 2.09170 206 207 207
-5.76910 -7.06101 2.09431 204 205 207
-5.79015 -7.06680 2.09693 204 203 206
-5.81120 -7.07259 2.09955 202 202 204
-5.83225 -7.07838 2.10217 202 203 202
