ply
format ascii 1.0
element face 0
property list uchar int vertex_indices
element vertex 1248
property float x
property float y
property float z
property uchar diffuse_red
property uchar diffuse_green
property uchar diffuse_blue
end_header
-0.29987 -0.45670 -0.72644 252 250 251
-0.29363 -0.45996 -0.72216 251 250 251
-0.28741 -0.46321 -0.71788 251 250 251
-0.28119 -0.46646 -0.71361 251 250 251
-0.27498 -0.46971 -0.70934 251 250 251
-0.26878 -0.47295 -0.70507 251 249 251
-0.26258 -0.47619 -0.70081 251 249 251
-0.25639 -0.47943 -0.69656 251 249 251
-0.25021 -0.48266 -0.69231 251 249 251
-0.38030 -0.42549 -0.77146 253 253 253
-0.37401 -0.42878 -0.76714 253 253 253
-0.36772 -0.43206 -0.76283 253 252 253
-0.36145 -0.43533 -0.75852 252 252 252
-0.35518 -0.43860 -0.75421 252 252 252
-0.34891 -0.44187 -0.74991 252 252 252
-0.34266 -0.44514 -0.74561 252 252 252
-0.33641 -0.44840 -0.74132 252 252 252
-0.33016 -0.45166 -0.73704 252 252 252
-0.32393 -0.45491 -0.73276 252 251 251
-0.31770 -0.45816 -0.72848 252 251 251
-0.31148 -0.46141 -0.72421 252 250 251
-0.30526 -0.46465 -0.71994 252 250 251
-0.29905 -0.46789 -0.71567 251 250 251
-0.29285 -0.47113 -0.71142 251 250 251
-0.28665 -0.47436 -0.70716 251 250 251
-0.28046 -0.47759 -0.70291 251 250 251
-0.27428 -0.48082 -0.69867 251 249 251
-0.26810 -0.48404 -0.69443 251 249 251
-0.26193 -0.48726 -0.69019 251 249 251
-0.25577 -0.49048 -0.68596 251 249 251
-0.38539 -0.43359 -0.76476 253 253 253
-0.37913 -0.43685 -0.76046 253 253 253
-0.37286 -0.44012 -0.75617 253 253 253
-0.36661 -0.44338 -0.75188 252 252 252
-0.36036 -0.44663 -0.74759 252 252 252
-0.35412 -0.44988 -0.74331 252 252 252
-0.34788 -0.45313 -0.73904 252 252 252
-0.34165 -0.45637 -0.73477 252 252 252
-0.33543 -0.45962 -0.73050 252 252 252
-0.32922 -0.46285 -0.72624 252 251 251
-0.32301 -0.46609 -0.72198 252 251 251
-0.31681 -0.46932 -0.71773 252 250 251
-0.31061 -0.47255 -0.71348 252 250 251
-0.30442 -0.47577 -0.70924 251 250 251
-0.29824 -0.47899 -0.70500 251 250 251
-0.29207 -0.48221 -0.70076 251 250 251
-0.28590 -0.48542 -0.69653 251 250 251
-0.27974 -0.48863 -0.69231 251 249 251
-0.27358 -0.49184 -0.68809 251 249 251
-0.26743 -0.49504 -0.68387 251 249 251
-0.26129 -0.49824 -0.67966 251 249 251
-0.39671 -0.43837 -0.76240 254 254 254
-0.39045 -0.44162 -0.75812 253 253 253
-0.38421 -0.44487 -0.75384 253 253 253
-0.37796 -0.44812 -0.74956 253 253 253
-0.37173 -0.45136 -0.74529 252 252 253
-0.36550 -0.45460 -0.74103 252 252 252
-0.35928 -0.45783 -0.73677 252 252 252
-0.35307 -0.46106 -0.73251 252 252 252
-0.34686 -0.46429 -0.72826 252 252 252
-0.34066 -0.46751 -0.72401 252 252 252
-0.33447 -0.47074 -0.71977 252 251 251
-0.32828 -0.47395 -0.71553 252 251 251
-0.32210 -0.47717 -0.71130 252 251 251
-0.31592 -0.48038 -0.70707 252 250 251
-0.30976 -0.48359 -0.70285 251 250 251
-0.30360 -0.48679 -0.69863 251 250 251
-0.29744 -0.48999 -0.69441 251 250 251
-0.29129 -0.49319 -0.69020 251 250 251
-0.28515 -0.49638 -0.68600 251 249 251
-0.27902 -0.49957 -0.68180 251 249 251
-0.27289 -0.50276 -0.67760 251 249 251
-0.26677 -0.50594 -0.67341 251 249 251
-0.40795 -0.44312 -0.76005 254 254 254
-0.40171 -0.44636 -0.75578 254 254 254
-0.39547 -0.44959 -0.75152 253 253 253
-0.38925 -0.45282 -0.74726 253 253 253
-0.38303 -0.45605 -0.74301 253 253 253
-0.37681 -0.45928 -0.73876 253 252 253
-0.37061 -0.46250 -0.73451 252 252 252
-0.36441 -0.46572 -0.73027 252 252 252
-0.35822 -0.46893 -0.72604 252 252 252
-0.35203 -0.47214 -0.72180 252 252 252
-0.34585 -0.47535 -0.71758 252 252 252
-0.33968 -0.47856 -0.71336 252 251 252
-0.33351 -0.48176 -0.70914 252 251 251
-0.32735 -0.48496 -0.70492 252 251 251
-0.32120 -0.48815 -0.70071 252 250 251
-0.31505 -0.49134 -0.69651 252 250 251
-0.30891 -0.49453 -0.69231 251 250 251
-0.30277 -0.49771 -0.68811 251 250 251
-0.29665 -0.50089 -0.68392 251 250 251
-0.29053 -0.50407 -0.67974 251 249 251
-0.28441 -0.50725 -0.67555 251 249 251
-0.27830 -0.51042 -0.67138 251 249 251
-0.27220 -0.51358 -0.66720 251 249 251
-0.41911 -0.44784 -0.75772 254 254 254
-0.41288 -0.45106 -0.75347 254 254 254
-0.40667 -0.45428 -0.74922 254 254 254
-0.40045 -0.45750 -0.74498 253 253 253
-0.39425 -0.46072 -0.74074 253 253 253
-0.38805 -0.46393 -0.73650 253 253 253
-0.38186 -0.46714 -0.73227 253 252 253
-0.37567 -0.47034 -0.72805 252 252 252
-0.36950 -0.47355 -0.72383 252 252 252
-0.36332 -0.47674 -0.71961 252 252 252
-0.35716 -0.47994 -0.71540 252 252 252
-0.35100 -0.48313 -0.71119 252 252 252
-0.34485 -0.48632 -0.70699 252 252 252
-0.33870 -0.48951 -0.70279 252 251 251
-0.33256 -0.49269 -0.69859 252 251 251
-0.32643 -0.49587 -0.69440 252 250 251
-0.32030 -0.49904 -0.69022 252 250 251
-0.31418 -0.50221 -0.68604 251 250 251
-0.30807 -0.50538 -0.68186 251 250 251
-0.30196 -0.50854 -0.67769 251 250 251
-0.29586 -0.51171 -0.67352 251 249 251
-0.28976 -0.51486 -0.66936 251 249 251
-0.28368 -0.51802 -0.66520 251 249 251
-0.27760 -0.52117 -0.66104 251 249 251
-0.43020 -0.45252 -0.75540 254 254 254
-0.42399 -0.45573 -0.75117 254 254 254
-0.41779 -0.45894 -0.74693 254 254 254
-0.41159 -0.46215 -0.74270 254 254 254
-0.40540 -0.46535 -0.73848 253 253 254
-0.39921 -0.46855 -0.73426 253 253 253
-0.39304 -0.47175 -0.73005 253 253 253
-0.38687 -0.47494 -0.72584 253 253 253
-0.38070 -0.47813 -0.72163 252 252 252
-0.37454 -0.48132 -0.71743 252 252 252
-0.36839 -0.48450 -0.71323 252 252 252
-0.36225 -0.48768 -0.70904 252 252 252
-0.35611 -0.49085 -0.70485 252 252 252
-0.34998 -0.49402 -0.70067 252 252 252
-0.34385 -0.49719 -0.69649 252 251 251
-0.33773 -0.50036 -0.69231 252 251 251
-0.33162 -0.50352 -0.68814 252 251 251
-0.32551 -0.50668 -0.68397 252 250 251
-0.31941 -0.50984 -0.67981 251 250 251
-0.31332 -0.51299 -0.67565 251 250 250
-0.30723 -0.51614 -0.67150 251 250 251
-0.30115 -0.51928 -0.66735 251 250 251
-0.29508 -0.52242 -0.66321 251 249 251
-0.28901 -0.52556 -0.65907 251 249 251
-0.28295 -0.52870 -0.65493 251 249 251
-0.44122 -0.45718 -0.75310 254 254 254
-0.43502 -0.46038 -0.74888 254 254 254
-0.42884 -0.46357 -0.74466 254 254 254
-0.42265 -0.46677 -0.74045 254 254 254
-0.41648 -0.46996 -0.73624 254 254 254
-0.41031 -0.47314 -0.73203 254 254 254
-0.40414 -0.47633 -0.72783 253 253 253
-0.39799 -0.47951 -0.72364 253 253 253
-0.39184 -0.48268 -0.71945 253 253 253
-0.38569 -0.48586 -0.71526 252 252 253
-0.37955 -0.48903 -0.71108 252 252 252
-0.37342 -0.49219 -0.70690 252 252 252
-0.36730 -0.49535 -0.70273 252 252 252
-0.36118 -0.49851 -0.69856 252 252 252
-0.35507 -0.50167 -0.69439 252 252 252
-0.34896 -0.50482 -0.69023 252 251 252
-0.34286 -0.50797 -0.68608 252 251 251
-0.33677 -0.51112 -0.68192 252 251 251
-0.33069 -0.51426 -0.67778 252 250 251
-0.32461 -0.51740 -0.67363 252 250 251
-0.31853 -0.52054 -0.66950 251 250 251
-0.31247 -0.52367 -0.66536 251 250 251
-0.30641 -0.52680 -0.66123 251 250 251
-0.30035 -0.52993 -0.65711 251 250 251
-0.29430 -0.53305 -0.65298 251 249 251
-0.28826 -0.53617 -0.64887 251 250 252
-0.45217 -0.46180 -0.75082 254 254 254
-0.44599 -0.46499 -0.74661 254 254 254
-0.43981 -0.46817 -0.74241 254 254 254
-0.43364 -0.47135 -0.73821 254 254 254
-0.42748 -0.47453 -0.73401 254 254 254
-0.42132 -0.47771 -0.72982 254 254 254
-0.41518 -0.48088 -0.72564 254 254 254
-0.40903 -0.48404 -0.72146 253 253 253
-0.40290 -0.48721 -0.71728 253 253 253
-0.39677 -0.49037 -0.71311 253 253 253
-0.39064 -0.49352 -0.70894 253 252 253
-0.38453 -0.49668 -0.70478 252 252 252
-0.37842 -0.49983 -0.70062 252 252 252
-0.37231 -0.50297 -0.69646 252 252 252
-0.36621 -0.50612 -0.69231 252 252 252
-0.36012 -0.50926 -0.68817 252 252 252
-0.35404 -0.51240 -0.68403 252 252 252
-0.46304 -0.46640 -0.74854 254 254 253
-0.45688 -0.46957 -0.74435 254 254 254
-0.45072 -0.47274 -0.74016 254 254 254
-0.44456 -0.47591 -0.73598 254 254 254
-0.43841 -0.47908 -0.73180 254 254 254
-0.43227 -0.48224 -0.72763 254 254 254
-0.42614 -0.48540 -0.72345 254 254 254
-0.42001 -0.48855 -0.71929 254 254 254
0.61109 -0.36691 -0.62514 253 253 253
0.61738 -0.37210 -0.61940 253 253 253
0.62367 -0.37729 -0.61366 253 253 253
0.62994 -0.38247 -0.60794 253 253 253
0.63621 -0.38765 -0.60222 253 253 253
0.57536 -0.35636 -0.64116 253 253 253
0.58166 -0.36156 -0.63542 253 253 253
0.58796 -0.36674 -0.62969 253 253 253
0.59424 -0.37192 -0.62397 253 253 253
0.60052 -0.37709 -0.61825 253 253 253
0.60679 -0.38226 -0.61254 253 253 253
0.61306 -0.38742 -0.60683 253 253 253
0.61931 -0.39258 -0.60113 253 253 253
0.62556 -0.39772 -0.59544 253 253 253
0.55238 -0.35623 -0.64566 252 252 253
0.55868 -0.36141 -0.63993 252 252 253
0.56497 -0.36657 -0.63421 252 252 253
0.57125 -0.37174 -0.62850 252 252 253
0.57752 -0.37690 -0.62280 252 252 253
0.58379 -0.38205 -0.61710 252 252 253
0.59005 -0.38719 -0.61141 252 252 253
0.59630 -0.39233 -0.60573 252 252 253
0.60254 -0.39746 -0.60006 252 252 253
0.60878 -0.40259 -0.59439 252 252 253
0.61500 -0.40771 -0.58872 252 252 253
0.50431 -0.33539 -0.67303 253 253 253
0.51063 -0.34058 -0.66729 252 252 252
0.51694 -0.34576 -0.66156 252 252 252
0.52325 -0.35093 -0.65584 252 252 252
0.52955 -0.35610 -0.65012 252 252 252
0.53584 -0.36126 -0.64441 252 252 252
0.54212 -0.36641 -0.63871 252 252 252
0.54839 -0.37156 -0.63302 252 252 252
0.55466 -0.37670 -0.62733 252 252 252
0.56092 -0.38184 -0.62165 252 252 252
0.56717 -0.38697 -0.61597 252 252 252
0.57342 -0.39209 -0.61030 252 252 252
0.57966 -0.39721 -0.60464 252 252 252
0.58589 -0.40232 -0.59899 252 252 252
0.59211 -0.40742 -0.59334 252 252 252
0.59833 -0.41252 -0.58770 252 252 252
0.60453 -0.41761 -0.58206 252 252 253
0.61074 -0.42270 -0.57643 252 251 250
0.47531 -0.33015 -0.68314 252 252 253
0.48163 -0.33532 -0.67741 252 252 253
0.48795 -0.34049 -0.67169 252 252 253
0.49425 -0.34565 -0.66597 252 252 252
0.50055 -0.35081 -0.66026 252 252 252
0.50685 -0.35596 -0.65456 252 252 252
0.51313 -0.36111 -0.64887 252 252 252
0.51941 -0.36625 -0.64318 252 252 252
0.52568 -0.37138 -0.63750 252 252 252
0.53194 -0.37650 -0.63183 252 252 252
0.53819 -0.38162 -0.62616 252 252 252
0.54444 -0.38674 -0.62050 252 252 252
0.55068 -0.39185 -0.61484 252 252 252
0.55691 -0.39695 -0.60920 252 252 252
0.56314 -0.40205 -0.60356 252 252 252
0.56936 -0.40713 -0.59792 252 252 252
0.57557 -0.41222 -0.59230 252 252 252
0.58177 -0.41730 -0.58668 252 252 252
0.58797 -0.42237 -0.58106 252 252 252
0.59415 -0.42743 -0.57546 252 252 252
0.60033 -0.43249 -0.56986 250 248 242
0.43378 -0.31458 -0.70466 253 253 253
0.44012 -0.31975 -0.69893 253 253 253
0.44645 -0.32493 -0.69320 253 253 253
0.45277 -0.33009 -0.68748 252 252 253
0.45909 -0.33525 -0.68176 252 252 252
0.46540 -0.34041 -0.67606 252 252 252
0.47170 -0.34555 -0.67036 252 252 252
0.47800 -0.35070 -0.66466 252 252 252
0.48428 -0.35583 -0.65898 252 252 252
0.49056 -0.36096 -0.65330 252 252 252
0.49683 -0.36608 -0.64762 252 252 252
0.50310 -0.37120 -0.64196 252 252 252
0.50935 -0.37631 -0.63630 252 252 252
0.51560 -0.38142 -0.63065 252 252 252
0.52185 -0.38651 -0.62500 252 252 252
0.52808 -0.39161 -0.61936 252 252 252
0.53431 -0.39669 -0.61373 252 252 252
0.54053 -0.40177 -0.60810 252 252 252
0.54674 -0.40685 -0.60248 252 252 252
0.55294 -0.41192 -0.59687 252 252 252
0.55914 -0.41698 -0.59126 252 252 252
0.56533 -0.42204 -0.58566 252 252 252
0.57152 -0.42709 -0.58007 252 252 252
0.57769 -0.43213 -0.57448 252 252 252
0.58386 -0.43717 -0.56890 253 253 252
0.59002 -0.44220 -0.56333 246 243 233
0.39235 -0.29904 -0.72613 253 253 254
0.39871 -0.30422 -0.72039 253 253 253
0.40506 -0.30940 -0.71465 253 253 253
0.41140 -0.31457 -0.70893 253 253 253
0.41773 -0.31973 -0.70321 253 253 253
0.42406 -0.32489 -0.69750 253 253 253
0.43038 -0.33004 -0.69179 252 252 253
0.43669 -0.33518 -0.68609 252 252 252
0.44299 -0.34032 -0.68040 252 252 252
0.44929 -0.34545 -0.67471 252 252 252
0.45558 -0.35058 -0.66904 252 252 252
0.46186 -0.35570 -0.66336 252 252 252
0.46813 -0.36081 -0.65770 252 252 252
0.47440 -0.36592 -0.65204 252 252 252
0.48066 -0.37102 -0.64639 252 252 252
0.48691 -0.37612 -0.64074 252 252 252
0.49315 -0.38121 -0.63510 252 252 252
0.49939 -0.38629 -0.62947 252 252 252
0.50562 -0.39137 -0.62385 252 252 252
0.51184 -0.39644 -0.61823 252 252 252
0.51805 -0.40151 -0.61262 252 252 252
0.52426 -0.40657 -0.60701 252 252 252
0.53046 -0.41162 -0.60141 252 252 252
0.53665 -0.41667 -0.59582 252 252 252
0.54283 -0.42171 -0.59024 252 252 252
0.54901 -0.42674 -0.58466 252 252 252
0.55518 -0.43177 -0.57909 252 252 252
0.56135 -0.43680 -0.57352 252 252 252
0.56750 -0.44182 -0.56796 252 252 252
0.57365 -0.44683 -0.56241 253 252 251
0.57979 -0.45183 -0.55686 237 231 222
0.35103 -0.28355 -0.74754 254 254 254
0.35740 -0.28873 -0.74180 254 254 254
0.36377 -0.29391 -0.73606 254 254 254
0.37013 -0.29908 -0.73033 253 254 254
0.37648 -0.30425 -0.72460 253 253 254
0.38282 -0.30941 -0.71888 253 253 253
0.38916 -0.31456 -0.71317 253 253 253
0.39548 -0.31971 -0.70747 253 253 253
0.40180 -0.32485 -0.70177 253 253 253
0.40812 -0.32999 -0.69608 253 253 253
0.41442 -0.33511 -0.69039 252 252 253
0.42072 -0.34024 -0.68472 252 252 252
0.42701 -0.34535 -0.67904 252 252 252
0.43329 -0.35046 -0.67338 252 252 252
0.43957 -0.35557 -0.66772 252 252 252
0.44583 -0.36067 -0.66207 252 252 252
0.45209 -0.36576 -0.65643 252 252 252
0.45835 -0.37085 -0.65079 252 252 252
0.46459 -0.37593 -0.64516 252 252 252
0.47083 -0.38100 -0.63954 252 252 252
0.47706 -0.38607 -0.63392 252 252 252
0.48329 -0.39113 -0.62831 252 252 252
0.48950 -0.39619 -0.62270 252 252 252
0.49571 -0.40124 -0.61711 252 252 252
0.50191 -0.40628 -0.61152 252 252 252
0.50811 -0.41132 -0.60593 252 252 252
0.51429 -0.41635 -0.60035 252 252 252
0.52047 -0.42138 -0.59478 252 252 252
0.52664 -0.42640 -0.58922 252 252 252
0.53281 -0.43142 -0.58366 252 252 252
0.53897 -0.43643 -0.57811 252 252 252
0.54512 -0.44143 -0.57256 252 252 252
0.55126 -0.44643 -0.56702 252 252 252
0.56353 -0.45640 -0.55597 251 249 248
0.33533 -0.28881 -0.74594 254 254 254
0.34168 -0.29397 -0.74022 254 254 254
0.34804 -0.29912 -0.73450 254 254 254
0.35438 -0.30427 -0.72879 253 254 254
0.36072 -0.30942 -0.72309 253 253 253
0.36705 -0.31456 -0.71739 253 253 253
0.37337 -0.31969 -0.71170 253 253 253
0.37968 -0.32481 -0.70602 253 253 253
0.38599 -0.32993 -0.70034 253 253 253
0.39229 -0.33505 -0.69467 252 252 253
0.39858 -0.34015 -0.68901 252 252 252
0.40486 -0.34525 -0.68335 252 252 252
0.41114 -0.35035 -0.67770 252 252 252
0.41741 -0.35544 -0.67206 252 252 252
0.42367 -0.36052 -0.66642 252 252 252
0.42993 -0.36560 -0.66079 252 252 252
0.43617 -0.37067 -0.65517 252 252 252
0.44241 -0.37574 -0.64955 252 252 252
0.44865 -0.38080 -0.64394 252 252 252
0.45487 -0.38585 -0.63834 252 252 252
0.46109 -0.39090 -0.63274 252 252 252
0.46730 -0.39594 -0.62715 252 252 252
0.47350 -0.40097 -0.62157 252 252 252
0.47970 -0.40600 -0.61599 252 251 252
0.48589 -0.41103 -0.61042 252 251 251
0.49207 -0.41604 -0.60486 252 251 252
0.49824 -0.42106 -0.59930 252 251 252
0.50441 -0.42606 -0.59375 252 251 252
0.51057 -0.43106 -0.58821 252 251 252
0.51672 -0.43606 -0.58267 252 251 252
0.52287 -0.44105 -0.57714 252 251 252
0.52901 -0.44603 -0.57161 252 251 252
0.53514 -0.45101 -0.56609 252 251 252
0.54126 -0.45598 -0.56058 252 251 252
0.55349 -0.46590 -0.54958 246 243 241
0.32608 -0.29916 -0.73865 254 254 254
0.33242 -0.30430 -0.73295 254 254 254
0.33875 -0.30943 -0.72726 253 254 254
0.34507 -0.31455 -0.72158 253 253 253
0.35139 -0.31967 -0.71591 253 253 253
0.35769 -0.32478 -0.71024 253 253 253
0.36399 -0.32988 -0.70457 253 253 253
0.37029 -0.33498 -0.69892 253 253 253
0.37657 -0.34007 -0.69327 252 252 253
0.38285 -0.34516 -0.68763 252 252 252
0.38912 -0.35024 -0.68199 252 252 252
0.39539 -0.35531 -0.67637 252 252 252
0.40164 -0.36038 -0.67074 252 252 252
0.40789 -0.36544 -0.66513 252 252 252
0.41413 -0.37050 -0.65952 252 252 252
0.42037 -0.37555 -0.65392 252 252 252
0.42659 -0.38059 -0.64832 252 252 252
0.43281 -0.38563 -0.64273 252 252 252
0.43903 -0.39066 -0.63715 252 252 252
0.44523 -0.39569 -0.63157 252 252 252
0.45143 -0.40071 -0.62600 252 251 252
0.45762 -0.40572 -0.62044 252 251 252
0.46380 -0.41073 -0.61489 252 251 251
0.46998 -0.41574 -0.60934 252 251 251
0.47615 -0.42073 -0.60379 252 251 251
0.48231 -0.42572 -0.59826 252 251 251
0.48846 -0.43071 -0.59272 252 251 251
0.49461 -0.43569 -0.58720 252 251 251
0.50075 -0.44066 -0.58168 252 251 251
0.50688 -0.44563 -0.57617 252 251 251
0.51301 -0.45059 -0.57067 252 251 251
0.51913 -0.45555 -0.56517 252 251 251
0.52524 -0.46050 -0.55968 252 251 251
0.53134 -0.46545 -0.55419 252 251 251
0.54353 -0.47532 -0.54324 240 237 231
0.31691 -0.30944 -0.73141 254 254 254
0.32323 -0.31454 -0.72575 253 254 254
0.32953 -0.31964 -0.72009 253 253 253
0.33584 -0.32474 -0.71443 253 253 253
0.34213 -0.32983 -0.70878 253 253 253
0.34842 -0.33491 -0.70314 253 253 253
0.35470 -0.33999 -0.69751 253 253 253
0.36097 -0.34506 -0.69188 252 252 252
0.36724 -0.35012 -0.68626 252 252 252
0.37349 -0.35518 -0.68065 252 252 252
0.37974 -0.36023 -0.67504 252 252 252
0.38599 -0.36528 -0.66944 252 252 252
0.39222 -0.37032 -0.66384 252 252 252
0.39845 -0.37536 -0.65826 252 252 252
0.40467 -0.38039 -0.65267 252 252 252
0.41089 -0.38541 -0.64710 252 252 252
0.41709 -0.39043 -0.64153 252 252 252
0.42329 -0.39544 -0.63597 252 251 252
0.42948 -0.40045 -0.63041 252 251 252
0.43567 -0.40545 -0.62487 252 251 251
0.44185 -0.41044 -0.61932 252 251 251
0.44802 -0.41543 -0.61379 252 251 251
0.45418 -0.42041 -0.60826 252 251 251
0.46034 -0.42539 -0.60273 252 250 251
0.46649 -0.43036 -0.59722 252 250 251
0.47263 -0.43532 -0.59171 252 250 251
0.47876 -0.44028 -0.58620 252 250 251
0.48489 -0.44524 -0.58071 252 250 251
0.49101 -0.45019 -0.57522 252 250 251
0.49712 -0.45513 -0.56973 252 250 251
0.50323 -0.46006 -0.56425 252 250 251
0.50933 -0.46500 -0.55878 252 250 251
0.51542 -0.46992 -0.55331 252 250 251
0.52151 -0.47484 -0.54786 252 251 251
0.53365 -0.48466 -0.53696 233 220 202
0.30782 -0.31962 -0.72424 254 254 254
0.31411 -0.32470 -0.71860 253 253 253
0.32040 -0.32978 -0.71297 253 253 253
0.32668 -0.33484 -0.70734 253 253 253
0.33295 -0.33990 -0.70172 253 253 253
0.33922 -0.34496 -0.69611 252 252 253
0.34548 -0.35001 -0.69050 252 252 252
0.35173 -0.35505 -0.68490 252 252 252
0.35798 -0.36009 -0.67931 252 252 252
0.36421 -0.36512 -0.67372 252 252 252
0.37044 -0.37015 -0.66814 252 252 252
0.37667 -0.37517 -0.66257 252 252 252
0.38288 -0.38019 -0.65700 252 252 252
0.38909 -0.38519 -0.65144 252 252 252
0.39529 -0.39020 -0.64589 252 252 252
0.40148 -0.39519 -0.64034 252 251 252
0.40767 -0.40019 -0.63480 252 251 251
0.41385 -0.40517 -0.62926 252 251 251
0.42002 -0.41015 -0.62373 252 251 251
0.42619 -0.41512 -0.61821 252 251 251
0.43234 -0.42009 -0.61270 252 250 251
0.43849 -0.42505 -0.60719 252 250 251
0.44464 -0.43001 -0.60168 252 250 251
0.45077 -0.43496 -0.59619 252 250 251
0.45690 -0.43991 -0.59070 252 250 251
0.46303 -0.44485 -0.58521 252 250 251
0.46914 -0.44978 -0.57974 252 250 251
0.47525 -0.45471 -0.57426 252 250 251
0.48135 -0.45963 -0.56880 252 250 251
0.48744 -0.46455 -0.56334 252 250 251
0.49353 -0.46946 -0.55789 252 250 251
0.49961 -0.47436 -0.55244 252 250 251
0.50568 -0.47926 -0.54700 252 250 251
0.51175 -0.48416 -0.54157 252 250 252
0.52386 -0.49393 -0.53072 223 216 195
0.58997 -0.54727 -0.47150 141 142 171
0.29880 -0.32972 -0.71713 253 253 254
0.30507 -0.33478 -0.71152 253 253 253
0.31134 -0.33982 -0.70591 253 253 253
0.31760 -0.34486 -0.70031 253 253 253
0.32385 -0.34990 -0.69472 252 253 253
0.33010 -0.35493 -0.68914 252 252 252
0.33634 -0.35995 -0.68356 252 252 252
0.34257 -0.36497 -0.67798 252 252 252
0.34879 -0.36998 -0.67242 252 252 252
0.35501 -0.37499 -0.66686 252 252 252
0.36122 -0.37999 -0.66130 252 252 252
0.36742 -0.38498 -0.65576 252 252 252
0.37362 -0.38997 -0.65022 252 252 252
0.37981 -0.39495 -0.64468 252 252 252
0.38599 -0.39993 -0.63916 252 251 252
0.39216 -0.40490 -0.63363 252 251 251
0.39833 -0.40986 -0.62812 252 251 251
0.40449 -0.41482 -0.62261 252 251 251
0.41064 -0.41978 -0.61711 252 250 251
0.41678 -0.42472 -0.61161 252 250 251
0.42292 -0.42967 -0.60612 252 250 251
0.42905 -0.43460 -0.60064 252 250 251
0.43517 -0.43953 -0.59516 252 250 251
0.44129 -0.44446 -0.58969 251 250 251
0.44740 -0.44938 -0.58423 251 250 251
0.45350 -0.45429 -0.57877 251 250 251
0.45960 -0.45920 -0.57332 251 250 251
0.46569 -0.46410 -0.56788 251 250 251
0.47177 -0.46900 -0.56244 251 250 251
0.47784 -0.47389 -0.55700 251 250 251
0.48391 -0.47877 -0.55158 251 250 251
0.48997 -0.48365 -0.54616 251 250 251
0.49602 -0.48853 -0.54074 251 250 251
0.50207 -0.49340 -0.53534 252 250 252
0.52017 -0.50797 -0.51915 218 203 177
0.52619 -0.51281 -0.51377 210 203 171
0.53220 -0.51766 -0.50839 207 202 153
0.53821 -0.52249 -0.50302 205 201 153
0.54420 -0.52732 -0.49766 202 197 160
0.55019 -0.53214 -0.49230 200 194 163
0.55618 -0.53696 -0.48695 198 191 150
0.56216 -0.54178 -0.48160 196 188 152
0.28359 -0.33471 -0.71567 253 254 254
0.28985 -0.33974 -0.71008 253 253 253
0.29611 -0.34477 -0.70449 253 253 253
0.30236 -0.34979 -0.69891 253 253 253
0.30860 -0.35480 -0.69334 253 253 253
0.31483 -0.35981 -0.68778 252 252 252
0.32105 -0.36481 -0.68222 252 252 252
0.32727 -0.36981 -0.67667 252 252 252
0.33348 -0.37480 -0.67112 252 252 252
0.33969 -0.37979 -0.66558 252 252 252
0.34588 -0.38477 -0.66005 252 252 252
0.35207 -0.38974 -0.65452 252 252 252
0.35825 -0.39471 -0.64900 252 252 252
0.36443 -0.39967 -0.64349 252 252 252
0.37060 -0.40462 -0.63798 252 251 251
0.37676 -0.40958 -0.63248 252 251 251
0.38291 -0.41452 -0.62698 252 251 251
0.38906 -0.41946 -0.62150 252 251 251
0.39520 -0.42439 -0.61601 252 250 251
0.40133 -0.42932 -0.61054 252 250 251
0.40745 -0.43424 -0.60507 252 250 251
0.41357 -0.43916 -0.59960 252 250 251
0.41968 -0.44407 -0.59415 251 250 251
0.42579 -0.44898 -0.58870 251 250 251
0.43189 -0.45387 -0.58325 251 250 251
0.43797 -0.45877 -0.57781 251 250 251
0.44406 -0.46366 -0.57238 251 250 251
0.45013 -0.46854 -0.56696 251 250 251
0.45620 -0.47342 -0.56154 251 250 251
0.46227 -0.47829 -0.55613 251 250 251
0.46832 -0.48315 -0.55072 251 250 251
0.47437 -0.48801 -0.54532 251 250 251
0.48041 -0.49287 -0.53992 251 250 251
0.48644 -0.49772 -0.53453 251 250 251
0.26849 -0.33966 -0.71422 254 254 254
0.27474 -0.34467 -0.70865 253 253 253
0.28098 -0.34968 -0.70308 253 253 253
0.28722 -0.35468 -0.69752 253 253 253
0.29344 -0.35967 -0.69197 253 253 253
0.29966 -0.36466 -0.68643 253 253 253
0.30588 -0.36964 -0.68089 252 252 252
0.31208 -0.37462 -0.67536 252 252 252
0.31828 -0.37959 -0.66983 252 252 252
0.32447 -0.38455 -0.66431 252 252 252
0.33065 -0.38951 -0.65880 252 252 252
0.33683 -0.39446 -0.65329 252 252 252
0.34300 -0.39941 -0.64779 252 252 252
0.34916 -0.40435 -0.64230 252 252 252
0.35532 -0.40929 -0.63681 252 251 251
0.36146 -0.41422 -0.63133 252 251 251
0.36760 -0.41915 -0.62586 252 251 251
0.37374 -0.42407 -0.62039 252 250 251
0.37986 -0.42898 -0.61493 252 250 251
0.38598 -0.43389 -0.60947 252 250 251
0.39210 -0.43879 -0.60402 252 250 251
0.39820 -0.44369 -0.59858 252 250 251
0.40430 -0.44858 -0.59314 251 250 251
0.41039 -0.45346 -0.58771 251 250 251
0.41648 -0.45834 -0.58228 251 250 251
0.42256 -0.46322 -0.57686 251 250 251
0.42863 -0.46808 -0.57145 251 250 251
0.43469 -0.47295 -0.56605 251 250 251
0.44075 -0.47781 -0.56065 251 250 251
0.44680 -0.48266 -0.55525 251 250 251
0.45284 -0.48750 -0.54987 251 250 251
0.45888 -0.49234 -0.54448 251 250 250
0.46490 -0.49718 -0.53911 251 250 250
0.47093 -0.50201 -0.53374 251 250 251
0.47694 -0.50683 -0.52838 251 250 251
0.24726 -0.33958 -0.71833 254 254 254
0.25350 -0.34458 -0.71277 254 254 254
0.25974 -0.34957 -0.70722 253 253 254
0.26597 -0.35455 -0.70168 253 253 253
0.27219 -0.35953 -0.69614 253 253 253
0.27840 -0.36450 -0.69061 253 253 253
0.28461 -0.36947 -0.68509 253 253 253
0.29081 -0.37443 -0.67957 252 253 253
0.29700 -0.37939 -0.67406 252 252 252
0.30318 -0.38434 -0.66855 252 252 252
0.30936 -0.38929 -0.66305 252 252 252
0.31553 -0.39422 -0.65756 252 252 252
0.32169 -0.39916 -0.65207 252 252 252
0.32785 -0.40409 -0.64659 252 252 252
0.33400 -0.40901 -0.64112 252 252 252
0.34014 -0.41392 -0.63565 252 251 251
0.34628 -0.41883 -0.63019 252 251 251
0.35240 -0.42374 -0.62474 252 251 251
0.35853 -0.42864 -0.61929 252 250 251
0.36464 -0.43353 -0.61384 252 250 251
0.37075 -0.43842 -0.60841 252 250 251
0.37685 -0.44330 -0.60298 251 250 251
0.38294 -0.44818 -0.59755 251 250 251
0.38903 -0.45305 -0.59214 251 250 251
0.39511 -0.45792 -0.58673 251 250 251
0.40118 -0.46278 -0.58132 251 250 251
0.40724 -0.46763 -0.57592 251 250 251
0.41330 -0.47248 -0.57053 251 250 251
0.23239 -0.34448 -0.71688 254 254 254
0.23862 -0.34946 -0.71134 254 254 254
0.24484 -0.35443 -0.70581 253 254 254
0.25105 -0.35939 -0.70029 253 253 253
0.25726 -0.36435 -0.69477 253 253 253
0.26346 -0.36931 -0.68926 253 253 253
0.26965 -0.37425 -0.68376 253 253 253
0.27584 -0.37919 -0.67826 252 253 253
0.28202 -0.38413 -0.67277 252 252 252
0.28819 -0.38906 -0.66728 252 252 252
0.29436 -0.39399 -0.66180 252 252 252
0.30051 -0.39890 -0.65633 252 252 252
0.30666 -0.40382 -0.65086 252 252 252
0.31281 -0.40873 -0.64540 252 252 252
0.31894 -0.41363 -0.63995 252 252 252
0.32507 -0.41852 -0.63450 252 251 251
0.33120 -0.42341 -0.62906 252 251 251
0.33731 -0.42830 -0.62362 252 251 251
0.34342 -0.43318 -0.61820 252 250 251
0.34952 -0.43805 -0.61277 252 250 251
0.35562 -0.44292 -0.60736 251 250 251
0.36170 -0.44779 -0.60194 251 250 251
0.36778 -0.45264 -0.59654 251 250 251
0.37386 -0.45750 -0.59114 251 250 251
0.37992 -0.46234 -0.58575 251 250 251
0.38598 -0.46718 -0.58036 251 250 251
0.39204 -0.47202 -0.57498 251 250 250
0.39808 -0.47685 -0.56961 251 250 250
0.21140 -0.34439 -0.72096 254 254 254
0.21762 -0.34935 -0.71544 254 254 254
0.22384 -0.35431 -0.70992 254 254 254
0.23005 -0.35926 -0.70441 254 254 254
0.23625 -0.36420 -0.69891 253 253 253
0.24244 -0.36914 -0.69341 253 253 253
0.24863 -0.37407 -0.68792 253 253 253
0.25481 -0.37900 -0.68244 253 253 253
0.26098 -0.38392 -0.67696 253 253 253
0.26715 -0.38884 -0.67149 252 252 252
0.27330 -0.39375 -0.66602 252 252 252
0.27946 -0.39865 -0.66056 252 252 252
0.28560 -0.40355 -0.65511 252 252 252
0.29174 -0.40845 -0.64966 252 252 252
0.29787 -0.41333 -0.64422 252 252 252
0.30399 -0.41822 -0.63879 252 252 252
0.31011 -0.42309 -0.63336 252 251 251
0.31622 -0.42796 -0.62794 252 251 251
0.32232 -0.43283 -0.62252 252 251 251
0.32842 -0.43769 -0.61711 252 250 251
0.33451 -0.44254 -0.61171 252 250 251
0.34059 -0.44739 -0.60631 251 250 251
0.34666 -0.45224 -0.60092 251 250 251
0.35273 -0.45708 -0.59553 251 250 251
0.35879 -0.46191 -0.59015 251 250 251
0.36485 -0.46674 -0.58478 251 250 251
0.37089 -0.47156 -0.57941 251 250 250
0.37693 -0.47637 -0.57405 251 250 250
0.38297 -0.48118 -0.56870 251 250 250
0.38900 -0.48599 -0.56335 251 250 251
0.18431 -0.33934 -0.73053 254 254 254
0.19053 -0.34430 -0.72502 254 254 254
0.19675 -0.34924 -0.71951 254 254 254
0.20296 -0.35418 -0.71401 254 254 254
0.20916 -0.35912 -0.70851 254 254 254
0.21535 -0.36405 -0.70302 254 254 254
0.22154 -0.36897 -0.69754 253 253 254
0.22772 -0.37389 -0.69206 253 253 253
0.23390 -0.37881 -0.68659 253 253 253
0.24006 -0.38371 -0.68112 253 253 253
0.24622 -0.38861 -0.67567 253 253 253
0.25238 -0.39351 -0.67021 252 252 253
0.25852 -0.39840 -0.66477 252 252 252
0.26466 -0.40329 -0.65933 252 252 252
0.27079 -0.40817 -0.65389 252 252 252
0.27692 -0.41304 -0.64847 252 252 252
0.28303 -0.41791 -0.64305 252 252 252
0.28915 -0.42277 -0.63763 252 252 252
0.29525 -0.42763 -0.63222 252 251 251
0.30135 -0.43248 -0.62682 252 251 251
0.30744 -0.43733 -0.62142 252 251 251
0.31352 -0.44217 -0.61603 252 250 251
0.31960 -0.44700 -0.61065 252 250 251
0.32567 -0.45183 -0.60527 251 250 251
0.33173 -0.45666 -0.59990 251 250 251
0.33778 -0.46148 -0.59453 251 250 251
0.34383 -0.46629 -0.58917 251 250 251
0.34987 -0.47110 -0.58382 251 250 250
0.35591 -0.47590 -0.57847 251 250 250
0.36194 -0.48070 -0.57313 251 250 250
0.36796 -0.48549 -0.56779 251 250 251
0.37397 -0.49028 -0.56246 251 250 251
0.37998 -0.49506 -0.55714 251 250 251
0.16978 -0.34420 -0.72905 254 254 254
0.17599 -0.34913 -0.72355 254 254 254
0.18220 -0.35406 -0.71807 254 254 254
0.18839 -0.35898 -0.71258 254 254 254
0.19458 -0.36390 -0.70711 254 254 254
0.20076 -0.36881 -0.70164 254 254 254
0.20694 -0.37371 -0.69617 253 254 254
0.21311 -0.37861 -0.69072 253 253 253
0.21927 -0.38351 -0.68527 253 253 253
0.22542 -0.38839 -0.67982 253 253 253
0.23157 -0.39328 -0.67438 253 253 253
0.23771 -0.39815 -0.66895 252 253 253
0.24384 -0.40302 -0.66352 252 252 252
0.24997 -0.40789 -0.65810 252 252 252
0.25609 -0.41275 -0.65269 252 252 252
0.26220 -0.41760 -0.64728 252 252 252
0.28658 -0.43697 -0.62571 252 250 250
0.29265 -0.44180 -0.62033 252 251 251
0.29872 -0.44662 -0.61496 252 251 251
0.30479 -0.45143 -0.60960 252 250 251
0.31084 -0.45624 -0.60424 251 250 251
0.31689 -0.46105 -0.59889 251 250 251
0.32294 -0.46585 -0.59354 251 250 251
0.32897 -0.47064 -0.58820 251 250 251
0.33500 -0.47543 -0.58286 251 250 250
0.34103 -0.48022 -0.57753 251 250 250
0.34704 -0.48499 -0.57221 251 250 251
0.35305 -0.48977 -0.56689 251 250 251
0.35905 -0.49454 -0.56158 251 250 251
0.36505 -0.49930 -0.55628 251 250 251
0.15536 -0.34903 -0.72758 254 254 254
0.16156 -0.35394 -0.72210 254 254 254
0.16775 -0.35885 -0.71663 254 254 254
0.17393 -0.36375 -0.71117 254 254 254
0.18011 -0.36865 -0.70572 254 254 254
0.18628 -0.37354 -0.70027 254 254 254
0.19244 -0.37842 -0.69482 254 254 254
0.19859 -0.38330 -0.68938 253 253 253
0.20474 -0.38817 -0.68395 253 253 253
0.21088 -0.39304 -0.67853 253 253 253
0.21702 -0.39791 -0.67311 253 253 253
0.22314 -0.40276 -0.66770 253 253 253
0.22926 -0.40761 -0.66229 252 252 252
0.23537 -0.41246 -0.65689 252 252 252
0.24148 -0.41730 -0.65149 252 252 252
0.24758 -0.42214 -0.64610 252 252 252
0.28403 -0.45103 -0.61390 252 251 252
0.29008 -0.45583 -0.60855 252 250 251
0.29613 -0.46062 -0.60321 251 250 251
0.30216 -0.46541 -0.59788 251 250 251
0.30819 -0.47019 -0.59255 251 250 251
0.31422 -0.47497 -0.58723 251 250 251
0.32024 -0.47974 -0.58191 251 250 251
0.32625 -0.48450 -0.57660 251 250 251
0.33225 -0.48926 -0.57130 251 250 251
0.33825 -0.49402 -0.56600 251 250 251
0.34424 -0.49876 -0.56071 251 250 251
0.35022 -0.50351 -0.55542 251 250 251
0.13485 -0.34892 -0.73158 254 254 254
0.14104 -0.35382 -0.72612 254 254 254
0.14722 -0.35871 -0.72066 254 254 254
0.15340 -0.36360 -0.71521 254 254 254
0.15957 -0.36848 -0.70977 254 254 254
0.16573 -0.37336 -0.70433 254 254 254
0.17189 -0.37823 -0.69890 254 254 254
0.17804 -0.38310 -0.69348 254 254 254
0.18418 -0.38796 -0.68806 253 253 253
0.19031 -0.39281 -0.68265 253 253 253
0.19644 -0.39766 -0.67724 253 253 253
0.20256 -0.40250 -0.67184 253 253 253
0.20868 -0.40734 -0.66645 253 253 253
0.21478 -0.41217 -0.66106 252 253 253
0.22088 -0.41700 -0.65568 252 252 252
0.22698 -0.42182 -0.65030 252 252 252
0.23306 -0.42664 -0.64494 252 252 252
0.27548 -0.46020 -0.60752 252 251 251
0.28151 -0.46497 -0.60220 251 250 251
0.28753 -0.46974 -0.59688 251 250 251
0.29355 -0.47450 -0.59157 251 250 251
0.29956 -0.47926 -0.58627 251 250 251
0.30557 -0.48401 -0.58097 251 250 251
0.31157 -0.48876 -0.57568 251 250 251
0.31756 -0.49350 -0.57039 251 250 251
0.32354 -0.49823 -0.56511 251 250 251
0.32952 -0.50296 -0.55984 251 250 251
0.33549 -0.50769 -0.55457 251 250 251
0.09586 -0.33413 -0.75194 254 254 254
0.10207 -0.33903 -0.74647 254 254 254
0.10826 -0.34393 -0.74101 254 254 254
0.11446 -0.34882 -0.73556 254 254 254
0.12064 -0.35370 -0.73011 254 254 254
0.12682 -0.35858 -0.72467 254 254 254
0.13299 -0.36345 -0.71923 254 254 254
0.13915 -0.36832 -0.71380 254 254 254
0.14531 -0.37318 -0.70838 254 254 254
0.15146 -0.37804 -0.70296 254 254 254
0.15760 -0.38289 -0.69755 254 254 254
0.16373 -0.38774 -0.69214 254 254 254
0.16986 -0.39258 -0.68675 254 254 254
0.17598 -0.39741 -0.68135 253 253 253
0.18210 -0.40224 -0.67597 253 253 253
0.18821 -0.40707 -0.67059 253 253 253
0.19431 -0.41189 -0.66521 253 253 253
0.20040 -0.41670 -0.65984 252 253 253
0.20649 -0.42151 -0.65448 252 252 252
0.21257 -0.42631 -0.64912 252 252 252
0.21864 -0.43111 -0.64377 252 252 252
0.22471 -0.43590 -0.63843 252 252 252
0.26699 -0.46929 -0.60119 251 250 251
0.27300 -0.47404 -0.59589 251 250 251
0.27901 -0.47879 -0.59060 251 250 251
0.28501 -0.48352 -0.58531 251 250 251
0.29100 -0.48826 -0.58004 251 250 251
0.29699 -0.49298 -0.57476 251 250 251
0.30296 -0.49771 -0.56950 251 250 251
0.30894 -0.50242 -0.56423 251 250 251
0.31490 -0.50714 -0.55898 251 250 251
0.02576 -0.29477 -0.79970 254 254 254
0.03201 -0.29970 -0.79419 254 254 254
0.03826 -0.30463 -0.78870 254 254 254
0.04450 -0.30955 -0.78321 254 254 254
0.05074 -0.31446 -0.77772 254 254 254
0.05696 -0.31937 -0.77225 254 254 254
0.06318 -0.32428 -0.76677 254 254 254
0.06940 -0.32917 -0.76131 254 254 254
0.07560 -0.33407 -0.75585 254 254 254
0.08180 -0.33895 -0.75040 254 254 254
0.08799 -0.34384 -0.74495 254 254 254
0.09418 -0.34871 -0.73951 254 254 254
0.10036 -0.35358 -0.73408 254 254 254
0.10653 -0.35845 -0.72865 254 254 254
0.11269 -0.36331 -0.72322 254 254 254
0.11885 -0.36816 -0.71781 254 254 254
0.12500 -0.37301 -0.71240 254 254 254
0.13114 -0.37785 -0.70699 254 254 254
0.13728 -0.38269 -0.70160 254 254 254
0.14341 -0.38752 -0.69621 254 254 254
0.14953 -0.39235 -0.69082 254 254 254
0.15565 -0.39717 -0.68544 254 254 254
0.16175 -0.40199 -0.68007 254 254 254
0.16786 -0.40680 -0.67470 253 253 253
0.17395 -0.41160 -0.66934 253 253 253
0.18004 -0.41640 -0.66398 253 253 253
0.18612 -0.42120 -0.65863 253 253 253
0.19220 -0.42599 -0.65329 252 252 252
0.19826 -0.43077 -0.64795 252 252 252
0.20432 -0.43555 -0.64262 252 252 252
0.21038 -0.44032 -0.63730 252 252 252
0.25257 -0.47358 -0.60018 252 251 252
0.25857 -0.47831 -0.59490 251 250 251
0.26456 -0.48304 -0.58963 251 250 251
0.27055 -0.48776 -0.58437 251 250 251
0.27653 -0.49247 -0.57911 251 250 251
0.28250 -0.49718 -0.57385 251 250 251
0.28847 -0.50189 -0.56860 251 250 251
0.29443 -0.50659 -0.56336 251 250 251
0.30039 -0.51128 -0.55812 251 250 251
0.01192 -0.29974 -0.79799 254 252 251
0.01816 -0.30465 -0.79251 254 254 253
0.02439 -0.30956 -0.78703 254 254 254
0.03062 -0.31446 -0.78156 254 254 254
0.03684 -0.31935 -0.77610 254 254 254
0.04305 -0.32424 -0.77064 254 254 254
0.04926 -0.32913 -0.76519 254 254 254
0.05546 -0.33401 -0.75974 254 254 254
0.06165 -0.33888 -0.75430 254 254 254
0.06784 -0.34375 -0.74887 254 254 254
0.07402 -0.34861 -0.74344 254 254 254
0.08019 -0.35346 -0.73802 254 254 254
0.08635 -0.35832 -0.73260 254 254 254
0.09251 -0.36316 -0.72720 254 254 254
0.09866 -0.36800 -0.72179 254 254 254
0.10481 -0.37284 -0.71640 254 254 254
0.11094 -0.37767 -0.71101 254 254 254
0.11707 -0.38249 -0.70562 254 254 254
0.12320 -0.38731 -0.70024 254 254 254
0.12931 -0.39212 -0.69487 254 254 254
0.13542 -0.39693 -0.68950 254 254 254
0.14153 -0.40173 -0.68414 254 254 254
0.14762 -0.40653 -0.67879 254 254 254
0.15371 -0.41132 -0.67344 253 254 254
0.15979 -0.41611 -0.66810 253 253 253
0.16587 -0.42089 -0.66276 253 253 253
0.17194 -0.42566 -0.65743 253 253 253
0.17800 -0.43043 -0.65211 252 253 253
0.18405 -0.43520 -0.64679 252 252 252
0.19010 -0.43996 -0.64148 252 252 252
0.19614 -0.44471 -0.63617 252 252 252
0.24423 -0.48256 -0.59393 251 250 251
0.25022 -0.48726 -0.58867 251 250 251
0.25619 -0.49197 -0.58342 251 250 251
0.26216 -0.49666 -0.57818 251 250 251
0.26812 -0.50135 -0.57295 251 250 251
0.27407 -0.50604 -0.56771 251 250 251
0.00440 -0.30956 -0.79083 254 253 250
0.01062 -0.31445 -0.78537 254 254 254
0.01683 -0.31933 -0.77992 254 254 254
0.02304 -0.32421 -0.77448 254 254 254
0.02924 -0.32908 -0.76904 254 254 254
0.03544 -0.33394 -0.76361 254 254 254
0.04162 -0.33880 -0.75818 254 254 254
0.04780 -0.34366 -0.75276 254 254 254
0.05397 -0.34850 -0.74735 254 254 254
0.06014 -0.35335 -0.74194 254 254 254
0.06630 -0.35818 -0.73654 254 254 254
0.07245 -0.36302 -0.73114 254 254 254
0.07859 -0.36784 -0.72576 254 254 254
0.08473 -0.37266 -0.72037 254 254 254
0.09086 -0.37748 -0.71499 254 254 254
0.09698 -0.38229 -0.70962 254 254 254
0.10310 -0.38710 -0.70426 254 254 254
0.10921 -0.39190 -0.69890 254 254 254
0.11532 -0.39669 -0.69354 254 254 254
0.12141 -0.40148 -0.68820 254 254 254
0.12750 -0.40626 -0.68286 254 254 254
0.13358 -0.41104 -0.67752 254 254 254
0.13966 -0.41581 -0.67219 254 254 254
0.14573 -0.42058 -0.66687 253 254 254
0.15179 -0.42534 -0.66155 253 253 253
0.15785 -0.43010 -0.65624 253 253 253
0.16390 -0.43485 -0.65093 253 253 253
0.16994 -0.43960 -0.64563 252 252 252
0.17598 -0.44434 -0.64034 252 252 252
0.18200 -0.44907 -0.63505 252 252 252
0.23000 -0.48677 -0.59295 251 250 251
0.23597 -0.49146 -0.58772 251 250 251
0.24193 -0.49614 -0.58249 251 250 251
0.24788 -0.50082 -0.57726 251 250 251
0.25383 -0.50550 -0.57205 251 250 250
-0.00306 -0.31931 -0.78373 254 254 253
0.00314 -0.32417 -0.77830 254 254 254
0.00934 -0.32903 -0.77288 254 254 254
0.01552 -0.33388 -0.76746 254 254 254
0.02170 -0.33873 -0.76204 254 254 254
0.02788 -0.34357 -0.75664 254 254 254
0.03404 -0.34840 -0.75124 254 254 254
0.04020 -0.35323 -0.74584 254 254 254
0.04635 -0.35805 -0.74045 254 254 254
0.05250 -0.36287 -0.73507 254 254 254
0.05864 -0.36769 -0.72969 254 254 254
0.06477 -0.37249 -0.72432 254 254 254
0.07089 -0.37730 -0.71896 254 254 254
0.07701 -0.38209 -0.71360 254 254 254
0.08312 -0.38688 -0.70825 254 254 254
0.08922 -0.39167 -0.70290 254 254 254
0.09532 -0.39645 -0.69756 254 254 254
0.10141 -0.40123 -0.69223 254 254 254
0.10750 -0.40600 -0.68690 254 254 254
0.11357 -0.41076 -0.68158 254 254 254
0.11964 -0.41552 -0.67626 254 254 254
0.12571 -0.42027 -0.67095 254 254 254
0.13176 -0.42502 -0.66564 254 254 254
0.13781 -0.42977 -0.66034 253 253 253
0.14386 -0.43451 -0.65505 253 253 253
0.14989 -0.43924 -0.64976 253 253 253
0.15592 -0.44397 -0.64448 253 253 253
0.16194 -0.44869 -0.63921 252 252 252
0.16796 -0.45341 -0.63394 252 252 252
0.17397 -0.45812 -0.62867 252 252 252
0.22181 -0.49563 -0.58677 251 250 251
0.22776 -0.50029 -0.58156 251 250 251
0.23370 -0.50495 -0.57635 251 250 251
-0.01664 -0.32414 -0.78210 254 254 253
-0.01045 -0.32898 -0.77669 254 254 254
-0.00427 -0.33382 -0.77128 254 254 254
0.00190 -0.33865 -0.76588 254 254 254
0.00807 -0.34348 -0.76049 254 254 254
0.01422 -0.34830 -0.75510 254 254 254
0.02038 -0.35311 -0.74972 254 254 254
0.02652 -0.35792 -0.74434 254 254 254
0.03266 -0.36273 -0.73897 254 254 254
0.03879 -0.36753 -0.73361 254 254 254
0.04492 -0.37232 -0.72825 254 254 254
0.05104 -0.37711 -0.72290 254 254 254
0.05715 -0.38189 -0.71756 254 254 254
0.06325 -0.38667 -0.71222 254 254 254
0.06935 -0.39145 -0.70688 254 254 254
0.07544 -0.39621 -0.70156 254 254 254
0.08152 -0.40097 -0.69624 254 254 254
0.08760 -0.40573 -0.69092 254 254 254
0.09367 -0.41048 -0.68561 254 254 254
0.09974 -0.41523 -0.68031 254 254 254
0.10579 -0.41997 -0.67501 254 254 254
0.11184 -0.42471 -0.66972 254 254 254
0.11789 -0.42944 -0.66443 254 254 254
0.12393 -0.43416 -0.65915 254 254 254
0.12996 -0.43888 -0.65387 253 253 253
0.13598 -0.44360 -0.64860 253 253 253
0.14200 -0.44831 -0.64334 253 253 253
0.14801 -0.45301 -0.63808 252 253 253
0.15401 -0.45771 -0.63283 252 252 252
0.16001 -0.46240 -0.62759 252 252 252
0.20775 -0.49977 -0.58583 251 250 251
0.21369 -0.50442 -0.58064 251 250 251
-0.03013 -0.32894 -0.78048 254 254 254
-0.02396 -0.33376 -0.77508 254 254 254
-0.01779 -0.33858 -0.76970 254 254 254
-0.01163 -0.34339 -0.76432 254 254 254
-0.00548 -0.34820 -0.75894 254 254 254
0.00067 -0.35300 -0.75358 254 254 254
0.00680 -0.35780 -0.74821 254 254 254
0.01294 -0.36259 -0.74286 254 254 254
0.01906 -0.36737 -0.73751 254 254 254
0.02518 -0.37215 -0.73216 254 254 254
0.03129 -0.37693 -0.72682 254 254 254
0.03740 -0.38170 -0.72149 254 254 254
0.04350 -0.38646 -0.71616 254 254 254
0.04959 -0.39122 -0.71084 254 254 254
0.05567 -0.39598 -0.70553 254 254 254
0.06175 -0.40072 -0.70022 254 254 254
0.06782 -0.40547 -0.69492 254 254 254
0.07389 -0.41021 -0.68962 254 254 254
0.07994 -0.41494 -0.68433 254 254 254
0.08600 -0.41967 -0.67904 254 254 254
0.09204 -0.42439 -0.67376 254 254 254
0.09808 -0.42911 -0.66849 254 254 254
0.10411 -0.43382 -0.66322 254 254 254
0.11013 -0.43853 -0.65796 254 254 254
0.11615 -0.44323 -0.65270 254 254 254
0.12216 -0.44792 -0.64745 253 253 253
0.12817 -0.45262 -0.64221 253 253 253
0.13416 -0.45730 -0.63697 253 253 253
0.14016 -0.46198 -0.63174 252 252 252
0.14614 -0.46666 -0.62651 252 252 252
-0.04353 -0.33370 -0.77887 254 254 254
-0.03737 -0.33850 -0.77349 254 254 254
-0.03122 -0.34330 -0.76813 254 254 254
-0.02507 -0.34810 -0.76276 254 254 254
-0.01893 -0.35288 -0.75741 254 254 254
-0.01280 -0.35767 -0.75206 254 254 254
-0.00668 -0.36245 -0.74672 254 254 254
-0.00056 -0.36722 -0.74138 254 254 254
0.00556 -0.37198 -0.73605 254 254 254
0.01166 -0.37675 -0.73072 254 254 254
0.01776 -0.38150 -0.72540 254 254 254
0.02385 -0.38625 -0.72009 254 254 254
0.02994 -0.39100 -0.71478 254 254 254
0.03602 -0.39574 -0.70948 254 254 254
0.04209 -0.40048 -0.70418 254 254 254
0.04815 -0.40521 -0.69889 254 254 254
0.05421 -0.40993 -0.69361 254 254 254
0.06026 -0.41465 -0.68833 254 254 254
0.06631 -0.41937 -0.68306 254 254 254
0.07235 -0.42408 -0.67779 254 254 254
0.07838 -0.42878 -0.67253 254 254 254
0.08440 -0.43348 -0.66727 254 254 254
0.09042 -0.43817 -0.66202 254 254 254
0.09643 -0.44286 -0.65678 254 254 254
0.10244 -0.44755 -0.65154 254 254 254
0.10844 -0.45222 -0.64631 253 254 254
0.11443 -0.45690 -0.64108 253 253 253
0.12041 -0.46157 -0.63586 253 253 253
0.12639 -0.46623 -0.63065 253 253 253
0.13237 -0.47089 -0.62544 252 252 252
-0.05684 -0.33843 -0.77727 254 254 254
-0.05070 -0.34322 -0.77191 254 254 254
-0.04456 -0.34800 -0.76656 254 254 254
-0.03842 -0.35277 -0.76122 254 254 254
-0.03230 -0.35754 -0.75589 254 254 254
-0.02618 -0.36230 -0.75055 254 254 254
-0.02007 -0.36706 -0.74523 254 254 254
-0.01396 -0.37182 -0.73991 254 254 254
-0.00786 -0.37657 -0.73460 254 254 254
-0.00177 -0.38131 -0.72929 254 254 254
0.00432 -0.38605 -0.72399 254 254 254
0.01040 -0.39078 -0.71870 254 254 254
0.01647 -0.39551 -0.71341 254 254 254
0.02253 -0.40023 -0.70812 254 254 254
0.02859 -0.40495 -0.70285 254 254 254
0.03464 -0.40966 -0.69757 254 254 254
0.04069 -0.41437 -0.69231 254 254 254
0.04673 -0.41907 -0.68705 254 254 254
0.05276 -0.42376 -0.68179 254 254 254
0.05879 -0.42845 -0.67654 254 254 254
0.06481 -0.43314 -0.67130 254 254 254
0.07082 -0.43782 -0.66606 254 254 254
-0.07006 -0.34313 -0.77568 254 254 254
-0.06393 -0.34790 -0.77034 254 254 254
-0.05780 -0.35266 -0.76501 254 254 254
-0.05168 -0.35741 -0.75969 254 254 254
-0.04557 -0.36216 -0.75437 254 254 254
-0.03946 -0.36691 -0.74906 254 254 254
-0.03337 -0.37165 -0.74375 254 254 254
-0.02727 -0.37639 -0.73845 254 254 254
-0.02119 -0.38112 -0.73316 254 254 254
-0.01511 -0.38584 -0.72787 254 254 254
-0.00903 -0.39056 -0.72259 254 254 254
-0.00297 -0.39527 -0.71731 254 254 254
0.00309 -0.39998 -0.71204 254 254 254
0.00914 -0.40469 -0.70678 254 254 254
0.01519 -0.40939 -0.70152 254 254 254
0.02123 -0.41408 -0.69626 254 254 254
0.02726 -0.41877 -0.69102 254 254 254
0.03329 -0.42345 -0.68577 254 254 254
0.03931 -0.42813 -0.68054 254 254 254
0.04532 -0.43280 -0.67531 254 254 254
0.05133 -0.43747 -0.67008 254 254 254
0.05733 -0.44214 -0.66486 254 254 254
0.06332 -0.44679 -0.65965 254 254 254
-0.08932 -0.34304 -0.77942 254 254 254
-0.08319 -0.34780 -0.77410 254 254 254
-0.07707 -0.35254 -0.76878 254 254 254
-0.07096 -0.35729 -0.76347 254 254 254
-0.06486 -0.36202 -0.75817 254 254 254
-0.05876 -0.36676 -0.75287 254 254 254
-0.05266 -0.37148 -0.74757 254 254 254
-0.04658 -0.37621 -0.74229 254 254 254
-0.04050 -0.38092 -0.73701 254 254 254
-0.03442 -0.38564 -0.73173 254 254 254
-0.02836 -0.39034 -0.72646 254 254 254
-0.02230 -0.39504 -0.72120 254 254 254
-0.01625 -0.39974 -0.71594 254 254 254
-0.01020 -0.40443 -0.71069 254 254 254
-0.00416 -0.40912 -0.70544 254 254 254
0.00187 -0.41380 -0.70020 254 254 254
0.00790 -0.41847 -0.69496 254 254 254
0.01392 -0.42314 -0.68973 254 254 254
0.01993 -0.42781 -0.68451 254 254 254
0.02594 -0.43247 -0.67929 254 254 254
0.03194 -0.43713 -0.67408 254 254 254
0.03793 -0.44178 -0.66887 254 254 254
0.04392 -0.44642 -0.66367 254 254 254
0.04990 -0.45106 -0.65848 254 254 254
0.05588 -0.45570 -0.65329 254 254 254
-0.10235 -0.34770 -0.77783 254 254 254
-0.09624 -0.35243 -0.77253 254 254 254
-0.09013 -0.35716 -0.76723 254 254 254
-0.08403 -0.36189 -0.76194 254 254 254
-0.07794 -0.36661 -0.75665 254 254 254
-0.07185 -0.37132 -0.75137 254 254 254
-0.06577 -0.37603 -0.74610 254 254 254
-0.05970 -0.38073 -0.74083 254 254 254
-0.05363 -0.38543 -0.73557 254 254 254
-0.04757 -0.39013 -0.73031 254 254 254
-0.04152 -0.39481 -0.72506 254 254 254
-0.03547 -0.39950 -0.71981 254 254 254
-0.02943 -0.40418 -0.71457 254 254 254
-0.02340 -0.40885 -0.70934 254 254 254
-0.01737 -0.41352 -0.70411 254 254 254
-0.01135 -0.41818 -0.69889 254 254 254
-0.00534 -0.42284 -0.69367 254 254 254
0.00067 -0.42749 -0.68846 254 254 254
0.00667 -0.43214 -0.68325 254 254 254
0.01266 -0.43678 -0.67805 254 254 254
0.01865 -0.44142 -0.67286 254 254 254
0.02463 -0.44605 -0.66767 254 254 254
0.03061 -0.45068 -0.66249 254 254 254
0.03657 -0.45530 -0.65731 254 254 254
0.04254 -0.45992 -0.65214 254 254 254
0.04849 -0.46453 -0.64697 254 254 254
-0.12140 -0.34760 -0.78155 254 254 254
-0.11529 -0.35232 -0.77626 254 254 254
-0.10919 -0.35704 -0.77097 254 254 254
-0.10310 -0.36175 -0.76569 254 254 254
-0.09701 -0.36645 -0.76042 254 254 254
-0.09093 -0.37116 -0.75515 254 254 254
-0.08486 -0.37585 -0.74989 254 254 254
-0.07879 -0.38054 -0.74463 254 254 254
-0.07273 -0.38523 -0.73938 254 254 254
-0.06668 -0.38991 -0.73414 254 254 254
-0.06063 -0.39459 -0.72890 254 254 254
-0.05459 -0.39926 -0.72367 254 254 254
-0.04856 -0.40392 -0.71844 254 254 254
-0.04253 -0.40858 -0.71322 254 254 254
-0.03651 -0.41324 -0.70800 254 254 254
-0.03050 -0.41789 -0.70279 254 254 254
-0.02449 -0.42253 -0.69759 254 254 254
-0.01849 -0.42717 -0.69239 254 254 254
-0.01250 -0.43181 -0.68719 254 254 254
-0.00651 -0.43644 -0.68201 254 254 254
-0.00053 -0.44106 -0.67682 254 254 254
0.00545 -0.44568 -0.67165 254 254 254
0.01142 -0.45030 -0.66648 254 254 254
0.01738 -0.45491 -0.66131 254 254 254
0.02333 -0.45951 -0.65615 254 254 254
0.02928 -0.46411 -0.65100 254 254 254
0.03523 -0.46871 -0.64585 254 254 254
0.04116 -0.47330 -0.64070 254 254 254
-0.14034 -0.34750 -0.78524 254 254 254
-0.13424 -0.35221 -0.77996 254 254 254
-0.12815 -0.35691 -0.77469 254 254 254
-0.12206 -0.36161 -0.76943 254 254 254
-0.11598 -0.36630 -0.76416 254 254 254
-0.10991 -0.37099 -0.75891 254 254 254
-0.10384 -0.37568 -0.75366 254 254 254
-0.09778 -0.38035 -0.74842 254 254 254
-0.09173 -0.38503 -0.74318 254 254 254
-0.08568 -0.38970 -0.73795 254 254 254
-0.07964 -0.39436 -0.73272 254 254 254
-0.07361 -0.39902 -0.72750 254 254 254
-0.06758 -0.40367 -0.72228 254 254 254
-0.06156 -0.40832 -0.71707 254 254 254
-0.05555 -0.41296 -0.71187 254 254 254
-0.04954 -0.41760 -0.70667 254 254 254
-0.04354 -0.42223 -0.70148 254 254 254
-0.03754 -0.42686 -0.69629 254 254 254
-0.03156 -0.43148 -0.69111 254 254 254
-0.02557 -0.43610 -0.68594 254 254 254
-0.01960 -0.44071 -0.68077 254 254 254
-0.01363 -0.44532 -0.67560 254 254 254
-0.00767 -0.44992 -0.67044 254 254 254
-0.00171 -0.45452 -0.66529 254 254 254
0.00424 -0.45911 -0.66014 254 254 254
0.01018 -0.46370 -0.65500 254 254 254
0.01612 -0.46828 -0.64986 254 254 254
0.02205 -0.47286 -0.64473 254 254 254
0.02797 -0.47743 -0.63960 254 254 254
0.03389 -0.48200 -0.63448 254 254 254
-0.15918 -0.34740 -0.78892 254 254 254
-0.15309 -0.35210 -0.78365 254 254 254
-0.14700 -0.35679 -0.77839 254 254 254
-0.14092 -0.36148 -0.77314 254 254 254
-0.13485 -0.36616 -0.76789 254 254 254
-0.12878 -0.37083 -0.76265 254 254 254
-0.12272 -0.37550 -0.75741 254 254 254
-0.11667 -0.38017 -0.75218 254 254 254
-0.11062 -0.38483 -0.74695 254 254 254
-0.10458 -0.38948 -0.74173 254 254 254
-0.09855 -0.39413 -0.73652 254 254 254
-0.09252 -0.39878 -0.73131 254 254 254
-0.08650 -0.40342 -0.72611 254 254 254
-0.08048 -0.40805 -0.72091 254 254 254
-0.07448 -0.41268 -0.71572 254 254 254
-0.06848 -0.41731 -0.71053 254 254 254
-0.06248 -0.42193 -0.70535 254 254 254
-0.05649 -0.42654 -0.70018 254 254 254
