ply
format ascii 1.0
element face 0
property list uchar int vertex_indices
element vertex 1325
property float x
property float y
property float z
property uchar diffuse_red
property uchar diffuse_green
property uchar diffuse_blue
end_header
0.56331 -0.11649 -0.80556 42 44 51
0.57076 -0.12050 -0.80099 45 45 66
0.57820 -0.12450 -0.79642 50 55 60
0.58564 -0.12850 -0.79186 59 63 41
0.59308 -0.13250 -0.78730 77 75 42
0.60051 -0.13650 -0.78274 57 43 49
0.60793 -0.14049 -0.77818 45 41 50
0.61535 -0.14448 -0.77363 52 47 51
0.62276 -0.14847 -0.76908 57 77 86
0.63017 -0.15246 -0.76454 64 64 60
0.63757 -0.15644 -0.76000 40 45 48
0.64497 -0.16042 -0.75546 45 47 55
0.65236 -0.16440 -0.75092 67 75 68
0.65975 -0.16837 -0.74639 70 84 76
0.66713 -0.17234 -0.74186 58 54 56
0.67451 -0.17631 -0.73733 50 44 61
0.68188 -0.18028 -0.73281 61 67 77
0.68925 -0.18424 -0.72828 66 70 70
0.69661 -0.18820 -0.72377 58 62 62
0.70397 -0.19216 -0.71925 55 54 49
0.71132 -0.19612 -0.71474 48 47 41
0.71867 -0.20007 -0.71023 50 45 43
0.72601 -0.20402 -0.70573 38 33 40
0.73335 -0.20797 -0.70122 29 25 39
0.74068 -0.21191 -0.69673 32 22 53
0.74801 -0.21585 -0.69223 31 19 48
0.75533 -0.21979 -0.68774 32 19 30
0.76265 -0.22373 -0.68325 34 25 35
0.76996 -0.22766 -0.67876 42 31 40
0.77727 -0.23159 -0.67428 46 32 43
0.78457 -0.23552 -0.66979 43 29 48
0.79187 -0.23945 -0.66532 44 36 54
0.79916 -0.24337 -0.66084 48 46 58
0.80645 -0.24729 -0.65637 52 49 47
0.81373 -0.25121 -0.65190 54 51 39
0.82100 -0.25512 -0.64744 52 49 36
0.82828 -0.25903 -0.64297 43 39 35
0.83554 -0.26294 -0.63852 52 53 61
0.84281 -0.26685 -0.63406 69 71 76
0.85006 -0.27076 -0.62961 52 50 51
0.85732 -0.27466 -0.62515 43 44 48
0.86456 -0.27856 -0.62071 47 49 46
0.87181 -0.28245 -0.61626 53 52 43
0.87905 -0.28635 -0.61182 52 47 36
0.88628 -0.29024 -0.60738 43 39 35
0.89351 -0.29413 -0.60295 43 49 49
0.90073 -0.29801 -0.59852 62 71 72
0.90795 -0.30190 -0.59409 59 53 47
0.91516 -0.30578 -0.58966 45 44 35
0.92237 -0.30965 -0.58524 44 43 39
0.92957 -0.31353 -0.58082 58 52 55
0.93677 -0.31740 -0.57640 64 59 61
0.94396 -0.32127 -0.57199 55 50 59
0.95115 -0.32514 -0.56757 58 66 91
0.26716 0.02584 -0.97260 66 63 61
0.27477 0.02174 -0.96793 57 60 59
0.28238 0.01766 -0.96327 45 52 55
0.28999 0.01357 -0.95861 52 53 58
0.29759 0.00949 -0.95395 64 56 62
0.30518 0.00541 -0.94929 58 58 55
0.31277 0.00133 -0.94464 54 62 60
0.32035 -0.00274 -0.93999 56 60 62
0.32793 -0.00681 -0.93535 78 74 61
0.33551 -0.01088 -0.93071 79 50 47
0.34308 -0.01495 -0.92607 61 50 42
0.35064 -0.01901 -0.92143 51 46 49
0.35820 -0.02307 -0.91680 62 64 66
0.36575 -0.02713 -0.91217 67 71 59
0.37330 -0.03118 -0.90754 47 52 56
0.38084 -0.03523 -0.90292 71 77 55
0.38838 -0.03928 -0.89830 96 109 61
0.39591 -0.04333 -0.89368 74 75 66
0.40343 -0.04737 -0.88907 40 42 48
0.41095 -0.05141 -0.88446 61 76 82
0.41847 -0.05545 -0.87985 80 92 107
0.42598 -0.05949 -0.87525 66 63 66
0.43349 -0.06352 -0.87065 40 43 50
0.44099 -0.06755 -0.86605 56 68 68
0.44848 -0.07157 -0.86146 73 79 72
0.45597 -0.07560 -0.85687 74 66 59
0.46346 -0.07962 -0.85228 70 48 50
0.47094 -0.08364 -0.84769 57 47 55
0.47841 -0.08765 -0.84311 51 56 61
0.48588 -0.09166 -0.83853 54 63 50
0.49335 -0.09567 -0.83396 57 68 35
0.50081 -0.09968 -0.82939 50 54 39
0.50826 -0.10369 -0.82482 44 46 57
0.51571 -0.10769 -0.82025 55 51 69
0.52315 -0.11169 -0.81569 65 52 64
0.53059 -0.11568 -0.81113 45 30 32
0.53803 -0.11968 -0.80657 41 28 40
0.54545 -0.12367 -0.80202 47 46 60
0.55288 -0.12765 -0.79747 55 63 86
0.56030 -0.13164 -0.79292 51 56 68
0.56771 -0.13562 -0.78838 47 44 50
0.57512 -0.13960 -0.78384 50 55 44
0.58252 -0.14358 -0.77930 56 64 45
0.58992 -0.14755 -0.77476 52 40 33
0.59731 -0.15152 -0.77023 43 39 49
0.60470 -0.15549 -0.76570 44 42 52
0.61208 -0.15946 -0.76118 48 52 77
0.61946 -0.16342 -0.75666 80 82 53
0.62683 -0.16738 -0.75214 61 62 60
0.63420 -0.17134 -0.74762 53 43 59
0.64156 -0.17530 -0.74311 65 67 58
0.64892 -0.17925 -0.73860 63 54 70
0.65627 -0.18320 -0.73409 56 41 49
0.66362 -0.18715 -0.72959 51 37 35
0.67096 -0.19109 -0.72509 47 42 44
0.67830 -0.19503 -0.72059 49 45 49
0.68563 -0.19897 -0.71610 51 49 47
0.69296 -0.20291 -0.71160 53 51 45
0.70028 -0.20684 -0.70712 49 47 41
0.70760 -0.21077 -0.70263 48 47 42
0.71491 -0.21470 -0.69815 46 46 40
0.72222 -0.21863 -0.69367 47 46 33
0.72952 -0.22255 -0.68919 51 49 40
0.73682 -0.22647 -0.68472 50 51 44
0.74412 -0.23039 -0.68025 51 52 39
0.75140 -0.23430 -0.67578 53 57 49
0.75869 -0.23821 -0.67132 59 61 60
0.76596 -0.24212 -0.66686 66 63 62
0.77324 -0.24603 -0.66240 66 63 64
0.78050 -0.24994 -0.65794 65 65 69
0.78777 -0.25384 -0.65349 69 69 69
0.79503 -0.25774 -0.64904 70 66 61
0.80228 -0.26163 -0.64460 67 61 56
0.80953 -0.26553 -0.64016 61 58 47
0.81677 -0.26942 -0.63572 46 45 33
0.82401 -0.27331 -0.63128 42 42 42
0.83124 -0.27719 -0.62684 60 57 63
0.83847 -0.28107 -0.62241 54 49 53
0.84569 -0.28496 -0.61799 42 40 43
0.85291 -0.28883 -0.61356 42 42 46
0.86013 -0.29271 -0.60914 57 61 59
0.86734 -0.29658 -0.60472 63 63 58
0.87454 -0.30045 -0.60030 47 36 33
0.88174 -0.30432 -0.59589 44 41 43
0.88893 -0.30818 -0.59148 64 72 69
0.89612 -0.31205 -0.58708 79 73 66
0.90331 -0.31591 -0.58267 54 41 32
0.91049 -0.31976 -0.57827 48 42 39
0.91766 -0.32362 -0.57387 61 67 60
0.92483 -0.32747 -0.56948 84 92 82
0.93200 -0.33132 -0.56509 79 75 66
0.93916 -0.33516 -0.56070 47 51 76
0.25800 0.01392 -0.96367 78 77 60
0.26559 0.00985 -0.95902 66 60 61
0.27316 0.00579 -0.95438 46 49 61
0.28074 0.00172 -0.94975 58 53 65
0.28830 -0.00234 -0.94511 76 74 89
0.29587 -0.00639 -0.94048 65 68 77
0.30343 -0.01045 -0.93585 53 64 80
0.31098 -0.01450 -0.93123 45 48 78
0.31852 -0.01855 -0.92661 87 103 102
0.32607 -0.02259 -0.92199 106 112 63
0.33360 -0.02664 -0.91738 73 67 81
0.34113 -0.03068 -0.91276 53 48 57
0.34866 -0.03471 -0.90816 84 97 101
0.35618 -0.03875 -0.90355 100 98 86
0.36370 -0.04278 -0.89895 69 61 52
0.37121 -0.04681 -0.89435 49 50 52
0.37871 -0.05084 -0.88976 53 57 62
0.38621 -0.05486 -0.88516 66 55 62
0.39371 -0.05888 -0.88057 62 49 55
0.40120 -0.06290 -0.87599 46 47 57
0.40868 -0.06691 -0.87140 41 48 60
0.41616 -0.07092 -0.86683 50 60 68
0.42364 -0.07493 -0.86225 55 77 78
0.43111 -0.07894 -0.85767 47 55 52
0.43857 -0.08295 -0.85310 38 32 44
0.44603 -0.08695 -0.84854 53 54 64
0.45349 -0.09095 -0.84397 67 75 72
0.46094 -0.09494 -0.83941 50 55 51
0.46838 -0.09893 -0.83485 36 36 30
0.47582 -0.10293 -0.83030 49 61 41
0.48325 -0.10691 -0.82575 62 80 52
0.49068 -0.11090 -0.82120 51 57 41
0.49810 -0.11488 -0.81665 39 42 34
0.50552 -0.11886 -0.81211 43 45 57
0.51294 -0.12284 -0.80757 45 42 54
0.52034 -0.12681 -0.80304 39 34 29
0.52775 -0.13078 -0.79850 42 35 27
0.53515 -0.13475 -0.79397 41 36 42
0.54254 -0.13872 -0.78945 42 38 65
0.54993 -0.14268 -0.78492 44 43 65
0.55731 -0.14664 -0.78040 45 44 44
0.56469 -0.15060 -0.77589 42 44 27
0.57206 -0.15455 -0.77137 31 40 37
0.57943 -0.15850 -0.76686 53 59 27
0.58679 -0.16245 -0.76235 58 49 45
0.59415 -0.16640 -0.75785 50 40 35
0.60150 -0.17035 -0.75335 48 46 57
0.60885 -0.17429 -0.74885 59 54 50
0.61619 -0.17823 -0.74435 64 51 45
0.62353 -0.18216 -0.73986 58 47 45
0.63086 -0.18610 -0.73537 30 27 34
0.63819 -0.19003 -0.73088 42 36 62
0.64551 -0.19396 -0.72640 57 52 61
0.65283 -0.19788 -0.72192 62 60 66
0.66015 -0.20180 -0.71744 50 45 45
0.66745 -0.20572 -0.71296 48 47 42
0.67476 -0.20964 -0.70849 57 55 49
0.68205 -0.21356 -0.70402 56 59 55
0.68935 -0.21747 -0.69956 51 53 47
0.69664 -0.22138 -0.69510 46 49 47
0.70392 -0.22529 -0.69064 48 53 53
0.71120 -0.22919 -0.68618 52 57 52
0.71847 -0.23309 -0.68173 58 58 56
0.72574 -0.23699 -0.67728 58 59 55
0.73300 -0.24089 -0.67283 56 59 49
0.74026 -0.24478 -0.66839 55 62 53
0.74751 -0.24867 -0.66394 58 65 65
0.75476 -0.25256 -0.65951 69 65 71
0.76201 -0.25645 -0.65507 70 65 68
0.76925 -0.26033 -0.65064 63 69 67
0.77648 -0.26421 -0.64621 65 71 67
0.78371 -0.26809 -0.64178 67 67 65
0.79093 -0.27196 -0.63736 66 63 63
0.79815 -0.27584 -0.63294 61 61 54
0.80537 -0.27971 -0.62852 52 50 42
0.81258 -0.28357 -0.62411 47 42 46
0.81978 -0.28744 -0.61970 57 59 65
0.82698 -0.29130 -0.61529 59 62 58
0.83418 -0.29516 -0.61088 43 40 33
0.84137 -0.29902 -0.60648 35 40 40
0.84855 -0.30287 -0.60208 56 64 61
0.85573 -0.30672 -0.59768 69 74 60
0.86291 -0.31057 -0.59329 48 36 42
0.87008 -0.31442 -0.58890 42 35 46
0.87725 -0.31826 -0.58451 55 59 64
0.88441 -0.32210 -0.58013 81 86 76
0.89156 -0.32594 -0.57575 73 69 50
0.89871 -0.32978 -0.57137 59 50 36
0.90586 -0.33361 -0.56699 54 55 51
0.91300 -0.33744 -0.56262 61 69 65
0.92014 -0.34127 -0.55825 59 59 55
0.92727 -0.34510 -0.55388 42 41 57
0.26403 -0.00598 -0.94558 59 61 70
0.27157 -0.01002 -0.94097 56 46 62
0.27911 -0.01405 -0.93636 61 67 66
0.28664 -0.01809 -0.93175 54 52 69
0.29417 -0.02212 -0.92715 58 63 77
0.30169 -0.02615 -0.92255 58 42 60
0.30920 -0.03017 -0.91795 43 42 47
0.31671 -0.03420 -0.91336 49 44 45
0.32422 -0.03822 -0.90877 73 104 109
0.33172 -0.04223 -0.90418 58 70 88
0.33921 -0.04625 -0.89959 33 31 43
0.34670 -0.05026 -0.89501 42 52 57
0.35419 -0.05427 -0.89044 81 105 93
0.36167 -0.05828 -0.88586 66 61 34
0.36914 -0.06228 -0.88129 29 26 25
0.37661 -0.06628 -0.87672 49 47 39
0.38408 -0.07028 -0.87216 71 60 51
0.39153 -0.07428 -0.86759 50 43 42
0.39899 -0.07827 -0.86303 33 31 30
0.40644 -0.08226 -0.85848 38 37 47
0.41388 -0.08625 -0.85392 46 51 55
0.42132 -0.09023 -0.84938 46 43 35
0.42875 -0.09421 -0.84483 35 33 33
0.43618 -0.09819 -0.84029 29 32 40
0.44361 -0.10217 -0.83574 41 32 43
0.45102 -0.10614 -0.83121 55 34 35
0.45844 -0.11011 -0.82667 51 36 28
0.46585 -0.11408 -0.82214 44 40 43
0.47325 -0.11805 -0.81761 49 46 53
0.48065 -0.12201 -0.81309 57 49 44
0.48804 -0.12597 -0.80857 56 48 38
0.49543 -0.12993 -0.80405 45 45 54
0.50281 -0.13388 -0.79953 49 50 64
0.51019 -0.13784 -0.79502 64 66 74
0.51756 -0.14179 -0.79051 58 63 68
0.52493 -0.14573 -0.78600 43 38 35
0.53229 -0.14968 -0.78150 43 41 62
0.53965 -0.15362 -0.77700 48 62 93
0.54700 -0.15756 -0.77250 46 53 59
0.55435 -0.16149 -0.76801 43 46 34
0.56170 -0.16543 -0.76352 47 48 48
0.56903 -0.16936 -0.75903 82 102 107
0.57637 -0.17329 -0.75454 90 96 108
0.58369 -0.17721 -0.75006 55 45 40
0.59102 -0.18113 -0.74558 48 49 55
0.59834 -0.18505 -0.74111 54 52 56
0.60565 -0.18897 -0.73663 67 74 64
0.61296 -0.19289 -0.73216 83 82 81
0.62026 -0.19680 -0.72770 56 28 31
0.62756 -0.20071 -0.72323 77 59 38
0.63485 -0.20462 -0.71877 80 79 66
0.64214 -0.20852 -0.71431 78 63 76
0.64942 -0.21242 -0.70986 53 42 51
0.65670 -0.21632 -0.70541 44 43 39
0.66398 -0.22022 -0.70096 47 49 46
0.67125 -0.22411 -0.69651 48 48 51
0.67851 -0.22800 -0.69207 45 45 43
0.68577 -0.23189 -0.68763 40 43 34
0.69302 -0.23577 -0.68319 44 50 46
0.70027 -0.23966 -0.67876 52 55 56
0.70752 -0.24354 -0.67433 58 56 60
0.71475 -0.24742 -0.66990 59 56 57
0.72199 -0.25129 -0.66548 56 55 51
0.72922 -0.25516 -0.66106 49 48 51
0.73644 -0.25903 -0.65664 48 48 57
0.74366 -0.26290 -0.65222 64 60 73
0.75088 -0.26677 -0.64781 66 60 69
0.75809 -0.27063 -0.64340 53 55 55
0.76529 -0.27449 -0.63899 55 60 61
0.77249 -0.27835 -0.63459 61 60 64
0.77969 -0.28220 -0.63019 65 60 65
0.78688 -0.28605 -0.62579 64 60 60
0.79407 -0.28990 -0.62139 58 55 50
0.80125 -0.29375 -0.61700 50 43 50
0.80842 -0.29759 -0.61261 52 53 61
0.81560 -0.30143 -0.60822 63 66 52
0.82276 -0.30527 -0.60384 52 37 29
0.82992 -0.30911 -0.59946 39 35 39
0.83708 -0.31294 -0.59508 48 49 51
0.84423 -0.31677 -0.59071 57 60 50
0.85138 -0.32060 -0.58634 49 40 45
0.85852 -0.32443 -0.58197 45 36 41
0.86566 -0.32825 -0.57760 47 42 48
0.87279 -0.33207 -0.57324 62 60 64
0.87992 -0.33589 -0.56888 67 62 58
0.88705 -0.33971 -0.56452 57 47 37
0.89417 -0.34352 -0.56017 47 39 40
0.90128 -0.34733 -0.55582 38 37 36
0.90839 -0.35114 -0.55147 37 38 39
0.91549 -0.35495 -0.54712 40 37 42
0.92259 -0.35875 -0.54278 34 42 82
0.25498 -0.01763 -0.93685 53 59 71
0.26249 -0.02165 -0.93227 43 43 51
0.27000 -0.02566 -0.92768 45 38 51
0.27750 -0.02967 -0.92310 45 41 73
0.28499 -0.03368 -0.91852 66 80 128
0.29248 -0.03769 -0.91394 69 64 94
0.29996 -0.04169 -0.90937 39 26 18
0.30744 -0.04569 -0.90480 39 32 39
0.31492 -0.04969 -0.90023 68 86 105
0.32239 -0.05369 -0.89567 55 57 87
0.32985 -0.05768 -0.89111 32 29 37
0.33731 -0.06167 -0.88655 33 31 24
0.34476 -0.06566 -0.88200 41 49 55
0.35221 -0.06964 -0.87745 92 97 77
0.35966 -0.07362 -0.87290 56 52 38
0.36709 -0.07760 -0.86835 35 32 40
0.37453 -0.08158 -0.86381 47 34 44
0.38196 -0.08555 -0.85927 50 34 31
0.38938 -0.08952 -0.85474 37 34 28
0.39680 -0.09349 -0.85021 35 37 40
0.40421 -0.09746 -0.84568 43 42 53
0.41162 -0.10142 -0.84115 50 56 68
0.41902 -0.10538 -0.83663 44 53 63
0.42642 -0.10934 -0.83211 38 40 47
0.43381 -0.11329 -0.82759 57 54 43
0.44120 -0.11724 -0.82308 86 75 36
0.44859 -0.12119 -0.81857 77 62 34
0.45596 -0.12514 -0.81406 49 42 47
0.46334 -0.12908 -0.80955 51 54 48
0.47070 -0.13303 -0.80505 66 69 40
0.47807 -0.13696 -0.80055 70 62 36
0.48543 -0.14090 -0.79606 45 41 44
0.49278 -0.14483 -0.79156 41 46 54
0.50013 -0.14876 -0.78708 63 64 60
0.50747 -0.15269 -0.78259 55 57 59
0.51481 -0.15662 -0.77811 38 40 40
0.52214 -0.16054 -0.77362 39 38 42
0.52947 -0.16446 -0.76915 41 42 54
0.53679 -0.16838 -0.76467 42 46 46
0.54411 -0.17229 -0.76020 39 43 29
0.55142 -0.17620 -0.75573 43 43 41
0.55873 -0.18011 -0.75127 45 46 58
0.56604 -0.18402 -0.74681 49 53 65
0.57333 -0.18792 -0.74235 51 51 46
0.58063 -0.19183 -0.73789 59 52 50
0.58792 -0.19572 -0.73344 51 47 48
0.59520 -0.19962 -0.72899 50 41 55
0.60248 -0.20351 -0.72454 56 62 82
0.60975 -0.20740 -0.72010 88 101 113
0.61702 -0.21129 -0.71565 97 107 93
0.62429 -0.21518 -0.71122 70 80 88
0.63155 -0.21906 -0.70678 53 41 62
0.63880 -0.22294 -0.70235 46 35 45
0.64605 -0.22682 -0.69792 44 41 41
0.65329 -0.23070 -0.69349 41 45 44
0.66053 -0.23457 -0.68907 42 43 45
0.66777 -0.23844 -0.68465 41 41 42
0.67500 -0.24231 -0.68023 36 42 39
0.68222 -0.24617 -0.67582 42 50 47
0.68944 -0.25003 -0.67141 56 57 58
0.69666 -0.25389 -0.66700 60 58 62
0.70387 -0.25775 -0.66259 61 58 63
0.71108 -0.26160 -0.65819 59 54 57
0.71828 -0.26546 -0.65379 43 41 50
0.72547 -0.26931 -0.64939 34 32 47
0.73266 -0.27315 -0.64500 48 38 55
0.73985 -0.27700 -0.64061 58 41 51
0.74703 -0.28084 -0.63622 52 39 43
0.75421 -0.28468 -0.63184 50 49 55
0.76138 -0.28851 -0.62746 58 60 62
0.76855 -0.29235 -0.62308 69 64 67
0.77571 -0.29618 -0.61870 67 63 66
0.78287 -0.30001 -0.61433 62 59 52
0.79002 -0.30383 -0.60996 53 46 43
0.79717 -0.30766 -0.60559 51 51 57
0.80431 -0.31148 -0.60123 80 86 76
0.81145 -0.31530 -0.59686 72 55 49
0.81858 -0.31911 -0.59251 51 38 38
0.82571 -0.32293 -0.58815 47 44 48
0.83284 -0.32674 -0.58380 51 50 51
0.83996 -0.33054 -0.57945 54 48 51
0.84707 -0.33435 -0.57510 55 45 40
0.85418 -0.33815 -0.57076 44 40 41
0.86129 -0.34195 -0.56642 50 46 61
0.86839 -0.34575 -0.56208 63 60 74
0.87548 -0.34955 -0.55774 56 51 51
0.88257 -0.35334 -0.55341 48 41 41
0.88966 -0.35713 -0.54908 43 40 33
0.89674 -0.36092 -0.54475 40 43 32
0.90382 -0.36470 -0.54043 40 40 38
0.91089 -0.36849 -0.53611 26 30 57
0.91796 -0.37227 -0.53179 78 102 136
0.24601 -0.02918 -0.92821 43 54 61
0.25349 -0.03317 -0.92365 36 41 53
0.26097 -0.03717 -0.91908 43 38 49
0.26844 -0.04116 -0.91452 37 31 42
0.27590 -0.04514 -0.90997 34 21 48
0.28336 -0.04913 -0.90542 45 28 52
0.29081 -0.05311 -0.90087 48 33 34
0.29826 -0.05709 -0.89632 38 31 40
0.30570 -0.06106 -0.89178 39 31 76
0.31314 -0.06504 -0.88724 40 46 70
0.32057 -0.06901 -0.88270 41 41 40
0.32800 -0.07298 -0.87817 40 37 29
0.33543 -0.07694 -0.87364 41 40 45
0.34284 -0.08090 -0.86911 79 87 106
0.35026 -0.08486 -0.86459 53 52 59
0.35767 -0.08882 -0.86007 38 39 47
0.36507 -0.09277 -0.85555 52 48 42
0.37247 -0.09673 -0.85103 62 55 30
0.37986 -0.10068 -0.84652 48 46 33
0.38725 -0.10462 -0.84201 39 39 40
0.39463 -0.10857 -0.83750 43 44 52
0.40201 -0.11251 -0.83300 53 70 79
0.40938 -0.11645 -0.82850 45 65 68
0.41675 -0.12038 -0.82400 36 42 39
0.42411 -0.12431 -0.81951 40 41 41
0.43147 -0.12824 -0.81502 44 51 48
0.43882 -0.13217 -0.81053 46 51 44
0.44617 -0.13610 -0.80605 50 42 42
0.45351 -0.14002 -0.80157 51 44 39
0.46085 -0.14394 -0.79709 48 47 40
0.46819 -0.14786 -0.79261 53 49 37
0.47551 -0.15177 -0.78814 51 41 33
0.48284 -0.15568 -0.78367 41 34 37
0.49015 -0.15959 -0.77920 35 34 48
0.49747 -0.16350 -0.77474 39 41 45
0.50478 -0.16740 -0.77028 45 46 45
0.51208 -0.17130 -0.76582 46 44 45
0.51938 -0.17520 -0.76137 40 44 40
0.52667 -0.17910 -0.75691 41 42 42
0.53396 -0.18299 -0.75247 46 47 40
0.54125 -0.18688 -0.74802 53 47 47
0.54852 -0.19077 -0.74358 48 43 36
0.55580 -0.19466 -0.73914 36 41 26
0.56307 -0.19854 -0.73470 49 47 48
0.57033 -0.20242 -0.73027 75 83 76
0.57759 -0.20630 -0.72584 62 52 39
0.58485 -0.21017 -0.72141 43 37 27
0.59210 -0.21405 -0.71698 46 46 52
0.59934 -0.21792 -0.71256 66 67 82
0.60658 -0.22178 -0.70814 72 65 80
0.61381 -0.22565 -0.70373 61 57 63
0.62105 -0.22951 -0.69932 50 45 49
0.62827 -0.23337 -0.69491 45 43 44
0.63549 -0.23723 -0.69050 43 44 43
0.64271 -0.24108 -0.68609 48 44 49
0.64992 -0.24493 -0.68169 53 45 45
0.65712 -0.24878 -0.67730 47 45 39
0.66432 -0.25263 -0.67290 37 43 32
0.67152 -0.25647 -0.66851 44 50 47
0.67871 -0.26031 -0.66412 60 63 67
0.68590 -0.26415 -0.65973 61 66 71
0.69308 -0.26799 -0.65535 63 68 75
0.70026 -0.27182 -0.65097 66 68 62
0.70743 -0.27566 -0.64659 52 52 45
0.71460 -0.27948 -0.64222 37 34 38
0.72176 -0.28331 -0.63784 52 51 48
0.72892 -0.28713 -0.63348 72 71 53
0.73607 -0.29095 -0.62911 61 52 38
0.74322 -0.29477 -0.62475 47 38 43
0.75036 -0.29859 -0.62039 52 54 53
0.75750 -0.30240 -0.61603 70 73 64
0.76464 -0.30621 -0.61168 66 67 67
0.77177 -0.31002 -0.60732 57 56 50
0.77889 -0.31383 -0.60298 53 50 40
0.78601 -0.31763 -0.59863 49 47 49
0.79313 -0.32143 -0.59429 67 83 80
0.80024 -0.32523 -0.58995 74 88 79
0.80734 -0.32903 -0.58561 52 56 48
0.81444 -0.33282 -0.58128 44 46 48
0.82154 -0.33661 -0.57695 47 47 51
0.82863 -0.34040 -0.57262 49 49 52
0.83572 -0.34418 -0.56829 51 47 42
0.84280 -0.34797 -0.56397 43 40 39
0.84988 -0.35175 -0.55965 47 43 49
0.85695 -0.35552 -0.55533 63 64 70
0.86402 -0.35930 -0.55102 60 50 45
0.87108 -0.36307 -0.54671 51 35 33
0.87814 -0.36684 -0.54240 48 37 31
0.88520 -0.37061 -0.53810 47 39 26
0.89224 -0.37438 -0.53379 46 38 33
0.89929 -0.37814 -0.52949 33 31 39
0.90633 -0.38190 -0.52520 34 48 80
0.25202 -0.04857 -0.91056 56 46 58
0.25946 -0.05253 -0.90603 47 40 40
0.26689 -0.05650 -0.90150 40 37 53
0.27432 -0.06046 -0.89697 66 73 108
0.28174 -0.06442 -0.89244 60 65 90
0.28916 -0.06838 -0.88792 43 30 28
0.29657 -0.07233 -0.88340 40 36 55
0.30398 -0.07628 -0.87888 51 77 98
0.31138 -0.08023 -0.87437 46 65 58
0.31878 -0.08418 -0.86986 35 43 45
0.32617 -0.08812 -0.86535 39 43 49
0.33356 -0.09206 -0.86085 64 59 72
0.34094 -0.09600 -0.85635 46 44 55
0.34832 -0.09994 -0.85185 32 40 41
0.35569 -0.10387 -0.84736 38 42 43
0.36306 -0.10780 -0.84286 43 47 38
0.37042 -0.11173 -0.83837 42 45 35
0.37778 -0.11565 -0.83389 39 40 37
0.38513 -0.11957 -0.82940 38 39 46
0.39248 -0.12349 -0.82492 44 42 55
0.39983 -0.12741 -0.82045 47 42 51
0.40716 -0.13132 -0.81597 47 48 41
0.41450 -0.13524 -0.81150 44 49 34
0.42182 -0.13915 -0.80704 39 39 28
0.42915 -0.14305 -0.80257 41 40 35
0.43647 -0.14696 -0.79811 64 58 55
0.44378 -0.15086 -0.79365 71 59 49
0.45109 -0.15476 -0.78919 44 38 32
0.45839 -0.15865 -0.78474 45 43 45
0.46569 -0.16254 -0.78029 58 67 54
0.47298 -0.16644 -0.77584 59 76 52
0.48027 -0.17032 -0.77140 45 53 31
0.48756 -0.17421 -0.76696 38 40 34
0.49484 -0.17809 -0.76252 46 46 49
0.50211 -0.18197 -0.75809 50 50 49
0.50938 -0.18585 -0.75365 34 42 36
0.51664 -0.18972 -0.74922 37 40 27
0.52390 -0.19360 -0.74480 45 44 46
0.53116 -0.19747 -0.74038 52 45 42
0.53841 -0.20133 -0.73596 51 41 32
0.54565 -0.20520 -0.73154 43 40 31
0.55289 -0.20906 -0.72712 46 41 48
0.56013 -0.21292 -0.72271 56 77 51
0.56736 -0.21678 -0.71830 55 44 29
0.57458 -0.22063 -0.71390 38 35 15
0.58180 -0.22448 -0.70950 42 40 36
0.58902 -0.22833 -0.70510 44 34 51
0.59623 -0.23218 -0.70070 57 51 55
0.60344 -0.23602 -0.69631 63 51 40
0.61064 -0.23987 -0.69192 56 45 45
0.61784 -0.24370 -0.68753 47 43 42
0.62503 -0.24754 -0.68314 41 41 35
0.63221 -0.25137 -0.67876 66 71 60
0.63940 -0.25521 -0.67438 92 93 83
0.64657 -0.25903 -0.67001 73 68 57
0.65375 -0.26286 -0.66563 43 44 39
0.66091 -0.26668 -0.66126 45 50 49
0.66808 -0.27051 -0.65690 58 60 57
0.67524 -0.27432 -0.65253 51 51 48
0.68239 -0.27814 -0.64817 55 57 51
0.68954 -0.28195 -0.64381 66 71 50
0.69668 -0.28576 -0.63946 53 56 37
0.70382 -0.28957 -0.63510 37 37 34
0.71096 -0.29338 -0.63075 37 41 45
0.71809 -0.29718 -0.62641 46 53 53
0.72521 -0.30098 -0.62206 45 46 38
0.73233 -0.30478 -0.61772 35 35 32
0.73945 -0.30858 -0.61338 30 37 41
0.74656 -0.31237 -0.60905 39 46 55
0.75366 -0.31616 -0.60471 42 45 52
0.76077 -0.31995 -0.60038 42 43 35
0.76786 -0.32373 -0.59606 51 47 33
0.77495 -0.32752 -0.59173 48 39 30
0.78204 -0.33130 -0.58741 44 45 39
0.78912 -0.33508 -0.58309 58 59 50
0.79620 -0.33885 -0.57878 49 39 34
0.80328 -0.34262 -0.57447 42 27 28
0.81034 -0.34640 -0.57016 46 30 31
0.81741 -0.35016 -0.56585 45 37 34
0.82447 -0.35393 -0.56155 48 42 30
0.83152 -0.35769 -0.55724 50 44 26
0.83857 -0.36145 -0.55295 54 49 35
0.84562 -0.36521 -0.54865 66 63 53
0.85266 -0.36897 -0.54436 70 61 45
0.85969 -0.37272 -0.54007 70 60 50
0.86673 -0.37647 -0.53578 74 62 55
0.87375 -0.38022 -0.53150 76 64 50
0.88077 -0.38397 -0.52721 72 61 52
0.88779 -0.38771 -0.52294 56 53 49
0.89480 -0.39145 -0.51866 28 33 61
0.25056 -0.06381 -0.89761 56 40 47
0.25796 -0.06775 -0.89310 35 36 53
0.26536 -0.07169 -0.88860 40 34 62
0.27275 -0.07563 -0.88409 41 28 53
0.28014 -0.07956 -0.87960 43 30 35
0.28752 -0.08350 -0.87510 46 35 36
0.29490 -0.08743 -0.87061 41 38 46
0.30227 -0.09135 -0.86612 39 38 47
0.30964 -0.09528 -0.86163 40 45 46
0.31700 -0.09920 -0.85714 43 43 46
0.32436 -0.10312 -0.85266 30 30 44
0.33171 -0.10704 -0.84818 29 26 44
0.33906 -0.11095 -0.84371 45 66 71
0.34640 -0.11486 -0.83924 46 57 64
0.35374 -0.11877 -0.83477 37 40 43
0.36107 -0.12268 -0.83030 35 38 36
0.36840 -0.12658 -0.82584 49 57 64
0.37572 -0.13048 -0.82138 51 62 66
0.38304 -0.13438 -0.81692 45 50 50
0.39036 -0.13828 -0.81247 47 50 42
0.39766 -0.14217 -0.80802 54 65 54
0.40497 -0.14606 -0.80357 51 66 54
0.41227 -0.14995 -0.79912 41 49 41
0.41956 -0.15383 -0.79468 37 43 45
0.42685 -0.15772 -0.79024 58 58 50
0.43413 -0.16160 -0.78580 71 61 39
0.44141 -0.16547 -0.78137 46 43 23
0.44869 -0.16935 -0.77694 39 39 32
0.45595 -0.17322 -0.77251 49 46 50
0.46322 -0.17709 -0.76809 48 44 51
0.47048 -0.18096 -0.76367 43 39 35
0.47773 -0.18482 -0.75925 44 41 39
0.48498 -0.18869 -0.75483 52 47 57
0.49223 -0.19255 -0.75042 63 59 64
0.49947 -0.19640 -0.74601 52 48 46
0.50670 -0.20026 -0.74160 43 44 42
0.51393 -0.20411 -0.73720 56 58 47
0.52116 -0.20796 -0.73280 69 84 55
0.52838 -0.21180 -0.72840 67 67 64
0.53560 -0.21565 -0.72401 51 42 34
0.54281 -0.21949 -0.71961 44 40 44
0.55001 -0.22333 -0.71522 46 32 36
0.57160 -0.23483 -0.70207 60 41 20
0.57879 -0.23866 -0.69770 48 32 27
0.58597 -0.24248 -0.69332 83 80 60
0.59315 -0.24631 -0.68895 92 88 73
0.60032 -0.25013 -0.68458 76 63 70
0.60749 -0.25395 -0.68022 62 53 56
0.61466 -0.25776 -0.67585 48 43 48
0.62181 -0.26158 -0.67149 57 65 67
0.62897 -0.26539 -0.66714 78 91 97
0.63612 -0.26920 -0.66278 81 92 86
0.64326 -0.27300 -0.65843 73 81 64
0.65040 -0.27680 -0.65408 66 66 60
0.65754 -0.28061 -0.64974 62 65 57
0.66467 -0.28440 -0.64539 45 49 48
0.67179 -0.28820 -0.64105 31 34 46
0.67891 -0.29199 -0.63672 38 38 43
0.68603 -0.29578 -0.63238 41 31 25
0.69314 -0.29957 -0.62805 38 22 15
0.70025 -0.30336 -0.62372 33 21 20
0.70735 -0.30714 -0.61940 34 21 25
0.71445 -0.31092 -0.61508 38 20 20
0.72154 -0.31470 -0.61076 36 19 15
0.72863 -0.31847 -0.60644 33 21 20
0.73571 -0.32225 -0.60212 36 29 31
0.74279 -0.32602 -0.59781 40 36 35
0.74986 -0.32979 -0.59350 50 48 37
0.75693 -0.33355 -0.58920 67 63 48
0.76399 -0.33732 -0.58490 72 63 43
0.77105 -0.34108 -0.58060 74 59 41
0.77811 -0.34484 -0.57630 82 69 52
0.78516 -0.34859 -0.57201 86 71 58
0.79221 -0.35234 -0.56771 90 76 56
0.79925 -0.35610 -0.56343 92 81 58
0.80628 -0.35984 -0.55914 92 89 67
0.81332 -0.36359 -0.55486 96 98 68
0.82034 -0.36733 -0.55058 96 98 65
0.82737 -0.37107 -0.54630 96 102 76
0.83438 -0.37481 -0.54202 98 103 86
0.84140 -0.37855 -0.53775 97 100 82
0.84841 -0.38228 -0.53348 97 100 89
0.85541 -0.38601 -0.52922 97 95 87
0.86241 -0.38974 -0.52496 94 92 79
0.86940 -0.39347 -0.52069 88 89 72
0.87639 -0.39719 -0.51644 72 72 51
0.88338 -0.40091 -0.51218 29 34 51
0.24911 -0.07890 -0.88478 54 45 45
0.25648 -0.08282 -0.88030 42 34 43
0.26384 -0.08674 -0.87582 40 31 45
0.27120 -0.09065 -0.87134 77 75 96
0.27855 -0.09456 -0.86687 69 84 87
0.28590 -0.09847 -0.86240 46 38 30
0.29324 -0.10238 -0.85793 43 36 48
0.30058 -0.10628 -0.85347 58 63 110
0.30791 -0.11018 -0.84901 57 59 92
0.31524 -0.11408 -0.84455 36 32 38
0.32256 -0.11798 -0.84009 29 28 33
0.32988 -0.12187 -0.83564 52 74 68
0.33719 -0.12576 -0.83119 51 66 53
0.34450 -0.12965 -0.82674 37 39 26
0.35181 -0.13353 -0.82230 35 28 21
0.35910 -0.13742 -0.81786 41 40 48
0.36640 -0.14130 -0.81342 43 46 50
0.37369 -0.14517 -0.80899 38 44 32
0.38097 -0.14905 -0.80456 39 46 33
0.38825 -0.15292 -0.80013 42 48 49
0.39552 -0.15679 -0.79570 43 46 51
0.40279 -0.16066 -0.79128 43 43 48
0.41006 -0.16452 -0.78686 44 43 50
0.41732 -0.16838 -0.78244 47 45 45
0.42457 -0.17224 -0.77803 49 45 40
0.43182 -0.17610 -0.77362 49 46 39
0.43907 -0.17995 -0.76921 48 47 41
0.44631 -0.18380 -0.76480 48 48 49
0.45354 -0.18765 -0.76040 48 45 48
0.46077 -0.19150 -0.75600 46 45 44
0.46800 -0.19534 -0.75161 47 45 48
0.47522 -0.19919 -0.74721 50 48 45
0.48243 -0.20302 -0.74282 54 51 33
0.48964 -0.20686 -0.73843 53 47 41
0.49685 -0.21069 -0.73405 44 44 34
0.50405 -0.21452 -0.72967 80 80 61
0.51125 -0.21835 -0.72529 102 82 80
0.51844 -0.22218 -0.72091 88 73 78
0.52563 -0.22600 -0.71654 67 46 40
0.53281 -0.22982 -0.71217 54 41 45
0.56865 -0.24889 -0.69036 56 44 50
0.57581 -0.25270 -0.68601 65 69 67
0.58296 -0.25650 -0.68166 76 90 82
0.59010 -0.26030 -0.67731 78 85 73
0.59724 -0.26410 -0.67297 71 71 56
0.60438 -0.26789 -0.66863 46 45 48
0.61151 -0.27169 -0.66429 44 36 36
0.61863 -0.27548 -0.65995 54 38 38
0.62575 -0.27927 -0.65562 51 33 36
0.63287 -0.28305 -0.65129 45 30 33
0.63998 -0.28684 -0.64696 49 34 44
0.64709 -0.29062 -0.64264 59 51 48
0.65419 -0.29439 -0.63832 55 46 34
0.66129 -0.29817 -0.63400 44 36 26
0.66838 -0.30194 -0.62969 46 43 29
0.67547 -0.30571 -0.62537 55 50 36
0.68255 -0.30948 -0.62106 67 53 45
0.68963 -0.31325 -0.61676 80 61 51
0.69670 -0.31701 -0.61245 91 75 61
0.70377 -0.32077 -0.60815 99 85 70
0.71084 -0.32453 -0.60385 106 95 74
0.71790 -0.32829 -0.59956 109 102 83
0.72495 -0.33204 -0.59526 109 106 92
0.73201 -0.33579 -0.59097 114 118 99
0.73905 -0.33954 -0.58669 118 127 104
0.74609 -0.34329 -0.58240 122 130 111
0.75313 -0.34703 -0.57812 125 131 109
0.76016 -0.35077 -0.57384 121 124 100
0.76719 -0.35451 -0.56956 120 124 102
0.77421 -0.35825 -0.56529 119 123 109
0.78123 -0.36198 -0.56102 117 121 112
0.78825 -0.36571 -0.55675 113 117 110
0.79526 -0.36944 -0.55249 108 109 111
0.80226 -0.37317 -0.54823 107 104 103
0.80926 -0.37689 -0.54397 100 96 93
0.81626 -0.38061 -0.53971 93 92 89
0.82325 -0.38433 -0.53546 86 89 84
0.83023 -0.38805 -0.53121 77 83 73
0.83722 -0.39176 -0.52696 71 76 66
0.84419 -0.39547 -0.52271 67 66 67
0.85117 -0.39918 -0.51847 66 64 61
0.87206 -0.41030 -0.50576 27 27 42
0.24768 -0.09385 -0.87208 41 35 36
0.25502 -0.09775 -0.86762 41 33 26
0.26234 -0.10164 -0.86317 54 53 57
0.26967 -0.10553 -0.85872 53 58 65
0.27698 -0.10942 -0.85427 39 36 40
0.28430 -0.11330 -0.84982 46 37 28
0.29160 -0.11719 -0.84538 40 31 47
0.29891 -0.12107 -0.84094 42 36 56
0.30620 -0.12494 -0.83651 39 35 40
0.31350 -0.12882 -0.83207 36 35 35
0.32079 -0.13269 -0.82764 43 34 45
0.32807 -0.13656 -0.82322 42 35 44
0.33535 -0.14043 -0.81879 38 34 30
0.34262 -0.14429 -0.81437 37 32 27
0.34989 -0.14815 -0.80995 39 34 40
0.35715 -0.15201 -0.80554 42 40 43
0.36441 -0.15587 -0.80113 40 42 40
0.37167 -0.15972 -0.79672 41 42 48
0.37892 -0.16357 -0.79231 39 43 54
0.38616 -0.16742 -0.78791 37 43 55
0.39340 -0.17127 -0.78351 42 44 58
0.40064 -0.17511 -0.77911 49 45 61
0.40787 -0.17895 -0.77471 55 47 61
0.41509 -0.18279 -0.77032 59 49 58
0.42231 -0.18663 -0.76593 61 52 56
0.42953 -0.19046 -0.76155 62 54 53
0.43674 -0.19429 -0.75716 62 54 56
0.44395 -0.19812 -0.75278 63 55 52
0.45115 -0.20195 -0.74841 61 57 53
0.45835 -0.20577 -0.74403 64 64 63
0.46554 -0.20959 -0.73966 67 67 69
0.47273 -0.21341 -0.73529 72 72 56
0.47991 -0.21723 -0.73093 67 64 48
0.48709 -0.22104 -0.72656 43 45 55
0.49426 -0.22485 -0.72220 61 67 77
0.50143 -0.22866 -0.71785 78 81 91
0.50859 -0.23246 -0.71349 83 90 94
0.51575 -0.23627 -0.70914 80 86 81
0.52290 -0.24007 -0.70479 56 53 54
0.55860 -0.25903 -0.68309 48 32 33
0.56573 -0.26282 -0.67876 42 26 31
0.57285 -0.26660 -0.67443 41 27 39
0.57997 -0.27038 -0.67011 40 31 47
0.58708 -0.27416 -0.66579 45 38 40
0.59419 -0.27794 -0.66147 49 43 36
0.60129 -0.28171 -0.65715 58 53 45
0.86083 -0.41960 -0.49939 50 28 47
0.25356 -0.11253 -0.85506 47 33 29
0.26086 -0.11640 -0.85063 40 34 53
0.26814 -0.12027 -0.84621 55 70 57
0.27543 -0.12413 -0.84179 81 100 34
0.28271 -0.12799 -0.83737 48 46 38
0.28998 -0.13185 -0.83295 40 38 44
0.29725 -0.13571 -0.82854 36 39 43
0.30451 -0.13956 -0.82413 44 40 44
0.31177 -0.14341 -0.81972 53 42 40
0.31902 -0.14726 -0.81531 56 44 41
0.32627 -0.15111 -0.81091 52 41 37
0.33352 -0.15495 -0.80651 52 36 38
0.34076 -0.15879 -0.80212 52 35 39
0.34799 -0.16263 -0.79772 52 37 34
0.35522 -0.16647 -0.79333 47 39 30
0.36245 -0.17030 -0.78895 44 37 36
0.36967 -0.17413 -0.78456 45 37 42
0.37689 -0.17796 -0.78018 49 41 51
0.38410 -0.18179 -0.77580 56 50 67
0.39130 -0.18561 -0.77143 65 62 73
0.39850 -0.18943 -0.76705 74 74 70
0.40570 -0.19325 -0.76268 78 82 71
0.41289 -0.19707 -0.75832 79 85 84
0.42008 -0.20088 -0.75395 82 95 96
0.42726 -0.20469 -0.74959 88 101 102
0.43444 -0.20850 -0.74523 92 104 102
0.44161 -0.21230 -0.74088 92 107 94
0.44878 -0.21611 -0.73652 91 103 94
0.45595 -0.21991 -0.73217 88 99 84
0.46310 -0.22370 -0.72783 82 91 72
0.47026 -0.22750 -0.72348 71 74 59
0.47741 -0.23129 -0.71914 49 38 35
0.48455 -0.23508 -0.71480 56 53 51
0.49169 -0.23887 -0.71047 68 54 55
0.49883 -0.24266 -0.70614 64 34 32
0.50596 -0.24644 -0.70181 51 27 34
0.51308 -0.25022 -0.69748 41 25 32
0.84280 -0.42515 -0.49728 129 80 54
0.25212 -0.12718 -0.84262 37 32 24
0.25938 -0.13102 -0.83822 55 61 51
0.26664 -0.13486 -0.83382 72 78 52
0.27389 -0.13871 -0.82942 57 51 59
0.28113 -0.14254 -0.82503 52 44 57
0.28837 -0.14638 -0.82064 49 36 51
0.29560 -0.15021 -0.81625 59 56 65
0.30283 -0.15404 -0.81186 71 80 76
0.31006 -0.15787 -0.80748 78 87 84
0.31728 -0.16170 -0.80310 82 84 83
0.32450 -0.16552 -0.79872 79 84 90
0.33171 -0.16934 -0.79435 74 84 86
0.33891 -0.17316 -0.78998 70 82 79
0.34611 -0.17698 -0.78561 66 81 75
0.35331 -0.18079 -0.78124 66 82 76
0.36050 -0.18460 -0.77688 71 86 75
0.36769 -0.18841 -0.77252 79 91 78
0.37487 -0.19221 -0.76817 82 93 77
0.38205 -0.19602 -0.76381 78 92 75
0.38922 -0.19982 -0.75946 72 87 77
0.39639 -0.20361 -0.75511 66 77 75
0.40355 -0.20741 -0.75077 63 70 73
0.41071 -0.21120 -0.74642 63 59 59
0.41787 -0.21499 -0.74208 63 44 42
0.42502 -0.21878 -0.73775 54 33 34
0.43216 -0.22257 -0.73341 47 29 30
0.43930 -0.22635 -0.72908 39 22 29
0.44644 -0.23013 -0.72475 38 23 26
0.45357 -0.23391 -0.72043 46 36 28
0.46069 -0.23769 -0.71611 59 42 37
0.46781 -0.24146 -0.71179 63 45 49
0.24347 -0.13785 -0.83468 52 46 39
0.25070 -0.14168 -0.83030 58 67 60
0.25792 -0.14550 -0.82592 69 85 78
0.26514 -0.14932 -0.82155 72 86 73
0.27236 -0.15314 -0.81718 61 79 75
0.27957 -0.15696 -0.81281 51 43 48
0.28678 -0.16077 -0.80844 56 60 63
0.29398 -0.16458 -0.80408 63 81 81
0.62036 -0.36851 -0.62929 254 254 254
0.62706 -0.37228 -0.62460 254 254 254
0.63376 -0.37604 -0.61991 254 254 254
0.64045 -0.37980 -0.61523 254 254 254
0.64713 -0.38356 -0.61056 254 254 254
0.65381 -0.38731 -0.60589 254 254 254
0.56338 -0.35164 -0.65534 254 254 254
0.57011 -0.35541 -0.65064 254 254 254
0.57684 -0.35918 -0.64594 254 254 254
0.58355 -0.36295 -0.64125 254 254 254
0.59026 -0.36671 -0.63657 254 254 254
0.59697 -0.37047 -0.63189 254 254 254
0.60366 -0.37423 -0.62721 254 254 254
0.61035 -0.37798 -0.62254 254 254 254
0.61703 -0.38173 -0.61788 254 254 254
0.62371 -0.38547 -0.61322 254 254 254
0.63037 -0.38921 -0.60856 254 254 254
0.63703 -0.39294 -0.60391 254 254 254
0.36284 -0.25441 -0.78149 250 244 216
0.36975 -0.25828 -0.77667 252 246 226
0.37666 -0.26214 -0.77185 254 248 237
0.38356 -0.26600 -0.76704 254 250 242
0.39045 -0.26986 -0.76224 254 252 245
0.39733 -0.27371 -0.75744 254 253 245
0.40421 -0.27756 -0.75265 254 253 245
0.41107 -0.28140 -0.74786 254 253 245
0.41794 -0.28524 -0.74308 254 254 246
0.42479 -0.28908 -0.73830 254 254 248
0.43164 -0.29291 -0.73352 254 254 250
0.43847 -0.29674 -0.72876 254 254 251
0.44531 -0.30056 -0.72399 254 254 252
0.45213 -0.30438 -0.71924 254 254 254
0.45895 -0.30819 -0.71449 254 254 254
0.46576 -0.31200 -0.70974 254 254 254
0.47256 -0.31581 -0.70500 254 254 254
0.47935 -0.31961 -0.70026 254 254 254
0.48614 -0.32341 -0.69553 254 254 254
0.49292 -0.32720 -0.69080 254 254 254
0.49970 -0.33100 -0.68608 254 254 254
0.50646 -0.33478 -0.68136 254 254 254
0.51322 -0.33856 -0.67665 254 254 254
0.51997 -0.34234 -0.67194 254 254 254
0.52672 -0.34612 -0.66724 254 254 254
0.53345 -0.34989 -0.66255 254 254 254
0.54018 -0.35365 -0.65785 254 254 254
0.54690 -0.35741 -0.65317 254 254 254
0.55362 -0.36117 -0.64849 254 254 254
0.56033 -0.36493 -0.64381 254 254 254
0.56703 -0.36867 -0.63914 254 254 254
0.57372 -0.37242 -0.63447 254 254 254
0.58041 -0.37616 -0.62981 254 254 254
0.58709 -0.37990 -0.62515 254 254 254
0.59376 -0.38363 -0.62050 254 254 254
0.60043 -0.38736 -0.61586 254 254 254
0.60709 -0.39109 -0.61121 254 254 254
0.61374 -0.39481 -0.60658 254 254 254
0.62038 -0.39853 -0.60195 254 254 254
0.62702 -0.40224 -0.59732 254 254 254
0.38135 -0.27983 -0.75487 254 254 254
0.38820 -0.28366 -0.75010 254 254 254
0.39506 -0.28748 -0.74533 254 254 254
0.40190 -0.29130 -0.74056 254 254 254
0.40874 -0.29512 -0.73580 254 254 254
0.41557 -0.29894 -0.73105 254 254 254
0.42239 -0.30275 -0.72630 254 254 254
0.42920 -0.30655 -0.72156 254 254 254
0.43601 -0.31035 -0.71682 254 254 254
0.44281 -0.31415 -0.71209 254 254 254
0.44960 -0.31794 -0.70736 254 254 254
0.45639 -0.32173 -0.70264 254 254 254
0.46317 -0.32552 -0.69792 254 254 254
0.46994 -0.32930 -0.69321 254 254 254
0.47670 -0.33307 -0.68850 254 254 254
0.48346 -0.33685 -0.68379 254 254 254
0.49021 -0.34062 -0.67910 254 254 254
0.49695 -0.34438 -0.67440 254 254 254
0.50368 -0.34814 -0.66972 254 254 254
0.51041 -0.35190 -0.66503 254 254 254
0.51713 -0.35565 -0.66036 254 254 254
0.52385 -0.35940 -0.65568 254 254 254
0.53055 -0.36315 -0.65101 254 254 254
0.53725 -0.36689 -0.64635 254 254 254
0.54394 -0.37062 -0.64169 254 254 254
0.55063 -0.37436 -0.63704 254 254 254
0.55731 -0.37809 -0.63239 254 254 254
0.56398 -0.38181 -0.62775 254 254 254
0.57064 -0.38553 -0.62311 254 254 254
0.57730 -0.38925 -0.61848 254 254 254
0.58395 -0.39296 -0.61385 254 254 254
0.59059 -0.39667 -0.60923 254 254 254
0.59722 -0.40038 -0.60461 254 254 254
0.60385 -0.40408 -0.59999 254 254 254
0.61047 -0.40778 -0.59539 254 254 254
0.35863 -0.28208 -0.75708 254 254 254
0.36548 -0.28590 -0.75232 254 254 254
0.37232 -0.28971 -0.74756 254 254 254
0.37916 -0.29352 -0.74281 254 254 254
0.38598 -0.29732 -0.73807 254 254 254
0.39280 -0.30112 -0.73333 254 254 254
0.39962 -0.30492 -0.72860 254 254 254
0.40642 -0.30871 -0.72387 254 254 254
0.41322 -0.31250 -0.71914 254 254 254
0.42001 -0.31628 -0.71442 254 254 254
0.42679 -0.32006 -0.70971 254 254 254
0.43357 -0.32384 -0.70500 254 254 254
0.44034 -0.32761 -0.70029 254 254 254
0.44710 -0.33138 -0.69560 254 254 254
0.45385 -0.33514 -0.69090 254 254 254
0.46060 -0.33890 -0.68621 254 254 254
0.46734 -0.34266 -0.68153 254 254 254
0.47407 -0.34641 -0.67685 254 254 254
0.48080 -0.35016 -0.67217 254 254 254
0.48752 -0.35390 -0.66751 254 254 254
0.49423 -0.35764 -0.66284 254 254 254
0.50093 -0.36138 -0.65818 254 254 254
0.50763 -0.36511 -0.65353 254 254 254
0.51432 -0.36884 -0.64888 254 254 254
0.52100 -0.37256 -0.64423 254 254 254
0.52768 -0.37628 -0.63959 254 254 254
0.53435 -0.38000 -0.63496 254 254 254
0.54101 -0.38371 -0.63033 254 254 254
0.54766 -0.38742 -0.62570 254 254 254
0.55431 -0.39112 -0.62108 254 254 254
0.56095 -0.39482 -0.61647 254 254 254
0.56759 -0.39852 -0.61186 254 254 254
0.57421 -0.40221 -0.60725 254 254 254
0.58083 -0.40590 -0.60265 254 254 254
0.58745 -0.40958 -0.59806 254 254 254
0.59405 -0.41327 -0.59347 254 254 254
0.60065 -0.41694 -0.58888 254 254 254
0.34290 -0.28812 -0.75453 254 254 254
0.34974 -0.29192 -0.74979 254 254 254
0.35656 -0.29572 -0.74505 254 254 254
0.36338 -0.29951 -0.74032 254 254 254
0.37019 -0.30329 -0.73559 254 254 254
0.37699 -0.30708 -0.73087 254 254 254
0.38379 -0.31086 -0.72616 254 254 254
0.39057 -0.31463 -0.72145 254 254 254
0.39736 -0.31840 -0.71674 254 254 254
0.40413 -0.32217 -0.71204 254 254 254
0.41090 -0.32593 -0.70735 254 254 254
0.41765 -0.32969 -0.70266 254 254 254
0.42441 -0.33344 -0.69797 254 254 254
0.43115 -0.33719 -0.69329 254 254 254
0.43789 -0.34094 -0.68861 254 254 254
0.44462 -0.34468 -0.68394 254 254 254
0.45134 -0.34842 -0.67928 254 254 254
0.45806 -0.35216 -0.67462 254 254 254
0.46477 -0.35589 -0.66996 254 254 254
0.47147 -0.35962 -0.66531 254 254 254
0.47817 -0.36334 -0.66066 254 254 254
0.48485 -0.36706 -0.65602 254 254 254
0.49154 -0.37077 -0.65139 254 254 254
0.49821 -0.37448 -0.64676 254 254 254
0.50488 -0.37819 -0.64213 254 254 254
0.51154 -0.38190 -0.63751 254 254 254
0.51819 -0.38559 -0.63289 254 254 254
0.52483 -0.38929 -0.62828 254 254 254
0.53147 -0.39298 -0.62367 254 254 254
0.53811 -0.39667 -0.61907 254 254 254
0.54473 -0.40035 -0.61447 254 254 254
0.55135 -0.40403 -0.60988 254 254 254
0.55796 -0.40771 -0.60530 254 254 254
0.56456 -0.41138 -0.60071 254 254 254
0.57116 -0.41505 -0.59613 254 254 254
0.57775 -0.41872 -0.59156 254 254 254
0.58433 -0.42238 -0.58699 254 254 254
0.59091 -0.42603 -0.58243 254 254 254
0.33411 -0.29790 -0.74727 254 254 254
0.34091 -0.30168 -0.74256 254 254 254
0.34772 -0.30545 -0.73784 254 254 254
0.35451 -0.30922 -0.73314 254 254 254
0.36129 -0.31299 -0.72844 254 254 254
0.36807 -0.31675 -0.72374 254 254 254
0.37484 -0.32051 -0.71905 254 254 254
0.38161 -0.32426 -0.71436 254 254 254
0.38837 -0.32801 -0.70968 254 254 254
0.39511 -0.33176 -0.70500 254 254 254
0.40186 -0.33550 -0.70033 254 254 254
0.40859 -0.33924 -0.69566 254 254 254
0.41532 -0.34297 -0.69100 254 254 254
0.42204 -0.34670 -0.68634 254 254 254
0.42876 -0.35042 -0.68169 254 254 254
0.43546 -0.35415 -0.67704 254 254 254
0.44216 -0.35787 -0.67240 254 254 254
0.44886 -0.36158 -0.66776 254 254 254
0.45554 -0.36529 -0.66313 254 254 254
0.46222 -0.36900 -0.65850 254 254 254
0.46889 -0.37270 -0.65388 254 254 254
0.47556 -0.37640 -0.64926 254 254 254
0.48222 -0.38009 -0.64465 254 254 254
0.48887 -0.38378 -0.64004 254 254 254
0.49551 -0.38747 -0.63544 254 254 254
0.50215 -0.39115 -0.63084 254 254 254
0.50878 -0.39483 -0.62625 254 254 254
0.51540 -0.39851 -0.62166 254 254 254
0.52202 -0.40218 -0.61707 254 254 254
0.52863 -0.40585 -0.61249 254 254 254
0.53523 -0.40951 -0.60792 254 254 254
0.54182 -0.41317 -0.60335 254 254 254
0.54841 -0.41683 -0.59879 254 254 254
0.55499 -0.42048 -0.59423 254 254 254
0.56157 -0.42413 -0.58967 254 254 254
0.56813 -0.42777 -0.58512 254 254 254
0.57469 -0.43141 -0.58057 254 254 254
0.58125 -0.43505 -0.57603 254 254 254
0.32539 -0.30760 -0.74008 254 253 254
0.33217 -0.31135 -0.73539 254 254 254
0.33894 -0.31510 -0.73070 254 254 254
0.34571 -0.31885 -0.72602 254 254 254
0.35248 -0.32260 -0.72134 254 254 254
0.35923 -0.32634 -0.71666 254 254 254
0.36598 -0.33008 -0.71200 254 254 254
0.37272 -0.33381 -0.70733 254 254 254
0.37945 -0.33754 -0.70267 254 254 254
0.38618 -0.34126 -0.69802 254 254 254
0.39290 -0.34498 -0.69337 254 254 254
0.39961 -0.34870 -0.68873 254 254 254
0.40631 -0.35241 -0.68409 254 254 254
0.41301 -0.35612 -0.67946 254 254 254
0.41970 -0.35983 -0.67483 254 254 254
0.42639 -0.36353 -0.67020 254 254 254
0.43306 -0.36723 -0.66558 254 254 254
0.43973 -0.37092 -0.66097 254 254 254
0.44639 -0.37461 -0.65636 254 254 254
0.45305 -0.37830 -0.65176 254 254 254
0.45970 -0.38198 -0.64716 254 254 254
0.46634 -0.38566 -0.64256 254 254 254
0.47298 -0.38933 -0.63797 254 254 254
0.47960 -0.39300 -0.63338 254 254 254
0.48622 -0.39667 -0.62880 254 254 254
0.49284 -0.40033 -0.62423 254 254 254
0.49944 -0.40399 -0.61966 254 254 254
0.50604 -0.40765 -0.61509 254 254 254
0.51264 -0.41130 -0.61053 254 254 254
0.51922 -0.41494 -0.60597 254 254 254
0.52580 -0.41859 -0.60142 254 254 254
0.53238 -0.42223 -0.59687 254 254 254
0.53894 -0.42586 -0.59233 254 254 254
0.54550 -0.42950 -0.58779 254 254 254
0.55205 -0.43313 -0.58326 254 254 254
0.55860 -0.43675 -0.57873 254 254 254
0.56514 -0.44037 -0.57421 254 254 254
0.31674 -0.31721 -0.73295 253 253 253
0.32350 -0.32095 -0.72828 253 253 253
0.33025 -0.32468 -0.72361 253 253 254
0.33699 -0.32841 -0.71895 254 254 254
0.34373 -0.33213 -0.71430 254 254 254
0.35046 -0.33585 -0.70965 254 254 254
0.35719 -0.33957 -0.70500 254 254 254
0.36390 -0.34328 -0.70036 254 254 254
0.37061 -0.34699 -0.69573 254 254 254
0.37731 -0.35069 -0.69110 254 254 254
0.38401 -0.35439 -0.68647 254 254 254
0.39070 -0.35809 -0.68185 254 254 254
0.39738 -0.36178 -0.67724 254 254 254
0.40405 -0.36547 -0.67263 254 254 254
0.41072 -0.36915 -0.66802 254 254 254
0.41738 -0.37283 -0.66342 254 254 254
0.42404 -0.37651 -0.65882 254 254 254
0.43068 -0.38019 -0.65423 254 254 254
0.43732 -0.38385 -0.64964 254 254 254
0.44395 -0.38752 -0.64506 254 254 254
0.45058 -0.39118 -0.64048 254 254 254
0.45720 -0.39484 -0.63591 254 254 254
0.46381 -0.39849 -0.63134 254 254 254
0.47042 -0.40215 -0.62678 254 254 254
0.47701 -0.40579 -0.62222 254 254 254
0.48361 -0.40943 -0.61767 254 254 254
0.49019 -0.41307 -0.61312 254 254 254
0.49677 -0.41671 -0.60858 254 254 254
0.50334 -0.42034 -0.60404 254 254 254
0.50990 -0.42397 -0.59950 254 254 254
0.51646 -0.42759 -0.59497 254 254 254
0.52301 -0.43121 -0.59045 254 254 254
0.52955 -0.43483 -0.58593 254 254 254
0.53609 -0.43844 -0.58141 254 254 254
0.54262 -0.44205 -0.57690 254 254 254
0.54914 -0.44566 -0.57240 254 254 254
0.55566 -0.44926 -0.56789 254 254 254
0.30142 -0.32302 -0.73053 253 253 253
0.30816 -0.32674 -0.72588 253 253 253
0.31490 -0.33046 -0.72123 253 253 253
0.32162 -0.33417 -0.71659 253 253 253
0.32834 -0.33788 -0.71195 254 253 254
0.33506 -0.34158 -0.70732 254 254 254
0.34177 -0.34528 -0.70269 254 254 254
0.34847 -0.34897 -0.69807 254 254 254
0.35516 -0.35267 -0.69345 254 254 254
0.36185 -0.35635 -0.68884 254 254 254
0.36853 -0.36004 -0.68423 254 254 254
0.37520 -0.36372 -0.67963 254 254 254
0.38186 -0.36739 -0.67503 254 254 254
0.38852 -0.37107 -0.67044 254 254 254
0.39517 -0.37474 -0.66585 254 254 254
0.40182 -0.37840 -0.66127 254 254 254
0.40845 -0.38206 -0.65669 254 254 254
0.41508 -0.38572 -0.65212 254 254 254
0.42171 -0.38937 -0.64755 254 254 254
0.42832 -0.39302 -0.64298 254 254 254
0.43493 -0.39667 -0.63842 254 254 254
0.44154 -0.40031 -0.63387 254 254 254
0.44813 -0.40395 -0.62932 254 254 254
0.45472 -0.40758 -0.62477 254 254 254
0.46130 -0.41121 -0.62023 254 254 254
0.46788 -0.41484 -0.61570 254 254 254
0.47445 -0.41846 -0.61117 254 254 254
0.48101 -0.42208 -0.60664 254 254 254
0.48757 -0.42570 -0.60212 254 254 254
0.49411 -0.42931 -0.59760 254 254 254
0.50066 -0.43292 -0.59309 254 254 254
0.50719 -0.43652 -0.58858 254 254 254
0.51372 -0.44012 -0.58408 254 254 254
0.52024 -0.44372 -0.57958 254 254 254
0.52675 -0.44731 -0.57509 254 254 254
0.53326 -0.45090 -0.57060 254 254 254
0.53976 -0.45449 -0.56611 254 254 254
0.54626 -0.45807 -0.56163 254 254 254
0.28621 -0.32880 -0.72812 253 253 253
0.29294 -0.33250 -0.72349 253 253 253
0.29966 -0.33620 -0.71886 253 253 253
0.30637 -0.33989 -0.71424 253 253 253
0.31307 -0.34358 -0.70962 253 253 253
0.31977 -0.34727 -0.70501 253 253 253
0.32646 -0.35095 -0.70040 253 253 253
0.33314 -0.35463 -0.69579 253 253 254
0.33982 -0.35831 -0.69120 254 254 254
0.34649 -0.36198 -0.68660 254 254 254
0.35315 -0.36565 -0.68201 254 254 254
0.35981 -0.36931 -0.67743 254 254 254
0.36646 -0.37297 -0.67285 254 254 254
0.37310 -0.37663 -0.66827 254 254 254
0.37974 -0.38028 -0.66370 254 254 254
0.38636 -0.38393 -0.65914 254 254 254
0.39299 -0.38757 -0.65458 254 254 254
0.39960 -0.39121 -0.65002 254 254 254
0.40621 -0.39485 -0.64547 254 254 254
0.41281 -0.39848 -0.64092 254 254 254
0.41940 -0.40211 -0.63638 254 254 254
0.42599 -0.40574 -0.63184 254 254 254
0.43257 -0.40936 -0.62731 254 254 254
0.43914 -0.41298 -0.62278 254 254 254
0.44571 -0.41659 -0.61826 254 254 254
0.45227 -0.42020 -0.61374 254 254 254
0.45882 -0.42381 -0.60923 254 254 254
0.46537 -0.42742 -0.60472 254 254 254
0.47191 -0.43102 -0.60021 254 254 254
0.47844 -0.43461 -0.59571 254 254 254
0.48497 -0.43820 -0.59122 254 254 254
0.49149 -0.44179 -0.58673 254 254 254
0.49800 -0.44538 -0.58224 254 254 254
0.50450 -0.44896 -0.57776 254 254 254
0.51100 -0.45254 -0.57328 254 254 254
0.51750 -0.45611 -0.56881 254 254 254
0.52398 -0.45968 -0.56435 254 254 254
0.53046 -0.46325 -0.55988 254 254 254
0.53693 -0.46681 -0.55542 254 254 254
0.27111 -0.33453 -0.72574 252 252 252
0.27782 -0.33821 -0.72112 252 252 253
0.28453 -0.34189 -0.71651 253 253 253
0.29122 -0.34557 -0.71191 253 253 253
0.29791 -0.34925 -0.70731 253 253 253
0.30459 -0.35292 -0.70271 253 253 253
0.31127 -0.35658 -0.69812 253 253 253
0.31793 -0.36025 -0.69353 253 253 253
0.32459 -0.36391 -0.68895 253 253 253
0.33125 -0.36756 -0.68438 254 253 254
0.33789 -0.37121 -0.67981 254 254 254
0.34453 -0.37486 -0.67524 254 254 254
0.35117 -0.37850 -0.67068 254 254 254
0.35779 -0.38214 -0.66612 254 254 254
0.36441 -0.38578 -0.66157 254 254 254
0.37102 -0.38941 -0.65702 254 254 254
0.37763 -0.39304 -0.65248 254 254 254
0.38423 -0.39667 -0.64794 254 254 254
0.39082 -0.40029 -0.64340 254 254 254
0.39740 -0.40391 -0.63887 254 254 254
0.40398 -0.40752 -0.63435 254 254 254
0.41055 -0.41113 -0.62983 254 254 254
0.41712 -0.41474 -0.62531 254 254 254
0.42368 -0.41834 -0.62080 254 254 254
0.43023 -0.42194 -0.61630 254 254 254
0.43677 -0.42553 -0.61180 254 254 254
0.44331 -0.42912 -0.60730 254 254 254
0.44984 -0.43271 -0.60281 254 254 254
0.45636 -0.43630 -0.59832 254 254 254
0.46288 -0.43988 -0.59384 254 254 254
0.46939 -0.44345 -0.58936 254 254 254
0.47589 -0.44703 -0.58489 254 254 254
0.48239 -0.45059 -0.58042 254 254 254
0.48888 -0.45416 -0.57595 254 254 254
0.49537 -0.45772 -0.57149 254 254 254
0.50184 -0.46128 -0.56704 254 254 254
0.50831 -0.46484 -0.56259 254 254 254
0.51478 -0.46839 -0.55814 254 254 254
0.52123 -0.47193 -0.55370 254 254 254
0.24943 -0.33654 -0.72797 252 252 252
0.25613 -0.34021 -0.72337 252 252 252
0.26282 -0.34388 -0.71877 252 252 252
0.26951 -0.34755 -0.71418 252 252 252
0.27619 -0.35121 -0.70959 252 252 253
0.28286 -0.35487 -0.70501 253 253 253
0.28952 -0.35852 -0.70043 253 253 253
0.29618 -0.36217 -0.69586 253 253 253
0.30283 -0.36582 -0.69129 253 253 253
0.30948 -0.36946 -0.68673 253 253 253
0.31611 -0.37310 -0.68217 253 253 253
0.32274 -0.37674 -0.67762 253 253 253
0.32937 -0.38037 -0.67307 253 253 253
0.33598 -0.38400 -0.66852 254 253 254
0.34259 -0.38762 -0.66398 254 254 254
0.34920 -0.39124 -0.65945 254 254 254
0.35579 -0.39486 -0.65492 254 254 254
0.36238 -0.39847 -0.65039 254 254 254
0.36896 -0.40208 -0.64587 254 254 254
0.37554 -0.40569 -0.64135 254 254 254
0.38211 -0.40929 -0.63684 254 254 254
0.38867 -0.41289 -0.63233 254 254 254
0.39523 -0.41648 -0.62783 254 254 254
0.40178 -0.42007 -0.62333 254 254 254
0.40832 -0.42366 -0.61884 254 254 254
0.41485 -0.42724 -0.61435 254 254 254
0.42138 -0.43082 -0.60987 254 254 254
0.42790 -0.43440 -0.60539 254 254 254
0.43442 -0.43797 -0.60091 254 254 254
0.44093 -0.44154 -0.59644 254 254 254
0.44743 -0.44510 -0.59198 254 254 254
0.45393 -0.44866 -0.58752 254 254 254
0.46041 -0.45222 -0.58306 254 254 254
