ply
format ascii 1.0
element face 0
property list uchar int vertex_indices
element vertex 1256
property float x
property float y
property float z
property uchar diffuse_red
property uchar diffuse_green
property uchar diffuse_blue
end_header
0.87219 -0.68791 -0.29464 254 254 254
0.87868 -0.69203 -0.29049 254 254 254
0.88516 -0.69614 -0.28635 254 254 254
0.89164 -0.70025 -0.28220 254 254 254
0.89812 -0.70435 -0.27806 254 254 254
0.90459 -0.70846 -0.27392 254 254 254
0.91107 -0.71256 -0.26978 254 254 254
0.91754 -0.71666 -0.26564 254 254 254
0.92400 -0.72076 -0.26151 254 254 254
0.93046 -0.72486 -0.25738 254 254 254
0.93693 -0.72896 -0.25324 254 254 254
0.94338 -0.73305 -0.24911 254 254 254
0.94984 -0.73714 -0.24499 254 254 254
0.95629 -0.74123 -0.24086 254 254 254
0.96274 -0.74532 -0.23673 254 254 254
0.96919 -0.74941 -0.23261 254 254 254
0.97563 -0.75350 -0.22849 254 254 254
0.98207 -0.75758 -0.22437 254 254 254
0.98851 -0.76166 -0.22025 254 254 254
0.99495 -0.76574 -0.21614 254 254 254
1.00138 -0.76982 -0.21202 254 254 254
1.00781 -0.77390 -0.20791 254 254 254
1.01424 -0.77797 -0.20380 254 254 254
1.02066 -0.78205 -0.19969 254 254 254
1.02708 -0.78612 -0.19559 254 254 254
1.03350 -0.79019 -0.19148 254 254 254
1.03992 -0.79426 -0.18738 254 254 254
1.04633 -0.79832 -0.18328 254 254 254
1.05274 -0.80239 -0.17918 254 254 254
1.05915 -0.80645 -0.17508 254 254 254
1.06555 -0.81051 -0.17098 254 254 254
1.07196 -0.81457 -0.16689 254 254 254
1.07836 -0.81863 -0.16279 254 254 254
1.08475 -0.82268 -0.15870 254 254 254
1.09115 -0.82674 -0.15461 254 254 254
1.09754 -0.83079 -0.15053 254 254 254
1.10393 -0.83484 -0.14644 254 254 254
0.63361 -0.55135 -0.43510 254 254 254
0.64017 -0.55550 -0.43090 254 254 254
0.64672 -0.55966 -0.42671 254 254 254
0.65328 -0.56381 -0.42252 254 254 254
0.65983 -0.56796 -0.41833 254 254 254
0.66638 -0.57211 -0.41415 254 254 254
0.67293 -0.57626 -0.40996 254 254 254
0.67947 -0.58040 -0.40578 254 254 254
0.68601 -0.58455 -0.40160 254 254 254
0.69255 -0.58869 -0.39742 254 254 254
0.69908 -0.59283 -0.39325 254 254 254
0.70562 -0.59697 -0.38907 254 254 254
0.71215 -0.60111 -0.38490 254 254 254
0.71867 -0.60524 -0.38073 254 254 254
0.72520 -0.60937 -0.37656 254 254 254
0.73172 -0.61350 -0.37239 254 254 254
0.73824 -0.61763 -0.36822 254 254 254
0.74475 -0.62176 -0.36406 254 254 254
0.75126 -0.62589 -0.35990 254 254 254
0.75777 -0.63001 -0.35574 254 254 254
0.76428 -0.63413 -0.35158 254 254 254
0.77078 -0.63826 -0.34742 254 254 254
0.77729 -0.64237 -0.34327 254 254 254
0.78378 -0.64649 -0.33911 254 254 254
0.79028 -0.65061 -0.33496 254 254 254
0.79677 -0.65472 -0.33081 254 254 254
0.80326 -0.65883 -0.32666 254 254 254
0.80975 -0.66294 -0.32252 254 254 254
0.81624 -0.66705 -0.31837 254 254 254
0.82272 -0.67116 -0.31423 254 254 254
0.82920 -0.67526 -0.31009 254 254 254
0.83567 -0.67936 -0.30595 254 254 254
0.84215 -0.68347 -0.30181 254 254 254
0.84862 -0.68756 -0.29768 254 254 254
0.85508 -0.69166 -0.29354 254 254 254
0.86155 -0.69576 -0.28941 254 254 254
0.86801 -0.69985 -0.28528 254 254 254
0.87447 -0.70394 -0.28115 254 254 254
0.88093 -0.70804 -0.27702 254 254 254
0.88738 -0.71212 -0.27290 254 254 254
0.89383 -0.71621 -0.26878 254 254 254
0.90028 -0.72030 -0.26466 254 254 254
0.90673 -0.72438 -0.26054 254 254 254
0.91317 -0.72846 -0.25642 254 254 254
0.91961 -0.73254 -0.25230 254 254 254
0.92605 -0.73662 -0.24819 254 254 254
0.93248 -0.74070 -0.24408 254 254 254
0.93891 -0.74477 -0.23996 254 254 254
0.94534 -0.74884 -0.23586 254 254 254
0.95177 -0.75292 -0.23175 254 254 254
0.95819 -0.75699 -0.22764 254 254 254
0.96461 -0.76105 -0.22354 254 254 254
0.97103 -0.76512 -0.21944 254 254 254
0.97745 -0.76918 -0.21534 254 254 254
0.98386 -0.77325 -0.21124 254 254 254
0.99027 -0.77731 -0.20714 254 254 254
0.99668 -0.78137 -0.20305 254 254 254
1.00308 -0.78542 -0.19895 254 254 254
1.00948 -0.78948 -0.19486 254 254 254
1.01588 -0.79353 -0.19077 254 254 254
1.02228 -0.79759 -0.18668 254 254 254
1.02867 -0.80164 -0.18260 254 254 254
1.03506 -0.80569 -0.17851 254 254 254
1.04145 -0.80973 -0.17443 254 254 254
1.04784 -0.81378 -0.17035 254 254 254
1.05422 -0.81782 -0.16627 254 254 254
1.06060 -0.82186 -0.16219 254 254 254
1.06697 -0.82590 -0.15812 254 254 254
1.07335 -0.82994 -0.15404 254 254 254
1.07972 -0.83398 -0.14997 254 254 254
1.08609 -0.83801 -0.14590 254 254 254
1.09246 -0.84205 -0.14183 254 254 254
1.09882 -0.84608 -0.13776 254 254 254
0.62387 -0.55976 -0.42929 254 254 254
0.63041 -0.56390 -0.42511 254 254 254
0.63694 -0.56804 -0.42094 254 254 254
0.64347 -0.57217 -0.41677 254 254 254
0.65000 -0.57630 -0.41260 254 254 254
0.65653 -0.58043 -0.40843 254 254 254
0.66305 -0.58456 -0.40426 254 254 254
0.66957 -0.58869 -0.40010 254 254 254
0.67609 -0.59282 -0.39594 254 254 254
0.68260 -0.59694 -0.39178 254 254 254
0.68911 -0.60106 -0.38762 254 254 254
0.69562 -0.60518 -0.38346 254 254 254
0.70213 -0.60930 -0.37930 254 254 254
0.70863 -0.61342 -0.37515 254 254 254
0.71513 -0.61753 -0.37100 254 254 254
0.72163 -0.62165 -0.36685 254 254 254
0.72812 -0.62576 -0.36270 254 254 254
0.73461 -0.62987 -0.35855 254 254 254
0.74110 -0.63397 -0.35441 254 254 254
0.74759 -0.63808 -0.35027 254 254 254
0.75407 -0.64218 -0.34613 254 254 254
0.76055 -0.64629 -0.34199 254 254 254
0.76703 -0.65039 -0.33785 254 254 254
0.77350 -0.65449 -0.33371 254 254 254
0.77998 -0.65858 -0.32958 254 254 254
0.78645 -0.66268 -0.32545 254 254 254
0.79291 -0.66677 -0.32132 254 254 254
0.79938 -0.67087 -0.31719 254 254 254
0.80584 -0.67496 -0.31306 254 254 254
0.81230 -0.67905 -0.30893 254 254 254
0.81875 -0.68313 -0.30481 254 254 254
0.82521 -0.68722 -0.30069 254 254 254
0.83166 -0.69130 -0.29657 254 254 254
0.83810 -0.69538 -0.29245 254 254 254
0.84455 -0.69946 -0.28834 254 254 254
0.85099 -0.70354 -0.28422 254 254 254
0.85743 -0.70762 -0.28011 254 254 254
0.86386 -0.71169 -0.27600 254 254 254
0.87030 -0.71576 -0.27189 254 254 254
0.87673 -0.71983 -0.26778 254 254 254
0.88316 -0.72390 -0.26367 254 254 254
0.88958 -0.72797 -0.25957 254 254 254
0.89600 -0.73204 -0.25547 254 254 254
0.90242 -0.73610 -0.25137 254 254 254
0.90884 -0.74016 -0.24727 254 254 254
0.91526 -0.74422 -0.24317 254 254 254
0.92167 -0.74828 -0.23908 254 254 254
0.92808 -0.75234 -0.23498 254 254 254
0.93448 -0.75640 -0.23089 254 254 254
0.94089 -0.76045 -0.22680 254 254 254
0.94729 -0.76450 -0.22271 254 254 254
0.95368 -0.76855 -0.21863 254 254 254
0.96008 -0.77260 -0.21454 254 254 254
0.96647 -0.77665 -0.21046 254 254 254
0.97286 -0.78069 -0.20638 254 254 254
0.97925 -0.78474 -0.20230 254 254 254
0.98563 -0.78878 -0.19822 254 254 254
0.99202 -0.79282 -0.19414 254 254 254
0.99839 -0.79686 -0.19007 254 254 254
1.00477 -0.80089 -0.18600 254 254 254
1.01114 -0.80493 -0.18193 254 254 254
1.01751 -0.80896 -0.17786 254 254 254
1.02388 -0.81299 -0.17379 254 254 254
1.03025 -0.81702 -0.16972 254 254 254
1.03661 -0.82105 -0.16566 254 254 254
1.04297 -0.82507 -0.16160 254 254 254
1.04933 -0.82910 -0.15754 254 254 254
1.05568 -0.83312 -0.15348 254 254 254
1.06203 -0.83714 -0.14942 254 254 254
1.06838 -0.84116 -0.14537 254 254 254
1.07473 -0.84518 -0.14131 254 254 254
1.08107 -0.84920 -0.13726 254 254 254
1.08741 -0.85321 -0.13321 254 254 254
1.09375 -0.85722 -0.12916 254 254 254
0.60770 -0.56399 -0.42769 254 254 254
0.61421 -0.56811 -0.42353 254 254 254
0.62073 -0.57223 -0.41937 254 254 254
0.62724 -0.57635 -0.41521 254 254 254
0.63374 -0.58046 -0.41106 254 254 254
0.64025 -0.58458 -0.40691 254 254 254
0.64675 -0.58869 -0.40276 254 254 254
0.65325 -0.59280 -0.39861 254 254 254
0.65975 -0.59691 -0.39446 254 254 254
0.66624 -0.60102 -0.39032 254 254 254
0.67273 -0.60512 -0.38617 254 254 254
0.67922 -0.60923 -0.38203 254 254 254
0.68570 -0.61333 -0.37789 254 254 254
0.69218 -0.61743 -0.37375 254 254 254
0.69866 -0.62153 -0.36962 254 254 254
0.70514 -0.62563 -0.36548 254 254 254
0.71161 -0.62972 -0.36135 254 254 254
0.71809 -0.63382 -0.35722 254 254 254
0.72455 -0.63791 -0.35309 254 254 254
0.73102 -0.64200 -0.34897 254 254 254
0.73748 -0.64609 -0.34484 254 254 254
0.74394 -0.65017 -0.34072 254 254 254
0.75040 -0.65426 -0.33659 254 254 254
0.75685 -0.65834 -0.33247 254 254 254
0.76331 -0.66242 -0.32836 254 254 254
0.76975 -0.66650 -0.32424 254 254 254
0.77620 -0.67058 -0.32012 254 254 254
0.78264 -0.67465 -0.31601 254 254 254
0.78909 -0.67873 -0.31190 254 254 254
0.79552 -0.68280 -0.30779 254 254 254
0.80196 -0.68687 -0.30368 254 254 254
0.80839 -0.69094 -0.29958 254 254 254
0.81482 -0.69501 -0.29547 254 254 254
0.82125 -0.69907 -0.29137 254 254 254
0.82767 -0.70314 -0.28727 254 254 254
0.83409 -0.70720 -0.28317 254 254 254
0.84051 -0.71126 -0.27907 254 254 254
0.84693 -0.71532 -0.27498 254 254 254
0.85334 -0.71938 -0.27088 254 254 254
0.85975 -0.72343 -0.26679 254 254 254
0.86616 -0.72748 -0.26270 254 254 254
0.87256 -0.73154 -0.25861 254 254 254
0.87897 -0.73559 -0.25452 254 254 254
0.88537 -0.73963 -0.25044 254 254 254
0.89176 -0.74368 -0.24636 254 254 254
0.89816 -0.74773 -0.24227 254 254 254
0.90455 -0.75177 -0.23819 254 254 254
0.91094 -0.75581 -0.23412 254 254 254
0.91732 -0.75985 -0.23004 254 254 254
0.92371 -0.76389 -0.22597 254 254 254
0.93009 -0.76792 -0.22189 254 254 254
0.93647 -0.77196 -0.21782 254 254 254
0.94284 -0.77599 -0.21375 254 254 254
0.94921 -0.78002 -0.20968 254 254 254
0.95558 -0.78405 -0.20562 254 254 254
0.96195 -0.78808 -0.20155 254 254 254
0.96831 -0.79211 -0.19749 254 254 254
0.97468 -0.79613 -0.19343 254 254 254
0.98103 -0.80015 -0.18937 254 254 254
0.98739 -0.80417 -0.18531 254 254 254
0.99374 -0.80819 -0.18126 254 254 254
1.00010 -0.81221 -0.17720 254 254 254
1.00644 -0.81623 -0.17315 254 254 254
1.01279 -0.82024 -0.16910 254 254 254
1.01913 -0.82425 -0.16505 254 254 254
1.02547 -0.82826 -0.16100 254 254 254
1.03181 -0.83227 -0.15696 254 254 254
1.03814 -0.83628 -0.15292 254 254 254
1.04448 -0.84028 -0.14887 254 254 254
1.05081 -0.84429 -0.14483 254 254 254
1.05713 -0.84829 -0.14079 254 254 254
1.06346 -0.85229 -0.13676 254 254 254
1.06978 -0.85629 -0.13272 254 254 254
1.07610 -0.86029 -0.12869 254 254 254
1.08241 -0.86428 -0.12466 254 254 254
1.08872 -0.86827 -0.12063 254 254 254
0.59814 -0.57229 -0.42195 254 254 254
0.60463 -0.57639 -0.41781 254 254 254
0.61112 -0.58049 -0.41367 254 254 254
0.61761 -0.58459 -0.40953 254 254 254
0.62409 -0.58869 -0.40540 254 254 254
0.63057 -0.59279 -0.40126 254 254 254
0.63705 -0.59688 -0.39713 254 254 254
0.64353 -0.60098 -0.39300 254 254 254
0.65000 -0.60507 -0.38887 254 254 254
0.65647 -0.60916 -0.38474 254 254 254
0.66294 -0.61324 -0.38062 254 254 254
0.66940 -0.61733 -0.37649 254 254 254
0.67586 -0.62142 -0.37237 254 254 254
0.68232 -0.62550 -0.36825 254 254 254
0.68878 -0.62958 -0.36413 254 254 254
0.69523 -0.63366 -0.36001 254 254 254
0.70168 -0.63774 -0.35590 254 254 254
0.70813 -0.64181 -0.35178 254 254 254
0.71457 -0.64588 -0.34767 254 254 254
0.72102 -0.64996 -0.34356 254 254 254
0.72746 -0.65403 -0.33946 254 254 254
0.73389 -0.65810 -0.33535 254 254 254
0.74033 -0.66216 -0.33124 254 254 254
0.74676 -0.66623 -0.32714 254 254 254
0.75319 -0.67029 -0.32304 254 254 254
0.75961 -0.67435 -0.31894 254 254 254
0.76604 -0.67841 -0.31484 254 254 254
0.77246 -0.68247 -0.31075 254 254 254
0.77887 -0.68653 -0.30665 254 254 254
0.78529 -0.69058 -0.30256 254 254 254
0.79170 -0.69464 -0.29847 254 254 254
0.79811 -0.69869 -0.29438 254 254 254
0.80452 -0.70274 -0.29029 254 254 254
0.81092 -0.70679 -0.28621 254 254 254
0.81732 -0.71083 -0.28213 254 254 254
0.82372 -0.71488 -0.27804 254 254 254
0.83012 -0.71892 -0.27396 254 254 254
0.83651 -0.72296 -0.26988 254 254 254
0.84290 -0.72700 -0.26581 254 254 254
0.84929 -0.73104 -0.26173 254 254 254
0.85567 -0.73507 -0.25766 254 254 254
0.86206 -0.73911 -0.25359 254 254 254
0.86843 -0.74314 -0.24952 254 254 254
0.87481 -0.74717 -0.24545 254 254 254
0.88119 -0.75120 -0.24138 254 254 254
0.88756 -0.75523 -0.23732 254 254 254
0.89393 -0.75925 -0.23326 254 254 254
0.90029 -0.76328 -0.22920 254 254 254
0.90666 -0.76730 -0.22514 254 254 254
0.91302 -0.77132 -0.22108 254 254 254
0.91937 -0.77534 -0.21702 254 254 254
0.92573 -0.77936 -0.21297 254 254 254
0.93208 -0.78337 -0.20892 254 254 254
0.93843 -0.78739 -0.20486 254 254 254
0.94478 -0.79140 -0.20082 254 254 254
0.95112 -0.79541 -0.19677 254 254 254
0.95746 -0.79942 -0.19272 254 254 254
0.96380 -0.80342 -0.18868 254 254 254
0.97014 -0.80743 -0.18464 254 254 254
0.97647 -0.81143 -0.18059 254 254 254
0.98281 -0.81544 -0.17656 254 254 254
0.98913 -0.81944 -0.17252 254 254 254
0.99546 -0.82343 -0.16848 254 254 254
1.00178 -0.82743 -0.16445 254 254 254
1.00810 -0.83143 -0.16042 254 254 254
1.01442 -0.83542 -0.15639 254 254 254
1.02074 -0.83941 -0.15236 254 254 254
1.02705 -0.84340 -0.14833 254 254 254
1.03336 -0.84739 -0.14431 254 254 254
1.03966 -0.85138 -0.14028 254 254 254
1.04597 -0.85536 -0.13626 254 254 254
1.05227 -0.85935 -0.13224 254 254 254
1.05857 -0.86333 -0.12822 254 254 254
1.06487 -0.86731 -0.12421 254 254 254
1.07116 -0.87129 -0.12019 254 254 254
1.07745 -0.87526 -0.11618 254 254 254
1.08374 -0.87924 -0.11217 254 254 254
0.58866 -0.58052 -0.41626 254 254 254
0.59513 -0.58461 -0.41214 254 254 254
0.60159 -0.58869 -0.40802 254 254 254
0.60806 -0.59277 -0.40390 254 254 254
0.61452 -0.59685 -0.39978 254 254 254
0.62098 -0.60093 -0.39566 254 254 254
0.62743 -0.60501 -0.39154 254 254 254
0.63388 -0.60909 -0.38743 254 254 254
0.64033 -0.61316 -0.38332 254 254 254
0.64678 -0.61723 -0.37921 254 254 254
0.65322 -0.62130 -0.37510 254 254 254
0.65966 -0.62537 -0.37099 254 254 254
0.66610 -0.62944 -0.36689 254 254 254
0.67254 -0.63350 -0.36279 254 254 254
0.67897 -0.63756 -0.35868 254 254 254
0.68540 -0.64163 -0.35458 254 254 254
0.69183 -0.64569 -0.35049 254 254 254
0.69825 -0.64974 -0.34639 254 254 254
0.70467 -0.65380 -0.34230 254 254 254
0.71109 -0.65785 -0.33820 254 254 254
0.71751 -0.66191 -0.33411 254 254 254
0.72392 -0.66596 -0.33002 254 254 254
0.73033 -0.67001 -0.32594 254 254 254
0.73674 -0.67406 -0.32185 254 254 254
0.74315 -0.67810 -0.31777 254 254 254
0.74955 -0.68215 -0.31368 254 254 254
0.75595 -0.68619 -0.30960 254 254 254
0.76235 -0.69023 -0.30553 254 254 254
0.76874 -0.69427 -0.30145 254 254 254
0.77513 -0.69831 -0.29737 254 254 254
0.78152 -0.70234 -0.29330 254 254 254
0.78791 -0.70638 -0.28923 254 254 254
0.79429 -0.71041 -0.28516 254 254 254
0.80068 -0.71444 -0.28109 254 254 254
0.80705 -0.71847 -0.27702 254 254 254
0.81343 -0.72249 -0.27296 254 254 254
0.81980 -0.72652 -0.26889 254 254 254
0.82617 -0.73054 -0.26483 254 254 254
0.83254 -0.73457 -0.26077 254 254 254
0.83891 -0.73859 -0.25672 254 254 254
0.84527 -0.74261 -0.25266 254 254 254
0.85163 -0.74662 -0.24860 254 254 254
0.85798 -0.75064 -0.24455 254 254 254
0.86434 -0.75465 -0.24050 254 254 254
0.87069 -0.75866 -0.23645 254 254 254
0.87704 -0.76267 -0.23240 254 254 254
0.88339 -0.76668 -0.22836 254 254 254
0.88973 -0.77069 -0.22431 254 254 254
0.89607 -0.77469 -0.22027 254 254 254
0.90241 -0.77870 -0.21623 254 254 254
0.90874 -0.78270 -0.21219 254 254 254
0.91508 -0.78670 -0.20815 254 254 254
0.92141 -0.79070 -0.20412 254 254 254
0.92773 -0.79469 -0.20008 254 254 254
0.93406 -0.79869 -0.19605 254 254 254
0.94038 -0.80268 -0.19202 254 254 254
0.94670 -0.80667 -0.18799 254 254 254
0.95302 -0.81066 -0.18396 254 254 254
0.95933 -0.81465 -0.17994 254 254 254
0.96564 -0.81864 -0.17591 254 254 254
0.97195 -0.82262 -0.17189 254 254 254
0.97826 -0.82661 -0.16787 254 254 254
0.98456 -0.83059 -0.16385 254 254 254
0.99086 -0.83457 -0.15983 254 254 254
0.99716 -0.83855 -0.15582 254 254 254
1.00346 -0.84252 -0.15180 254 254 254
1.00975 -0.84650 -0.14779 254 254 254
1.01604 -0.85047 -0.14378 254 254 254
1.02233 -0.85444 -0.13977 254 254 254
1.02861 -0.85841 -0.13577 254 254 254
1.03489 -0.86238 -0.13176 254 254 254
1.04117 -0.86635 -0.12776 254 254 254
1.04745 -0.87031 -0.12376 254 254 254
1.05372 -0.87427 -0.11976 254 254 254
1.06000 -0.87824 -0.11576 254 254 254
1.06626 -0.88220 -0.11176 254 254 254
1.07253 -0.88615 -0.10776 254 254 254
1.07880 -0.89011 -0.10377 254 254 254
0.57925 -0.58869 -0.41062 254 254 254
0.58570 -0.59276 -0.40651 254 254 254
0.59214 -0.59683 -0.40241 254 254 254
0.59858 -0.60089 -0.39830 254 254 254
0.60502 -0.60495 -0.39420 254 254 254
0.61145 -0.60902 -0.39010 254 254 254
0.61788 -0.61307 -0.38600 254 254 254
0.62431 -0.61713 -0.38191 254 254 254
0.63074 -0.62119 -0.37781 254 254 254
0.63716 -0.62524 -0.37372 254 254 254
0.64358 -0.62929 -0.36963 254 254 254
0.65000 -0.63335 -0.36554 254 254 254
0.65641 -0.63739 -0.36145 254 254 254
0.66283 -0.64144 -0.35737 254 254 254
0.66924 -0.64549 -0.35328 254 254 254
0.67564 -0.64953 -0.34920 254 254 254
0.68205 -0.65357 -0.34512 254 254 254
0.68845 -0.65761 -0.34104 254 254 254
0.69485 -0.66165 -0.33696 254 254 254
0.70125 -0.66569 -0.33289 254 254 254
0.70764 -0.66973 -0.32881 254 254 254
0.71403 -0.67376 -0.32474 254 254 254
0.72042 -0.67779 -0.32067 254 254 254
0.72680 -0.68182 -0.31660 254 254 254
0.73319 -0.68585 -0.31253 254 254 254
0.73957 -0.68988 -0.30847 254 254 254
0.74594 -0.69390 -0.30441 254 254 254
0.75232 -0.69793 -0.30034 254 254 254
0.75869 -0.70195 -0.29628 254 254 254
0.76506 -0.70597 -0.29223 254 254 254
0.77143 -0.70999 -0.28817 254 254 254
0.77779 -0.71400 -0.28411 254 254 254
0.78415 -0.71802 -0.28006 254 254 254
0.79051 -0.72203 -0.27601 254 254 254
0.79686 -0.72604 -0.27196 254 254 254
0.80322 -0.73005 -0.26791 254 254 254
0.80957 -0.73406 -0.26387 254 254 254
0.81592 -0.73807 -0.25982 254 254 254
0.82226 -0.74207 -0.25578 254 254 254
0.82860 -0.74608 -0.25174 254 254 254
0.83494 -0.75008 -0.24770 254 254 254
0.84128 -0.75408 -0.24366 254 254 254
0.84762 -0.75808 -0.23962 254 254 254
0.85395 -0.76207 -0.23559 254 254 254
0.86028 -0.76607 -0.23156 254 254 254
0.86660 -0.77006 -0.22752 254 254 254
0.87293 -0.77405 -0.22350 254 254 254
0.87925 -0.77804 -0.21947 254 254 254
0.88557 -0.78203 -0.21544 254 254 254
0.89188 -0.78602 -0.21142 254 254 254
0.89819 -0.79000 -0.20739 254 254 254
0.90451 -0.79398 -0.20337 254 254 254
0.91081 -0.79796 -0.19935 254 254 254
0.91712 -0.80194 -0.19534 254 254 254
0.92342 -0.80592 -0.19132 254 254 254
0.92972 -0.80990 -0.18731 254 254 254
0.93602 -0.81387 -0.18329 254 254 254
0.94231 -0.81785 -0.17928 254 254 254
0.94860 -0.82182 -0.17527 254 254 254
0.95489 -0.82579 -0.17127 254 254 254
0.96118 -0.82975 -0.16726 254 254 254
0.96746 -0.83372 -0.16326 254 254 254
0.97375 -0.83769 -0.15926 254 254 254
0.98002 -0.84165 -0.15525 254 254 254
0.98630 -0.84561 -0.15126 254 254 254
0.99257 -0.84957 -0.14726 254 254 254
0.99885 -0.85353 -0.14326 254 254 254
1.00511 -0.85748 -0.13927 254 254 254
1.01138 -0.86144 -0.13528 254 254 254
1.01764 -0.86539 -0.13129 254 254 254
1.02390 -0.86934 -0.12730 254 254 254
1.03016 -0.87329 -0.12331 254 254 254
1.03642 -0.87724 -0.11932 254 254 254
1.04267 -0.88119 -0.11534 254 254 254
1.04892 -0.88513 -0.11136 254 254 254
1.05517 -0.88908 -0.10738 254 254 254
1.06141 -0.89302 -0.10340 254 254 254
1.06765 -0.89696 -0.09942 254 254 254
1.07389 -0.90090 -0.09544 254 254 254
0.56992 -0.59680 -0.40502 254 254 254
0.57634 -0.60085 -0.40093 254 254 254
0.58276 -0.60490 -0.39684 254 254 254
0.58918 -0.60894 -0.39275 254 254 254
0.59559 -0.61299 -0.38867 254 254 254
0.60200 -0.61703 -0.38459 254 254 254
0.60841 -0.62108 -0.38051 254 254 254
0.61482 -0.62512 -0.37643 254 254 254
0.62122 -0.62915 -0.37235 254 254 254
0.62762 -0.63319 -0.36827 254 254 254
0.63402 -0.63723 -0.36420 254 254 254
0.64041 -0.64126 -0.36013 254 254 254
0.64680 -0.64529 -0.35606 254 254 254
0.65319 -0.64932 -0.35199 254 254 254
0.65958 -0.65335 -0.34792 254 254 254
0.66596 -0.65738 -0.34385 254 254 254
0.67235 -0.66140 -0.33979 254 254 254
0.67873 -0.66542 -0.33573 254 254 254
0.68510 -0.66945 -0.33167 254 254 254
0.69147 -0.67347 -0.32761 254 254 254
0.69785 -0.67748 -0.32355 254 254 254
0.70421 -0.68150 -0.31950 254 254 254
0.71058 -0.68552 -0.31544 254 254 254
0.71694 -0.68953 -0.31139 254 254 254
0.72330 -0.69354 -0.30734 254 254 254
0.72966 -0.69755 -0.30329 254 254 254
0.73601 -0.70156 -0.29925 254 254 254
0.74237 -0.70556 -0.29520 254 254 254
0.74872 -0.70957 -0.29116 254 254 254
0.75506 -0.71357 -0.28712 254 254 254
0.76141 -0.71757 -0.28308 254 254 254
0.76775 -0.72157 -0.27904 254 254 254
0.77409 -0.72557 -0.27500 254 254 254
0.78042 -0.72957 -0.27097 254 254 254
0.78675 -0.73356 -0.26694 254 254 254
0.79309 -0.73755 -0.26290 254 254 254
0.79941 -0.74154 -0.25887 254 254 254
0.80574 -0.74553 -0.25485 254 254 254
0.81206 -0.74952 -0.25082 254 254 254
0.81838 -0.75351 -0.24680 254 254 254
0.82470 -0.75749 -0.24277 254 254 254
0.83101 -0.76148 -0.23875 254 254 254
0.83733 -0.76546 -0.23473 254 254 254
0.84364 -0.76944 -0.23071 254 254 254
0.84994 -0.77341 -0.22670 254 254 254
0.85625 -0.77739 -0.22268 254 254 254
0.86255 -0.78136 -0.21867 254 254 254
0.86885 -0.78534 -0.21466 254 254 254
0.87514 -0.78931 -0.21065 254 254 254
0.88144 -0.79328 -0.20664 254 254 254
0.88773 -0.79725 -0.20264 254 254 254
0.89402 -0.80121 -0.19863 254 254 254
0.90030 -0.80518 -0.19463 254 254 254
0.90658 -0.80914 -0.19063 254 254 254
0.91287 -0.81310 -0.18663 254 254 254
0.91914 -0.81706 -0.18263 254 254 254
0.92542 -0.82102 -0.17864 254 254 254
0.93169 -0.82497 -0.17464 254 254 254
0.93796 -0.82893 -0.17065 254 254 254
0.94423 -0.83288 -0.16666 254 254 254
0.95049 -0.83683 -0.16267 254 254 254
0.95675 -0.84078 -0.15868 254 254 254
0.96301 -0.84473 -0.15469 254 254 254
0.96927 -0.84868 -0.15071 254 254 254
0.97553 -0.85262 -0.14673 254 254 254
0.98178 -0.85656 -0.14275 254 254 254
0.98803 -0.86050 -0.13877 254 254 254
0.99427 -0.86444 -0.13479 254 254 254
1.00052 -0.86838 -0.13081 254 254 254
1.00676 -0.87232 -0.12684 254 254 254
1.01300 -0.87625 -0.12287 254 254 254
1.01923 -0.88019 -0.11890 254 254 254
1.02547 -0.88412 -0.11493 254 254 254
1.03170 -0.88805 -0.11096 254 254 254
1.03792 -0.89198 -0.10699 254 254 254
1.04415 -0.89590 -0.10303 254 254 254
1.05037 -0.89983 -0.09906 254 254 254
1.05659 -0.90375 -0.09510 254 254 254
1.06281 -0.90767 -0.09114 254 254 254
1.06903 -0.91159 -0.08719 254 254 254
0.55425 -0.60081 -0.40353 254 254 254
0.56066 -0.60484 -0.39946 254 254 254
0.56706 -0.60888 -0.39539 254 254 254
0.59901 -0.62902 -0.37505 254 254 254
0.60539 -0.63304 -0.37099 254 254 254
0.61177 -0.63706 -0.36693 254 254 254
0.61815 -0.64108 -0.36287 254 254 254
0.62453 -0.64510 -0.35881 254 254 254
0.63090 -0.64911 -0.35476 254 254 254
0.63727 -0.65313 -0.35070 254 254 254
0.64363 -0.65714 -0.34665 254 254 254
0.65000 -0.66115 -0.34260 254 254 254
0.65636 -0.66516 -0.33855 254 254 254
0.66272 -0.66917 -0.33451 254 254 254
0.66908 -0.67317 -0.33046 254 254 254
0.67543 -0.67718 -0.32642 254 254 254
0.68178 -0.68118 -0.32237 254 254 254
0.68813 -0.68518 -0.31833 254 254 254
0.69447 -0.68918 -0.31430 254 254 254
0.70082 -0.69318 -0.31026 254 254 254
0.70716 -0.69717 -0.30622 254 254 254
0.71349 -0.70117 -0.30219 254 254 254
0.71983 -0.70516 -0.29816 254 254 254
0.72616 -0.70915 -0.29413 254 254 254
0.73249 -0.71314 -0.29010 254 254 254
0.73882 -0.71713 -0.28607 254 254 254
0.74514 -0.72112 -0.28205 254 254 254
0.75146 -0.72510 -0.27803 254 254 254
0.75778 -0.72908 -0.27401 254 254 254
0.76410 -0.73306 -0.26999 254 254 254
0.77041 -0.73704 -0.26597 254 254 254
0.77672 -0.74102 -0.26195 254 254 254
0.78303 -0.74500 -0.25794 254 254 254
0.78934 -0.74897 -0.25392 254 254 254
0.79564 -0.75294 -0.24991 254 254 254
0.80194 -0.75691 -0.24590 254 254 254
0.80824 -0.76088 -0.24189 254 254 254
0.81453 -0.76485 -0.23789 254 254 254
0.82083 -0.76882 -0.23388 254 254 254
0.82712 -0.77278 -0.22988 254 254 254
0.83340 -0.77674 -0.22588 254 254 254
0.83969 -0.78070 -0.22188 254 254 254
0.84597 -0.78466 -0.21788 254 254 254
0.85225 -0.78862 -0.21388 254 254 254
0.85853 -0.79258 -0.20989 254 254 254
0.86480 -0.79653 -0.20590 254 254 254
0.87107 -0.80048 -0.20191 254 254 254
0.87734 -0.80443 -0.19792 254 254 254
0.88361 -0.80838 -0.19393 254 254 254
0.88987 -0.81233 -0.18994 254 254 254
0.89613 -0.81628 -0.18596 254 254 254
0.90239 -0.82022 -0.18197 254 254 254
0.90865 -0.82417 -0.17799 254 254 254
0.91490 -0.82811 -0.17401 254 254 254
0.92115 -0.83205 -0.17003 254 254 254
0.92740 -0.83598 -0.16606 254 254 254
0.93364 -0.83992 -0.16208 254 254 254
0.93989 -0.84385 -0.15811 254 254 254
0.94613 -0.84779 -0.15414 254 254 254
0.95236 -0.85172 -0.15017 254 254 254
0.95860 -0.85565 -0.14620 254 254 254
0.96483 -0.85958 -0.14223 254 254 254
0.97106 -0.86350 -0.13827 254 254 254
0.97729 -0.86743 -0.13431 254 254 254
0.98351 -0.87135 -0.13034 254 254 254
0.98974 -0.87527 -0.12638 254 254 254
0.99596 -0.87919 -0.12243 254 254 254
1.00217 -0.88311 -0.11847 254 254 254
1.00839 -0.88703 -0.11452 254 254 254
1.01460 -0.89094 -0.11056 254 254 254
1.02081 -0.89486 -0.10661 254 254 254
1.02702 -0.89877 -0.10266 254 254 254
1.03322 -0.90268 -0.09871 254 254 254
1.03942 -0.90659 -0.09476 254 254 254
1.04562 -0.91049 -0.09082 254 254 254
1.05182 -0.91440 -0.08688 254 254 254
1.05801 -0.91830 -0.08293 254 254 254
1.06420 -0.92220 -0.07899 254 254 254
0.53871 -0.60479 -0.40206 254 254 254
0.54509 -0.60881 -0.39800 254 254 254
0.55147 -0.61282 -0.39395 254 254 254
0.59604 -0.64090 -0.36559 253 254 254
0.60240 -0.64490 -0.36155 254 254 254
0.60876 -0.64891 -0.35751 254 254 254
0.61511 -0.65291 -0.35347 254 254 254
0.62146 -0.65690 -0.34943 254 254 254
0.62781 -0.66090 -0.34539 254 254 254
0.63415 -0.66490 -0.34136 254 254 254
0.64049 -0.66889 -0.33732 254 254 254
0.64683 -0.67288 -0.33329 254 254 254
0.65317 -0.67687 -0.32926 254 254 254
0.65950 -0.68086 -0.32523 254 254 254
0.66583 -0.68485 -0.32120 254 254 254
0.67216 -0.68884 -0.31718 254 254 254
0.67849 -0.69282 -0.31316 254 254 254
0.68481 -0.69680 -0.30913 254 254 254
0.69113 -0.70078 -0.30511 254 254 254
0.69745 -0.70476 -0.30110 254 254 254
0.70376 -0.70874 -0.29708 254 254 254
0.71007 -0.71272 -0.29306 254 254 254
0.71638 -0.71669 -0.28905 254 254 254
0.72269 -0.72066 -0.28504 254 254 254
0.72900 -0.72463 -0.28103 254 254 254
0.73530 -0.72860 -0.27702 254 254 254
0.74160 -0.73257 -0.27301 254 254 254
0.74789 -0.73653 -0.26901 254 254 254
0.75419 -0.74050 -0.26501 254 254 254
0.76048 -0.74446 -0.26100 254 254 254
0.76677 -0.74842 -0.25700 254 254 254
0.77305 -0.75238 -0.25301 254 254 254
0.77934 -0.75634 -0.24901 254 254 254
0.78562 -0.76029 -0.24501 254 254 254
0.79190 -0.76425 -0.24102 254 254 254
0.79817 -0.76820 -0.23703 254 254 254
0.80445 -0.77215 -0.23304 254 254 254
0.81072 -0.77610 -0.22905 254 254 254
0.81698 -0.78005 -0.22506 254 254 254
0.82325 -0.78399 -0.22108 254 254 254
0.82951 -0.78794 -0.21710 254 254 254
0.83577 -0.79188 -0.21311 254 254 254
0.84203 -0.79582 -0.20913 254 254 254
0.84828 -0.79976 -0.20516 254 254 254
0.85454 -0.80370 -0.20118 254 254 254
0.86079 -0.80763 -0.19720 254 254 254
0.86703 -0.81157 -0.19323 254 254 254
0.87328 -0.81550 -0.18926 254 254 254
0.87952 -0.81943 -0.18529 254 254 254
0.88576 -0.82336 -0.18132 254 254 254
0.89200 -0.82729 -0.17735 254 254 254
0.89823 -0.83122 -0.17339 254 254 254
0.90446 -0.83514 -0.16942 254 254 254
0.91069 -0.83906 -0.16546 254 254 254
0.91692 -0.84299 -0.16150 254 254 254
0.92314 -0.84691 -0.15754 254 254 254
0.92936 -0.85082 -0.15359 254 254 254
0.93558 -0.85474 -0.14963 254 254 254
0.94180 -0.85865 -0.14568 254 254 254
0.94801 -0.86257 -0.14173 254 254 254
0.95422 -0.86648 -0.13778 254 254 254
0.96043 -0.87039 -0.13383 254 254 254
0.96664 -0.87430 -0.12988 254 254 254
0.97284 -0.87821 -0.12593 254 254 254
0.97904 -0.88211 -0.12199 254 254 254
0.98524 -0.88601 -0.11805 254 254 254
0.99143 -0.88992 -0.11411 254 254 254
0.99763 -0.89382 -0.11017 254 254 254
1.00382 -0.89771 -0.10623 254 254 254
1.01000 -0.90161 -0.10229 254 254 254
1.01619 -0.90551 -0.09836 254 254 254
1.02237 -0.90940 -0.09443 254 254 254
1.02855 -0.91329 -0.09050 254 254 254
1.03473 -0.91718 -0.08657 254 254 254
1.04090 -0.92107 -0.08264 254 254 254
1.04708 -0.92496 -0.07871 254 254 254
1.05325 -0.92885 -0.07479 254 254 254
0.52327 -0.60874 -0.40060 254 254 254
0.52963 -0.61274 -0.39656 254 254 254
0.53599 -0.61674 -0.39251 254 254 254
0.54235 -0.62074 -0.38847 254 254 254
0.59310 -0.65269 -0.35621 254 254 254
0.59943 -0.65667 -0.35219 254 254 254
0.60576 -0.66066 -0.34816 254 254 254
0.61209 -0.66464 -0.34414 254 254 254
0.61842 -0.66862 -0.34012 254 254 254
0.62474 -0.67260 -0.33610 254 254 254
0.63106 -0.67657 -0.33208 254 254 254
0.63737 -0.68055 -0.32807 254 254 254
0.64369 -0.68452 -0.32406 254 254 254
0.65000 -0.68849 -0.32004 254 254 254
0.65631 -0.69246 -0.31603 254 254 254
0.66261 -0.69643 -0.31202 254 254 254
0.66892 -0.70040 -0.30802 254 254 254
0.67522 -0.70437 -0.30401 254 254 254
0.68152 -0.70833 -0.30001 254 254 254
0.68781 -0.71229 -0.29601 254 254 254
0.69410 -0.71625 -0.29201 254 254 254
0.70039 -0.72021 -0.28801 254 254 254
0.70668 -0.72417 -0.28401 254 254 254
0.71297 -0.72812 -0.28002 254 254 254
0.71925 -0.73208 -0.27602 254 254 254
0.72553 -0.73603 -0.27203 254 254 254
0.73181 -0.73998 -0.26804 254 254 254
0.73808 -0.74393 -0.26405 254 254 254
0.74435 -0.74788 -0.26006 254 254 254
0.75062 -0.75182 -0.25608 254 254 254
0.75689 -0.75577 -0.25210 254 254 254
0.76315 -0.75971 -0.24811 254 254 254
0.76942 -0.76365 -0.24413 254 254 254
0.77567 -0.76759 -0.24015 254 254 254
0.78193 -0.77153 -0.23618 254 254 254
0.78818 -0.77546 -0.23220 254 254 254
0.79444 -0.77940 -0.22823 254 254 254
0.80068 -0.78333 -0.22426 254 254 254
0.80693 -0.78726 -0.22029 254 254 254
0.81317 -0.79119 -0.21632 254 254 254
0.81941 -0.79512 -0.21235 254 254 254
0.82565 -0.79904 -0.20838 254 254 254
0.83189 -0.80297 -0.20442 254 254 254
0.83812 -0.80689 -0.20046 254 254 254
0.84435 -0.81081 -0.19650 254 254 254
0.85058 -0.81473 -0.19254 254 254 254
0.85681 -0.81865 -0.18858 254 254 254
0.86303 -0.82257 -0.18463 254 254 254
0.86925 -0.82648 -0.18067 254 254 254
0.87547 -0.83039 -0.17672 254 254 254
0.88168 -0.83430 -0.17277 254 254 254
0.88789 -0.83821 -0.16882 254 254 254
0.89410 -0.84212 -0.16487 254 254 254
0.90031 -0.84603 -0.16093 254 254 254
0.90652 -0.84993 -0.15698 254 254 254
0.91272 -0.85384 -0.15304 254 254 254
0.91892 -0.85774 -0.14910 254 254 254
0.92511 -0.86164 -0.14516 254 254 254
0.93131 -0.86554 -0.14122 254 254 254
0.93750 -0.86944 -0.13728 254 254 254
0.94369 -0.87333 -0.13335 254 254 254
0.94988 -0.87722 -0.12942 254 254 254
0.95606 -0.88112 -0.12549 254 254 254
0.96224 -0.88501 -0.12156 254 254 254
0.96842 -0.88890 -0.11763 254 254 254
0.97460 -0.89278 -0.11370 254 254 254
0.98077 -0.89667 -0.10978 254 254 254
0.98695 -0.90055 -0.10585 254 254 254
0.99311 -0.90444 -0.10193 254 254 254
0.99928 -0.90832 -0.09801 254 254 254
1.00545 -0.91220 -0.09409 254 254 254
1.01161 -0.91607 -0.09018 254 254 254
1.01777 -0.91995 -0.08626 254 254 254
1.02392 -0.92382 -0.08235 254 254 254
1.03008 -0.92770 -0.07844 254 254 254
1.03623 -0.93157 -0.07453 254 254 254
1.04238 -0.93544 -0.07062 254 254 254
1.04852 -0.93931 -0.06671 254 254 254
0.48891 -0.60068 -0.41125 254 254 254
0.49526 -0.60468 -0.40721 254 254 254
0.50160 -0.60867 -0.40318 254 254 254
0.52063 -0.62063 -0.39109 254 254 254
0.52696 -0.62462 -0.38707 254 254 254
0.53330 -0.62860 -0.38304 254 254 254
0.58387 -0.66041 -0.35091 254 253 254
0.59018 -0.66438 -0.34691 254 254 254
0.59649 -0.66834 -0.34290 254 254 254
0.60280 -0.67231 -0.33889 254 254 254
0.60910 -0.67627 -0.33489 254 254 254
0.61540 -0.68024 -0.33089 254 254 254
0.62169 -0.68420 -0.32689 254 254 254
0.62799 -0.68815 -0.32289 254 254 254
0.63428 -0.69211 -0.31889 254 254 254
0.64057 -0.69607 -0.31489 254 254 254
0.64686 -0.70002 -0.31090 254 254 254
0.65314 -0.70397 -0.30691 254 254 254
0.65942 -0.70792 -0.30292 254 254 254
0.66570 -0.71187 -0.29893 254 254 254
0.67198 -0.71582 -0.29494 254 254 254
0.67825 -0.71976 -0.29096 254 254 254
0.68452 -0.72371 -0.28697 254 254 254
0.69079 -0.72765 -0.28299 254 254 254
0.69705 -0.73159 -0.27901 254 254 254
0.70332 -0.73553 -0.27503 254 254 254
0.70958 -0.73947 -0.27105 254 254 254
0.71584 -0.74340 -0.26708 254 254 254
0.72209 -0.74734 -0.26310 254 254 254
0.72834 -0.75127 -0.25913 254 254 254
0.73459 -0.75520 -0.25516 254 254 254
0.74084 -0.75913 -0.25119 254 254 254
0.74709 -0.76306 -0.24722 254 254 254
0.75333 -0.76698 -0.24326 254 254 254
0.75957 -0.77091 -0.23929 254 254 254
0.76581 -0.77483 -0.23533 254 254 254
0.77204 -0.77875 -0.23137 254 254 254
0.77827 -0.78267 -0.22741 254 254 254
0.78450 -0.78659 -0.22345 254 254 254
0.79073 -0.79050 -0.21950 254 254 254
0.79695 -0.79442 -0.21554 254 254 254
0.80317 -0.79833 -0.21159 254 254 254
0.80939 -0.80224 -0.20764 254 254 254
0.81561 -0.80615 -0.20369 254 254 254
0.82182 -0.81006 -0.19974 254 254 254
0.82804 -0.81397 -0.19580 254 254 254
0.83424 -0.81787 -0.19185 254 254 254
0.84045 -0.82177 -0.18791 254 254 254
0.84665 -0.82568 -0.18397 254 254 254
0.85286 -0.82958 -0.18003 254 254 254
0.85905 -0.83347 -0.17609 254 254 254
0.86525 -0.83737 -0.17215 254 254 254
0.87144 -0.84127 -0.16822 254 254 254
0.87764 -0.84516 -0.16428 254 254 254
0.88382 -0.84905 -0.16035 254 254 254
0.89001 -0.85294 -0.15642 254 254 254
0.89619 -0.85683 -0.15249 254 254 254
0.90237 -0.86072 -0.14857 254 254 254
0.90855 -0.86460 -0.14464 254 254 254
0.91473 -0.86849 -0.14072 254 254 254
0.92090 -0.87237 -0.13680 254 254 254
0.92707 -0.87625 -0.13288 254 254 254
0.93324 -0.88013 -0.12896 254 254 254
0.93941 -0.88401 -0.12504 254 254 254
0.94557 -0.88788 -0.12113 254 254 254
0.95173 -0.89176 -0.11721 254 254 254
0.95789 -0.89563 -0.11330 254 254 254
0.96404 -0.89950 -0.10939 254 254 254
0.97020 -0.90337 -0.10548 254 254 254
0.97635 -0.90724 -0.10157 254 254 254
0.98249 -0.91111 -0.09767 254 254 254
0.98864 -0.91497 -0.09376 254 254 254
0.99478 -0.91883 -0.08986 254 254 254
1.00092 -0.92270 -0.08596 254 254 254
1.00706 -0.92656 -0.08206 254 254 254
1.01320 -0.93041 -0.07816 254 254 254
1.01933 -0.93427 -0.07427 254 254 254
1.02546 -0.93813 -0.07037 254 254 254
1.03159 -0.94198 -0.06648 254 254 254
1.03771 -0.94583 -0.06259 254 254 254
1.04383 -0.94968 -0.05870 254 254 254
0.47375 -0.60462 -0.40976 254 254 254
0.48008 -0.60860 -0.40574 254 254 254
0.48641 -0.61258 -0.40173 254 254 254
0.51801 -0.63244 -0.38166 254 254 254
0.52432 -0.63640 -0.37766 254 254 254
0.53063 -0.64037 -0.37365 254 254 254
0.56842 -0.66412 -0.34965 254 253 253
0.57471 -0.66807 -0.34566 254 254 254
0.58100 -0.67203 -0.34167 254 254 254
0.58729 -0.67598 -0.33767 254 254 254
0.59357 -0.67992 -0.33369 254 254 254
0.59985 -0.68387 -0.32970 254 254 254
0.60613 -0.68782 -0.32571 254 254 254
0.61240 -0.69176 -0.32173 254 254 254
0.61868 -0.69570 -0.31775 254 254 254
0.62494 -0.69964 -0.31376 254 254 254
0.63121 -0.70358 -0.30979 254 254 254
0.63748 -0.70752 -0.30581 254 254 254
0.64374 -0.71145 -0.30183 254 254 254
0.65000 -0.71539 -0.29786 254 254 254
0.65625 -0.71932 -0.29388 254 254 254
0.66251 -0.72325 -0.28991 254 254 254
0.66876 -0.72718 -0.28594 254 254 254
0.67501 -0.73111 -0.28198 254 254 254
0.68126 -0.73503 -0.27801 254 254 254
0.68750 -0.73896 -0.27405 254 254 254
0.69374 -0.74288 -0.27008 254 254 254
0.69998 -0.74680 -0.26612 254 254 254
0.70622 -0.75072 -0.26216 254 254 254
0.71245 -0.75464 -0.25820 254 254 254
0.71868 -0.75855 -0.25425 254 254 254
0.72491 -0.76247 -0.25029 254 254 254
0.73113 -0.76638 -0.24634 254 254 254
0.73736 -0.77029 -0.24239 254 254 254
0.74358 -0.77420 -0.23844 254 254 254
0.74980 -0.77811 -0.23449 254 254 254
0.75601 -0.78201 -0.23054 254 254 254
0.76222 -0.78592 -0.22660 254 254 254
0.76843 -0.78982 -0.22266 254 254 254
0.77464 -0.79372 -0.21871 254 254 254
0.78085 -0.79762 -0.21478 254 254 254
0.78705 -0.80152 -0.21084 254 254 254
0.79325 -0.80542 -0.20690 254 254 254
0.79945 -0.80931 -0.20296 254 254 254
0.80564 -0.81320 -0.19903 254 254 254
0.81184 -0.81710 -0.19510 254 254 254
0.81803 -0.82099 -0.19117 254 254 254
0.82421 -0.82488 -0.18724 254 254 254
0.83040 -0.82876 -0.18331 254 254 254
0.83658 -0.83265 -0.17939 254 254 254
0.84276 -0.83653 -0.17546 254 254 254
0.84894 -0.84041 -0.17154 254 254 254
0.85511 -0.84429 -0.16762 254 254 254
0.86129 -0.84817 -0.16370 254 254 254
0.86745 -0.85205 -0.15978 254 254 254
0.87362 -0.85593 -0.15587 254 254 254
0.87979 -0.85980 -0.15195 254 254 254
0.88595 -0.86367 -0.14804 254 254 254
0.89211 -0.86755 -0.14413 254 254 254
0.89827 -0.87141 -0.14022 254 254 254
0.90442 -0.87528 -0.13631 254 254 254
0.91057 -0.87915 -0.13241 254 254 254
0.91672 -0.88301 -0.12850 254 254 254
0.92287 -0.88688 -0.12460 254 254 254
0.92901 -0.89074 -0.12070 254 254 254
0.93516 -0.89460 -0.11680 254 254 254
0.94129 -0.89846 -0.11290 254 254 254
0.94743 -0.90231 -0.10900 254 254 254
0.95357 -0.90617 -0.10511 254 254 254
0.95970 -0.91002 -0.10122 254 254 254
0.96583 -0.91387 -0.09732 254 254 254
0.97195 -0.91773 -0.09343 254 254 254
0.97808 -0.92157 -0.08954 254 254 254
0.98420 -0.92542 -0.08566 254 254 254
0.99032 -0.92927 -0.08177 254 254 254
0.99644 -0.93311 -0.07789 254 254 254
1.00255 -0.93695 -0.07401 254 254 254
1.00866 -0.94080 -0.07013 254 254 254
1.01477 -0.94463 -0.06625 254 254 254
1.02088 -0.94847 -0.06237 254 254 254
1.02698 -0.95231 -0.05849 254 254 254
1.03309 -0.95614 -0.05462 254 254 254
0.46502 -0.61250 -0.40428 254 254 254
0.47133 -0.61646 -0.40028 254 254 254
0.51541 -0.64414 -0.37231 254 254 254
0.52169 -0.64809 -0.36832 254 254 254
0.52798 -0.65204 -0.36433 254 254 254
0.53426 -0.65598 -0.36035 254 254 254
0.54054 -0.65992 -0.35636 254 254 254
0.54681 -0.66387 -0.35238 254 254 254
0.55309 -0.66781 -0.34840 254 254 254
0.55936 -0.67174 -0.34442 254 254 254
0.56563 -0.67568 -0.34044 254 254 254
0.57189 -0.67962 -0.33647 254 254 254
0.57816 -0.68355 -0.33249 254 254 254
0.58442 -0.68748 -0.32852 254 254 254
0.59067 -0.69141 -0.32455 254 254 254
0.59693 -0.69534 -0.32058 254 254 254
0.60318 -0.69927 -0.31661 254 254 254
0.60943 -0.70319 -0.31264 254 254 254
0.61568 -0.70712 -0.30868 254 254 254
0.62193 -0.71104 -0.30471 254 254 254
0.62817 -0.71496 -0.30075 254 254 254
0.63441 -0.71888 -0.29679 254 254 254
0.64065 -0.72279 -0.29284 254 254 254
0.64688 -0.72671 -0.28888 254 254 254
0.65311 -0.73062 -0.28492 254 254 254
0.65934 -0.73454 -0.28097 254 254 254
0.66557 -0.73845 -0.27702 254 254 254
0.67179 -0.74236 -0.27307 254 254 254
0.67802 -0.74626 -0.26912 254 254 254
0.68424 -0.75017 -0.26517 254 254 254
0.69045 -0.75408 -0.26123 254 254 254
0.69667 -0.75798 -0.25728 254 254 254
0.70288 -0.76188 -0.25334 254 254 254
0.70909 -0.76578 -0.24940 254 254 254
0.71530 -0.76968 -0.24546 254 254 254
0.72150 -0.77357 -0.24153 254 254 254
0.72770 -0.77747 -0.23759 254 254 254
0.73390 -0.78136 -0.23366 254 254 254
0.74010 -0.78525 -0.22973 254 254 254
0.74629 -0.78914 -0.22579 254 254 254
0.75248 -0.79303 -0.22187 254 254 254
0.75867 -0.79692 -0.21794 254 254 254
0.76486 -0.80080 -0.21401 254 254 254
0.77104 -0.80469 -0.21009 254 254 254
0.77722 -0.80857 -0.20617 254 254 254
0.78340 -0.81245 -0.20224 254 254 254
0.78958 -0.81633 -0.19833 254 254 254
0.79575 -0.82021 -0.19441 254 254 254
0.80192 -0.82408 -0.19049 254 254 254
0.80809 -0.82796 -0.18658 254 254 254
0.81426 -0.83183 -0.18266 254 254 254
0.82042 -0.83570 -0.17875 254 254 254
0.82658 -0.83957 -0.17484 254 254 254
0.83274 -0.84344 -0.17093 254 254 254
0.83890 -0.84730 -0.16703 254 254 254
0.84505 -0.85117 -0.16312 254 254 254
0.85120 -0.85503 -0.15922 254 254 254
0.85735 -0.85889 -0.15532 254 254 254
0.86350 -0.86275 -0.15142 254 254 254
0.86964 -0.86661 -0.14752 254 254 254
0.87578 -0.87047 -0.14362 254 254 254
0.88192 -0.87432 -0.13973 254 254 254
0.88806 -0.87817 -0.13583 254 254 254
0.89419 -0.88203 -0.13194 254 254 254
0.90032 -0.88588 -0.12805 254 254 254
0.90645 -0.88973 -0.12416 254 254 254
0.91257 -0.89357 -0.12027 254 254 254
0.91870 -0.89742 -0.11639 254 254 254
0.92482 -0.90126 -0.11250 254 254 254
0.93094 -0.90511 -0.10862 254 254 254
0.93705 -0.90895 -0.10474 254 254 254
0.94317 -0.91279 -0.10086 254 254 254
0.94928 -0.91662 -0.09698 254 254 254
0.95539 -0.92046 -0.09311 254 254 254
0.96149 -0.92430 -0.08923 254 254 254
0.96760 -0.92813 -0.08536 254 254 254
0.97370 -0.93196 -0.08149 254 254 254
0.97980 -0.93579 -0.07762 254 254 254
0.98589 -0.93962 -0.07375 254 254 254
0.99199 -0.94345 -0.06988 254 254 254
0.99808 -0.94727 -0.06602 254 254 254
1.00417 -0.95109 -0.06215 254 254 254
1.01025 -0.95492 -0.05829 254 254 254
1.01634 -0.95874 -0.05443 254 254 254
1.02242 -0.96256 -0.05057 254 254 254
0.45007 -0.61636 -0.40284 254 254 254
0.45635 -0.62031 -0.39885 254 254 254
0.46264 -0.62426 -0.39486 254 254 254
0.50656 -0.65182 -0.36700 254 254 254
0.51283 -0.65575 -0.36303 254 254 254
0.51909 -0.65968 -0.35906 254 254 254
0.52535 -0.66361 -0.35509 254 254 254
0.53161 -0.66754 -0.35112 254 254 254
0.53786 -0.67146 -0.34715 254 254 254
0.54411 -0.67539 -0.34319 254 254 254
0.55036 -0.67931 -0.33923 254 254 254
0.55661 -0.68323 -0.33526 254 254 254
0.56285 -0.68715 -0.33130 254 254 254
0.56909 -0.69106 -0.32735 254 254 254
0.57533 -0.69498 -0.32339 254 254 254
0.58157 -0.69889 -0.31943 254 254 254
0.58780 -0.70281 -0.31548 254 254 254
0.59403 -0.70672 -0.31153 254 254 254
0.60026 -0.71063 -0.30758 254 254 254
0.60649 -0.71453 -0.30363 254 254 254
0.61271 -0.71844 -0.29968 254 254 254
0.61893 -0.72234 -0.29574 254 254 254
0.62515 -0.72625 -0.29179 254 254 254
0.63136 -0.73015 -0.28785 254 254 254
0.63758 -0.73405 -0.28391 254 254 254
0.64379 -0.73794 -0.27997 254 254 254
0.65000 -0.74184 -0.27603 254 254 254
0.65620 -0.74573 -0.27210 254 254 254
0.66241 -0.74963 -0.26816 254 254 254
0.66861 -0.75352 -0.26423 254 254 254
0.67480 -0.75741 -0.26030 254 254 254
0.68100 -0.76130 -0.25637 254 254 254
0.68719 -0.76518 -0.25244 254 254 254
0.69338 -0.76907 -0.24852 254 254 254
0.69957 -0.77295 -0.24459 254 254 254
0.70576 -0.77683 -0.24067 254 254 254
0.71194 -0.78071 -0.23675 254 254 254
0.71812 -0.78459 -0.23283 254 254 254
0.72430 -0.78847 -0.22891 254 254 254
0.73047 -0.79235 -0.22500 254 254 254
0.73664 -0.79622 -0.22108 254 254 254
0.74281 -0.80009 -0.21717 254 254 254
0.74898 -0.80396 -0.21326 254 254 254
0.75515 -0.80783 -0.20935 254 254 254
0.76131 -0.81170 -0.20544 254 254 254
0.76747 -0.81557 -0.20153 254 254 254
0.77363 -0.81943 -0.19762 254 254 254
0.77978 -0.82329 -0.19372 254 254 254
0.78594 -0.82715 -0.18982 254 254 254
0.79209 -0.83101 -0.18592 254 254 254
0.79823 -0.83487 -0.18202 254 254 254
0.80438 -0.83873 -0.17812 254 254 254
0.81052 -0.84258 -0.17423 254 254 254
0.81666 -0.84644 -0.17033 254 254 254
0.82280 -0.85029 -0.16644 254 254 254
0.82893 -0.85414 -0.16255 254 254 254
0.83507 -0.85799 -0.15866 254 254 254
0.84120 -0.86183 -0.15477 254 254 254
0.84732 -0.86568 -0.15089 254 254 254
0.85345 -0.86952 -0.14700 254 254 254
0.85957 -0.87337 -0.14312 254 254 254
0.86569 -0.87721 -0.13924 254 254 254
0.87181 -0.88105 -0.13536 254 254 254
0.87792 -0.88488 -0.13148 254 254 254
0.88404 -0.88872 -0.12760 254 254 254
0.89015 -0.89256 -0.12373 254 254 254
0.89625 -0.89639 -0.11985 254 254 254
0.90236 -0.90022 -0.11598 254 254 254
0.90846 -0.90405 -0.11211 254 254 254
0.91456 -0.90788 -0.10824 254 254 254
0.92066 -0.91171 -0.10437 254 254 254
0.92675 -0.91553 -0.10051 254 254 254
0.93285 -0.91935 -0.09664 254 254 254
0.93894 -0.92318 -0.09278 254 254 254
0.94502 -0.92700 -0.08892 254 254 254
0.95111 -0.93082 -0.08506 254 254 254
0.95719 -0.93463 -0.08120 254 254 254
0.96327 -0.93845 -0.07735 254 254 254
0.96935 -0.94226 -0.07349 254 254 254
0.97543 -0.94608 -0.06964 254 254 254
0.98150 -0.94989 -0.06579 254 254 254
0.98757 -0.95370 -0.06194 254 254 254
0.99364 -0.95751 -0.05809 254 254 254
0.99970 -0.96131 -0.05424 254 254 254
1.00577 -0.96512 -0.05040 254 254 254
0.44149 -0.62414 -0.39742 253 253 254
0.44775 -0.62807 -0.39345 254 254 254
0.45401 -0.63199 -0.38948 254 254 254
0.49779 -0.65944 -0.36174 254 254 254
0.50403 -0.66336 -0.35778 254 254 254
0.51027 -0.66727 -0.35382 254 254 254
0.51651 -0.67119 -0.34987 254 254 254
0.52274 -0.67510 -0.34592 254 254 254
0.52897 -0.67900 -0.34197 254 254 254
0.53520 -0.68291 -0.33802 254 254 254
0.54143 -0.68682 -0.33407 254 254 254
0.54765 -0.69072 -0.33013 254 254 254
0.55388 -0.69462 -0.32618 254 254 254
0.56010 -0.69852 -0.32224 254 254 254
0.56631 -0.70242 -0.31830 254 254 254
0.57253 -0.70632 -0.31436 254 254 254
0.57874 -0.71022 -0.31042 254 254 254
0.58495 -0.71411 -0.30649 254 254 254
0.59116 -0.71800 -0.30255 254 254 254
0.59736 -0.72189 -0.29862 254 254 254
0.60356 -0.72578 -0.29469 254 254 254
0.60976 -0.72967 -0.29076 254 254 254
0.61596 -0.73356 -0.28683 254 254 254
0.62215 -0.73744 -0.28290 254 254 254
0.62835 -0.74133 -0.27898 254 254 254
0.63453 -0.74521 -0.27506 254 254 254
0.64072 -0.74909 -0.27114 254 254 254
0.64691 -0.75297 -0.26722 254 254 254
0.65309 -0.75684 -0.26330 254 254 254
0.65927 -0.76072 -0.25938 254 254 254
0.66544 -0.76459 -0.25546 254 254 254
0.67162 -0.76846 -0.25155 254 254 254
0.67779 -0.77234 -0.24764 254 254 254
0.68396 -0.77620 -0.24373 254 254 254
0.69012 -0.78007 -0.23982 254 254 254
0.69629 -0.78394 -0.23591 254 254 254
0.70245 -0.78780 -0.23201 254 254 254
0.70861 -0.79166 -0.22810 254 254 254
0.71476 -0.79553 -0.22420 254 254 254
0.72092 -0.79939 -0.22030 254 254 254
0.72707 -0.80324 -0.21640 254 254 254
0.73322 -0.80710 -0.21250 254 254 254
0.73937 -0.81095 -0.20861 254 254 254
0.74551 -0.81481 -0.20471 254 254 254
0.75165 -0.81866 -0.20082 254 254 254
0.75779 -0.82251 -0.19693 254 254 254
0.76393 -0.82636 -0.19304 254 254 254
0.77006 -0.83020 -0.18915 254 254 254
0.77619 -0.83405 -0.18526 254 254 254
0.78232 -0.83789 -0.18138 254 254 254
0.78845 -0.84174 -0.17750 254 254 254
0.79457 -0.84558 -0.17361 254 254 254
0.80069 -0.84942 -0.16973 254 254 254
0.80681 -0.85325 -0.16586 254 254 254
0.81293 -0.85709 -0.16198 254 254 254
0.81904 -0.86092 -0.15810 254 254 254
0.82515 -0.86476 -0.15423 254 254 254
0.83126 -0.86859 -0.15036 254 254 254
0.83737 -0.87242 -0.14649 254 254 254
0.84347 -0.87625 -0.14262 254 254 254
0.84958 -0.88007 -0.13875 254 254 254
0.85567 -0.88390 -0.13488 254 254 254
0.86177 -0.88772 -0.13102 254 254 254
0.86787 -0.89154 -0.12716 254 254 254
0.87396 -0.89536 -0.12329 254 254 254
0.88005 -0.89918 -0.11943 254 254 254
0.88613 -0.90300 -0.11558 254 254 254
0.89222 -0.90682 -0.11172 254 254 254
0.89830 -0.91063 -0.10786 254 254 254
0.90438 -0.91444 -0.10401 254 254 254
0.91046 -0.91826 -0.10016 254 254 254
0.91653 -0.92206 -0.09631 254 254 254
0.92260 -0.92587 -0.09246 254 254 254
0.92867 -0.92968 -0.08861 254 254 254
0.93474 -0.93348 -0.08477 254 254 254
0.94080 -0.93729 -0.08092 254 254 254
0.94687 -0.94109 -0.07708 254 254 254
0.95293 -0.94489 -0.07324 254 254 254
0.95898 -0.94869 -0.06940 254 254 254
0.96504 -0.95249 -0.06556 254 254 254
0.42672 -0.62793 -0.39601 253 253 253
0.43297 -0.63185 -0.39205 253 253 254
0.43922 -0.63576 -0.38810 254 254 254
0.44546 -0.63967 -0.38414 254 254 254
0.45170 -0.64358 -0.38019 254 254 254
0.48907 -0.66701 -0.35651 254 254 254
0.49530 -0.67091 -0.35257 254 254 254
0.50151 -0.67481 -0.34863 254 254 254
0.50773 -0.67870 -0.34469 254 254 254
0.51394 -0.68260 -0.34076 254 254 254
0.52015 -0.68649 -0.33682 254 254 254
0.52636 -0.69038 -0.33289 254 254 254
0.53257 -0.69427 -0.32896 254 254 254
0.53877 -0.69816 -0.32503 254 254 254
0.54497 -0.70204 -0.32110 254 254 254
0.55117 -0.70593 -0.31717 254 254 254
0.55736 -0.70981 -0.31325 254 254 254
0.56356 -0.71369 -0.30932 254 254 254
0.56975 -0.71757 -0.30540 254 254 254
0.57594 -0.72145 -0.30148 254 254 254
0.58212 -0.72533 -0.29756 254 254 254
0.58830 -0.72920 -0.29365 254 254 254
0.59449 -0.73307 -0.28973 254 254 254
0.60066 -0.73695 -0.28582 254 254 254
0.60684 -0.74082 -0.28191 254 254 254
0.61301 -0.74469 -0.27799 254 254 254
0.61918 -0.74855 -0.27409 254 254 254
0.62535 -0.75242 -0.27018 254 254 254
0.63152 -0.75628 -0.26627 254 254 254
0.63768 -0.76014 -0.26237 254 254 254
0.64384 -0.76401 -0.25847 254 254 254
0.65000 -0.76786 -0.25456 254 254 254
0.65615 -0.77172 -0.25066 254 254 254
0.66230 -0.77558 -0.24677 254 254 254
0.66845 -0.77943 -0.24287 254 254 254
0.67460 -0.78329 -0.23898 254 254 254
