ply
format ascii 1.0
element face 0
property list uchar int vertex_indices
element vertex 1242
property float x
property float y
property float z
property uchar diffuse_red
property uchar diffuse_green
property uchar diffuse_blue
end_header
0.20433 -0.55289 -0.50417 254 254 254
0.20609 -0.55837 -0.49909 254 254 254
0.20786 -0.56384 -0.49400 254 254 254
0.20963 -0.56932 -0.48892 254 254 254
0.21139 -0.57479 -0.48384 254 254 254
0.21316 -0.58027 -0.47876 254 254 254
0.21493 -0.58574 -0.47368 254 254 254
0.21669 -0.59121 -0.46860 254 254 254
0.21846 -0.59668 -0.46352 254 254 254
0.22022 -0.60215 -0.45845 254 254 254
0.22199 -0.60762 -0.45337 254 254 254
0.22375 -0.61309 -0.44830 254 254 254
0.22551 -0.61856 -0.44322 254 254 254
0.22728 -0.62402 -0.43815 254 254 254
0.22904 -0.62949 -0.43308 254 254 254
0.23080 -0.63495 -0.42801 254 254 254
0.23257 -0.64041 -0.42294 254 254 254
0.23433 -0.64588 -0.41787 254 254 254
0.23609 -0.65134 -0.41280 254 254 254
0.23785 -0.65680 -0.40773 254 254 254
0.23961 -0.66225 -0.40267 254 254 254
0.24137 -0.66771 -0.39760 254 254 254
0.24313 -0.67317 -0.39254 254 254 254
0.24489 -0.67863 -0.38747 254 254 254
0.24665 -0.68408 -0.38241 254 254 254
0.24841 -0.68953 -0.37735 254 254 254
0.25017 -0.69499 -0.37229 254 254 254
0.25193 -0.70044 -0.36723 254 254 254
0.25369 -0.70589 -0.36217 254 254 254
0.25545 -0.71134 -0.35711 254 254 254
0.14239 -0.39334 -0.65389 254 254 252
0.14416 -0.39883 -0.64879 254 254 251
0.14593 -0.40432 -0.64370 254 254 252
0.14770 -0.40980 -0.63861 254 254 253
0.14947 -0.41528 -0.63352 254 254 253
0.15124 -0.42077 -0.62843 254 254 252
0.19186 -0.54659 -0.51165 254 254 254
0.19363 -0.55205 -0.50658 254 254 254
0.19539 -0.55751 -0.50152 254 254 254
0.19715 -0.56297 -0.49645 254 254 254
0.19891 -0.56842 -0.49139 254 254 254
0.20067 -0.57388 -0.48633 254 254 254
0.20243 -0.57933 -0.48126 254 254 254
0.20419 -0.58478 -0.47620 254 254 254
0.20595 -0.59024 -0.47114 254 254 254
0.20771 -0.59569 -0.46608 254 254 254
0.20947 -0.60114 -0.46103 254 254 254
0.21123 -0.60659 -0.45597 254 254 254
0.21299 -0.61203 -0.45091 254 254 254
0.21475 -0.61748 -0.44586 254 254 254
0.21650 -0.62293 -0.44080 254 254 254
0.21826 -0.62837 -0.43575 254 254 254
0.22002 -0.63382 -0.43069 254 254 254
0.22178 -0.63926 -0.42564 254 254 254
0.22353 -0.64470 -0.42059 254 254 254
0.22529 -0.65014 -0.41554 254 254 254
0.22705 -0.65558 -0.41049 254 254 254
0.22880 -0.66102 -0.40544 254 254 254
0.23056 -0.66646 -0.40040 254 254 254
0.23231 -0.67190 -0.39535 254 254 254
0.23407 -0.67733 -0.39031 254 254 254
0.23582 -0.68277 -0.38526 254 254 254
0.23758 -0.68820 -0.38022 254 254 254
0.23933 -0.69364 -0.37517 254 254 254
0.24108 -0.69907 -0.37013 254 254 254
0.24284 -0.70450 -0.36509 254 254 254
0.24459 -0.70993 -0.36005 254 254 254
0.13369 -0.39855 -0.65068 254 254 249
0.13546 -0.40402 -0.64561 254 254 251
0.13722 -0.40948 -0.64053 254 254 252
0.13899 -0.41495 -0.63546 254 254 254
0.14075 -0.42041 -0.63039 254 254 254
0.14252 -0.42587 -0.62532 254 254 254
0.17949 -0.54034 -0.51908 254 254 254
0.18125 -0.54578 -0.51403 254 254 254
0.18300 -0.55122 -0.50898 254 254 254
0.18476 -0.55666 -0.50393 254 254 254
0.18651 -0.56210 -0.49889 254 254 254
0.18827 -0.56753 -0.49384 254 254 254
0.19003 -0.57297 -0.48879 254 254 254
0.19178 -0.57840 -0.48375 254 254 254
0.19354 -0.58383 -0.47871 254 254 254
0.19529 -0.58927 -0.47367 254 254 254
0.19704 -0.59470 -0.46863 254 254 254
0.19880 -0.60013 -0.46358 254 254 254
0.20055 -0.60556 -0.45855 254 254 254
0.20231 -0.61099 -0.45351 254 254 254
0.20406 -0.61641 -0.44847 254 254 254
0.20581 -0.62184 -0.44343 254 254 254
0.20756 -0.62727 -0.43840 254 254 254
0.20932 -0.63269 -0.43336 254 254 254
0.21107 -0.63811 -0.42833 254 254 254
0.21282 -0.64354 -0.42330 254 254 254
0.21457 -0.64896 -0.41826 254 254 254
0.21632 -0.65438 -0.41323 254 254 254
0.21807 -0.65980 -0.40820 254 254 254
0.21982 -0.66522 -0.40317 254 254 254
0.22157 -0.67063 -0.39814 254 254 254
0.22332 -0.67605 -0.39312 254 254 254
0.22507 -0.68147 -0.38809 254 254 254
0.22682 -0.68688 -0.38306 254 254 254
0.22857 -0.69229 -0.37804 254 254 254
0.23031 -0.69771 -0.37302 254 254 254
0.23206 -0.70312 -0.36799 254 254 254
0.23381 -0.70853 -0.36297 254 254 254
0.12506 -0.40373 -0.64750 254 253 248
0.12682 -0.40917 -0.64244 254 254 252
0.12858 -0.41461 -0.63739 254 254 253
0.13034 -0.42006 -0.63234 254 254 254
0.13209 -0.42550 -0.62729 254 254 254
0.16895 -0.53956 -0.52142 254 254 254
0.17070 -0.54498 -0.51639 254 254 254
0.17246 -0.55040 -0.51136 254 254 254
0.17421 -0.55581 -0.50633 254 254 254
0.17596 -0.56123 -0.50130 254 254 254
0.17771 -0.56665 -0.49627 254 254 254
0.17946 -0.57206 -0.49125 254 254 254
0.18121 -0.57748 -0.48622 254 254 254
0.18296 -0.58289 -0.48119 254 254 254
0.18471 -0.58830 -0.47617 254 254 254
0.18645 -0.59372 -0.47115 254 254 254
0.18820 -0.59913 -0.46613 254 254 254
0.18995 -0.60454 -0.46110 254 254 254
0.19170 -0.60995 -0.45608 254 254 254
0.19345 -0.61535 -0.45106 254 254 254
0.19519 -0.62076 -0.44605 254 254 254
0.19694 -0.62617 -0.44103 254 254 254
0.19869 -0.63157 -0.43601 254 254 254
0.20043 -0.63698 -0.43100 254 254 254
0.20218 -0.64238 -0.42598 254 254 254
0.20393 -0.64778 -0.42097 254 254 254
0.20567 -0.65318 -0.41595 254 254 254
0.20742 -0.65858 -0.41094 254 254 254
0.20916 -0.66398 -0.40593 254 254 254
0.21091 -0.66938 -0.40092 254 254 254
0.21265 -0.67478 -0.39591 254 254 254
0.21439 -0.68017 -0.39090 254 254 254
0.21614 -0.68557 -0.38589 254 254 254
0.21788 -0.69096 -0.38089 254 254 254
0.21962 -0.69636 -0.37588 254 254 254
0.22137 -0.70175 -0.37087 254 254 254
0.11824 -0.41428 -0.63930 254 254 251
0.11999 -0.41971 -0.63427 254 254 252
0.12175 -0.42513 -0.62923 254 254 252
0.15675 -0.53337 -0.52876 254 254 254
0.15849 -0.53877 -0.52375 254 254 254
0.16024 -0.54418 -0.51873 254 254 254
0.16198 -0.54958 -0.51372 254 254 254
0.16373 -0.55498 -0.50871 254 254 254
0.16548 -0.56037 -0.50370 254 254 254
0.16722 -0.56577 -0.49869 254 254 254
0.16897 -0.57117 -0.49368 254 254 254
0.17071 -0.57656 -0.48867 254 254 254
0.17245 -0.58196 -0.48366 254 254 254
0.17420 -0.58735 -0.47866 254 254 254
0.17594 -0.59274 -0.47365 254 254 254
0.17768 -0.59813 -0.46865 254 254 254
0.17943 -0.60352 -0.46364 254 254 254
0.18117 -0.60891 -0.45864 254 254 254
0.18291 -0.61430 -0.45364 254 254 254
0.18465 -0.61969 -0.44864 254 254 254
0.18640 -0.62508 -0.44364 254 254 254
0.18814 -0.63046 -0.43864 254 254 254
0.18988 -0.63585 -0.43364 254 254 254
0.19162 -0.64123 -0.42865 254 254 254
0.19336 -0.64661 -0.42365 254 254 254
0.19510 -0.65199 -0.41865 254 254 254
0.19684 -0.65738 -0.41366 254 254 254
0.19858 -0.66275 -0.40867 254 254 254
0.20032 -0.66813 -0.40367 254 254 254
0.20206 -0.67351 -0.39868 254 254 254
0.20379 -0.67889 -0.39369 254 254 254
0.20553 -0.68426 -0.38870 254 254 254
0.20727 -0.68964 -0.38371 254 254 254
0.20901 -0.69501 -0.37872 254 254 254
0.21075 -0.70039 -0.37373 254 254 254
0.14462 -0.52723 -0.53605 254 254 254
0.14637 -0.53262 -0.53105 254 254 254
0.14811 -0.53800 -0.52605 254 254 254
0.14985 -0.54338 -0.52106 254 254 254
0.15159 -0.54876 -0.51606 254 254 254
0.15333 -0.55414 -0.51107 254 254 254
0.15507 -0.55952 -0.50608 254 254 254
0.15681 -0.56490 -0.50109 254 254 254
0.15855 -0.57028 -0.49609 254 254 254
0.16029 -0.57565 -0.49110 254 254 254
0.16203 -0.58103 -0.48611 254 254 254
0.16376 -0.58640 -0.48113 254 254 254
0.16550 -0.59177 -0.47614 254 254 254
0.16724 -0.59715 -0.47115 254 254 254
0.16898 -0.60252 -0.46617 254 254 254
0.17072 -0.60789 -0.46118 254 254 254
0.17245 -0.61326 -0.45620 254 254 254
0.17419 -0.61863 -0.45121 254 254 254
0.17593 -0.62399 -0.44623 254 254 254
0.17766 -0.62936 -0.44125 254 254 254
0.17940 -0.63472 -0.43627 254 254 254
0.18113 -0.64009 -0.43129 254 254 254
0.18287 -0.64545 -0.42631 254 254 254
0.18460 -0.65082 -0.42133 254 254 254
0.18634 -0.65618 -0.41636 254 254 254
0.18807 -0.66154 -0.41138 254 254 254
0.18980 -0.66690 -0.40641 254 254 254
0.19154 -0.67226 -0.40143 254 254 254
0.19327 -0.67761 -0.39646 254 254 254
0.19500 -0.68297 -0.39149 254 254 254
0.19674 -0.68833 -0.38651 254 254 254
0.19847 -0.69368 -0.38154 254 254 254
0.13432 -0.52650 -0.53831 254 254 254
0.13606 -0.53187 -0.53333 254 254 254
0.13780 -0.53723 -0.52835 254 254 254
0.13953 -0.54259 -0.52337 254 254 254
0.14127 -0.54796 -0.51839 254 254 254
0.14300 -0.55332 -0.51342 254 254 254
0.14474 -0.55868 -0.50844 254 254 254
0.14647 -0.56403 -0.50347 254 254 254
0.14821 -0.56939 -0.49849 254 254 254
0.14994 -0.57475 -0.49352 254 254 254
0.15167 -0.58010 -0.48855 254 254 254
0.15341 -0.58546 -0.48358 254 254 254
0.15514 -0.59081 -0.47861 254 254 254
0.15687 -0.59617 -0.47364 254 254 254
0.15860 -0.60152 -0.46867 254 254 254
0.16034 -0.60687 -0.46370 254 254 254
0.16207 -0.61222 -0.45874 254 254 254
0.16380 -0.61757 -0.45377 254 254 254
0.16553 -0.62292 -0.44881 254 254 254
0.16726 -0.62826 -0.44384 254 254 254
0.16899 -0.63361 -0.43888 254 254 254
0.17072 -0.63896 -0.43392 254 254 254
0.17245 -0.64430 -0.42896 254 254 254
0.17418 -0.64964 -0.42400 254 254 254
0.17591 -0.65499 -0.41904 254 254 254
0.17764 -0.66033 -0.41408 254 254 254
0.17937 -0.66567 -0.40912 254 254 254
0.18110 -0.67101 -0.40416 254 254 254
0.18282 -0.67635 -0.39921 254 254 254
0.18455 -0.68169 -0.39425 254 254 254
0.18628 -0.68702 -0.38930 254 254 254
0.18801 -0.69236 -0.38435 254 254 254
0.12583 -0.53112 -0.53558 254 254 254
0.12756 -0.53647 -0.53062 254 254 254
0.12929 -0.54181 -0.52566 254 254 254
0.13102 -0.54715 -0.52070 254 254 254
0.13275 -0.55249 -0.51574 254 254 254
0.13448 -0.55784 -0.51079 254 254 254
0.13621 -0.56318 -0.50583 254 254 254
0.13794 -0.56851 -0.50087 254 254 254
0.13967 -0.57385 -0.49592 254 254 254
0.14139 -0.57919 -0.49097 254 254 254
0.14312 -0.58452 -0.48601 254 254 254
0.14485 -0.58986 -0.48106 254 254 254
0.14658 -0.59519 -0.47611 254 254 254
0.14830 -0.60053 -0.47116 254 254 254
0.15003 -0.60586 -0.46621 254 254 254
0.15176 -0.61119 -0.46126 254 254 254
0.15348 -0.61652 -0.45631 254 254 254
0.15521 -0.62185 -0.45136 254 254 254
0.15693 -0.62718 -0.44642 254 254 254
0.15866 -0.63251 -0.44147 254 254 254
0.16038 -0.63783 -0.43653 254 254 254
0.16211 -0.64316 -0.43158 254 254 254
0.16383 -0.64848 -0.42664 254 254 253
0.16556 -0.65381 -0.42170 254 254 254
0.16728 -0.65913 -0.41676 254 254 254
0.16900 -0.66445 -0.41182 254 254 254
0.17073 -0.66977 -0.40688 254 254 254
0.17245 -0.67509 -0.40194 254 254 254
0.17417 -0.68041 -0.39700 254 254 254
0.17589 -0.68573 -0.39206 254 254 254
0.11740 -0.53571 -0.53288 254 254 254
0.11912 -0.54103 -0.52794 254 254 254
0.12085 -0.54636 -0.52300 254 254 254
0.12257 -0.55168 -0.51806 254 254 254
0.12429 -0.55700 -0.51312 254 254 254
0.12602 -0.56232 -0.50818 254 254 254
0.12774 -0.56764 -0.50324 254 254 254
0.12946 -0.57296 -0.49830 254 254 254
0.13119 -0.57828 -0.49336 254 254 254
0.13291 -0.58360 -0.48843 254 254 254
0.13463 -0.58891 -0.48349 254 254 254
0.13635 -0.59423 -0.47856 254 254 254
0.13808 -0.59954 -0.47363 254 254 254
0.13980 -0.60486 -0.46869 254 254 254
0.14152 -0.61017 -0.46376 254 254 254
0.14324 -0.61548 -0.45883 254 254 254
0.14496 -0.62079 -0.45390 254 254 254
0.14668 -0.62610 -0.44897 254 254 254
0.14840 -0.63141 -0.44404 254 254 254
0.15012 -0.63672 -0.43912 254 254 254
0.15184 -0.64202 -0.43419 254 254 254
0.15356 -0.64733 -0.42926 254 254 254
0.15528 -0.65263 -0.42434 254 254 254
0.15700 -0.65794 -0.41942 254 254 254
0.15871 -0.66324 -0.41449 254 254 254
0.16043 -0.66854 -0.40957 254 254 254
0.16215 -0.67384 -0.40465 254 254 254
0.16387 -0.67914 -0.39973 254 254 254
0.16558 -0.68444 -0.39481 254 254 254
0.10042 -0.51372 -0.55484 245 238 225
0.10902 -0.54026 -0.53020 254 254 254
0.11074 -0.54557 -0.52528 254 254 254
0.11246 -0.55087 -0.52035 254 254 254
0.11418 -0.55617 -0.51543 254 254 254
0.11590 -0.56148 -0.51051 254 254 254
0.11762 -0.56678 -0.50559 254 254 254
0.11934 -0.57208 -0.50067 254 254 254
0.12105 -0.57738 -0.49575 254 254 254
0.12277 -0.58267 -0.49083 254 254 253
0.12449 -0.58797 -0.48591 254 254 254
0.12621 -0.59327 -0.48099 254 254 254
0.12792 -0.59856 -0.47608 254 254 254
0.12964 -0.60386 -0.47116 254 254 254
0.13135 -0.60915 -0.46625 254 254 254
0.13307 -0.61445 -0.46133 254 254 254
0.13479 -0.61974 -0.45642 254 254 254
0.13650 -0.62503 -0.45151 254 254 254
0.13821 -0.63032 -0.44660 254 254 254
0.13993 -0.63561 -0.44169 254 254 254
0.14164 -0.64090 -0.43678 254 254 254
0.14336 -0.64618 -0.43187 254 254 254
0.14507 -0.65147 -0.42696 254 254 254
0.14678 -0.65675 -0.42206 254 254 254
0.14850 -0.66204 -0.41715 254 254 254
0.15021 -0.66732 -0.41224 254 254 254
0.15192 -0.67261 -0.40734 254 254 254
0.15363 -0.67789 -0.40244 254 254 254
0.15535 -0.68317 -0.39754 254 254 254
0.08870 -0.50776 -0.56191 254 254 254
0.09214 -0.51834 -0.55209 244 237 216
0.10071 -0.54478 -0.52754 254 254 254
0.10242 -0.55007 -0.52263 254 254 254
0.10414 -0.55535 -0.51773 254 254 254
0.10585 -0.56063 -0.51282 254 254 254
0.10757 -0.56592 -0.50792 254 254 254
0.10928 -0.57120 -0.50301 254 254 254
0.11099 -0.57648 -0.49811 254 254 253
0.11270 -0.58176 -0.49321 254 254 254
0.11442 -0.58704 -0.48831 254 254 254
0.11613 -0.59232 -0.48341 254 254 254
0.11784 -0.59759 -0.47851 254 254 254
0.11955 -0.60287 -0.47361 254 254 254
0.12126 -0.60814 -0.46871 254 254 254
0.12297 -0.61342 -0.46382 254 254 254
0.12468 -0.61869 -0.45892 254 254 254
0.12639 -0.62396 -0.45403 254 254 254
0.12810 -0.62924 -0.44913 254 254 254
0.12981 -0.63451 -0.44424 254 254 254
0.13152 -0.63978 -0.43935 254 254 254
0.13323 -0.64505 -0.43446 254 254 254
0.13494 -0.65031 -0.42957 254 254 254
0.13664 -0.65558 -0.42468 254 254 254
0.13835 -0.66085 -0.41979 254 254 254
0.14006 -0.66611 -0.41490 254 254 254
0.14177 -0.67137 -0.41001 254 254 254
0.14347 -0.67664 -0.40513 254 254 254
0.07707 -0.50183 -0.56894 254 254 254
0.07878 -0.50711 -0.56404 254 254 254
0.08049 -0.51238 -0.55914 254 254 254
0.08391 -0.52293 -0.54935 244 239 218
0.09246 -0.54927 -0.52490 254 254 254
0.09417 -0.55453 -0.52001 254 254 254
0.09588 -0.55980 -0.51512 254 254 254
0.09758 -0.56506 -0.51023 254 254 254
0.09929 -0.57033 -0.50535 254 254 254
0.10100 -0.57559 -0.50046 254 254 254
0.10271 -0.58085 -0.49558 254 254 254
0.10441 -0.58611 -0.49069 254 254 254
0.10612 -0.59137 -0.48581 254 254 254
0.10783 -0.59663 -0.48093 254 254 254
0.10953 -0.60189 -0.47605 254 254 254
0.11124 -0.60714 -0.47117 254 254 254
0.11294 -0.61240 -0.46629 254 254 254
0.11465 -0.61765 -0.46141 254 254 254
0.11635 -0.62291 -0.45653 254 254 254
0.11806 -0.62816 -0.45165 254 254 254
0.11976 -0.63341 -0.44678 254 254 254
0.12147 -0.63867 -0.44190 254 254 254
0.12317 -0.64392 -0.43703 254 254 254
0.12487 -0.64916 -0.43215 254 254 254
0.12658 -0.65441 -0.42728 254 254 254
0.12828 -0.65966 -0.42241 254 254 254
0.12998 -0.66491 -0.41754 254 254 254
0.13168 -0.67015 -0.41267 254 254 254
0.13338 -0.67540 -0.40780 254 254 254
0.06722 -0.50121 -0.57103 254 254 254
0.06892 -0.50646 -0.56615 254 254 254
0.07063 -0.51172 -0.56127 254 254 254
0.07233 -0.51697 -0.55639 254 254 254
0.08427 -0.55372 -0.52227 254 254 254
0.08597 -0.55897 -0.51740 254 254 254
0.08767 -0.56422 -0.51253 254 254 254
0.08937 -0.56946 -0.50766 254 254 254
0.09108 -0.57471 -0.50279 254 254 254
0.09278 -0.57995 -0.49793 254 254 254
0.09448 -0.58519 -0.49306 254 254 254
0.09618 -0.59043 -0.48819 254 254 254
0.09788 -0.59567 -0.48333 254 254 254
0.09958 -0.60091 -0.47846 254 254 254
0.10128 -0.60615 -0.47360 254 254 254
0.10298 -0.61139 -0.46874 254 254 254
0.10468 -0.61662 -0.46387 254 254 254
0.10638 -0.62186 -0.45901 254 254 254
0.10808 -0.62709 -0.45415 254 254 254
0.10978 -0.63233 -0.44929 254 254 254
0.11148 -0.63756 -0.44444 254 254 254
0.11318 -0.64279 -0.43958 254 254 254
0.11488 -0.64802 -0.43472 254 254 254
0.11658 -0.65325 -0.42987 254 254 254
0.11827 -0.65848 -0.42501 254 254 254
0.11997 -0.66371 -0.42016 254 254 254
0.12167 -0.66894 -0.41530 254 254 254
0.05573 -0.49535 -0.57797 254 254 254
0.05743 -0.50058 -0.57311 254 254 254
0.05914 -0.50582 -0.56825 254 254 254
0.06084 -0.51106 -0.56339 254 254 254
0.06254 -0.51629 -0.55853 254 254 254
0.06424 -0.52153 -0.55367 254 254 254
0.07443 -0.55292 -0.52452 254 254 254
0.07613 -0.55815 -0.51967 254 254 254
0.07783 -0.56338 -0.51481 254 254 254
0.07953 -0.56860 -0.50996 254 254 254
0.08122 -0.57383 -0.50511 254 254 254
0.08292 -0.57905 -0.50026 254 254 254
0.08462 -0.58428 -0.49541 254 254 254
0.08631 -0.58950 -0.49056 254 254 254
0.08801 -0.59472 -0.48571 254 254 254
0.08971 -0.59994 -0.48086 254 254 254
0.09140 -0.60516 -0.47602 254 254 254
0.09310 -0.61038 -0.47117 254 254 254
0.09479 -0.61560 -0.46632 254 254 254
0.09649 -0.62082 -0.46148 254 254 254
0.09818 -0.62603 -0.45664 254 254 254
0.09987 -0.63125 -0.45179 254 254 254
0.10157 -0.63647 -0.44695 254 254 254
0.10326 -0.64168 -0.44211 254 254 254
0.10495 -0.64689 -0.43727 254 254 254
0.10665 -0.65210 -0.43243 254 254 254
0.10834 -0.65732 -0.42759 254 254 254
0.11003 -0.66253 -0.42276 254 254 254
0.11172 -0.66774 -0.41792 254 254 254
0.04433 -0.48953 -0.58487 254 254 254
0.04602 -0.49475 -0.58002 254 254 254
0.04772 -0.49997 -0.57518 254 254 254
0.04942 -0.50519 -0.57033 254 254 254
0.05111 -0.51040 -0.56549 254 254 254
0.05281 -0.51562 -0.56064 254 254 254
0.05450 -0.52084 -0.55580 254 254 254
0.05620 -0.52605 -0.55096 254 254 254
0.05789 -0.53127 -0.54611 254 254 254
0.06467 -0.55212 -0.52675 254 254 254
0.06636 -0.55733 -0.52192 254 254 254
0.06805 -0.56254 -0.51708 254 254 254
0.06975 -0.56775 -0.51224 254 254 254
0.07144 -0.57296 -0.50741 254 254 254
0.07313 -0.57816 -0.50257 254 254 254
0.07482 -0.58337 -0.49774 254 254 254
0.07651 -0.58857 -0.49291 254 254 254
0.07820 -0.59378 -0.48808 254 254 254
0.07990 -0.59898 -0.48325 254 254 254
0.08159 -0.60418 -0.47842 254 254 254
0.08328 -0.60938 -0.47359 254 254 254
0.08497 -0.61458 -0.46876 254 254 254
0.08666 -0.61978 -0.46393 254 254 254
0.08835 -0.62498 -0.45910 254 254 254
0.09003 -0.63018 -0.45428 254 254 254
0.09172 -0.63538 -0.44945 254 254 254
0.09341 -0.64057 -0.44463 254 254 254
0.09510 -0.64577 -0.43980 254 254 254
0.09679 -0.65096 -0.43498 254 254 254
0.09848 -0.65616 -0.43016 254 254 254
0.10016 -0.66135 -0.42534 254 254 254
0.03469 -0.48895 -0.58689 254 254 253
0.03638 -0.49415 -0.58206 254 254 254
0.03807 -0.49935 -0.57723 254 254 254
0.03977 -0.50455 -0.57240 254 254 254
0.04146 -0.50975 -0.56757 254 254 254
0.04315 -0.51495 -0.56274 254 254 254
0.04484 -0.52015 -0.55792 254 254 254
0.04653 -0.52535 -0.55309 254 254 254
0.04822 -0.53055 -0.54827 254 254 254
0.04991 -0.53574 -0.54344 254 254 254
0.05159 -0.54094 -0.53862 254 254 254
0.05328 -0.54613 -0.53379 254 254 254
0.05497 -0.55133 -0.52897 254 254 254
0.05666 -0.55652 -0.52415 254 254 254
0.05835 -0.56171 -0.51933 254 254 254
0.06003 -0.56690 -0.51451 254 254 254
0.06172 -0.57209 -0.50969 254 254 254
0.06341 -0.57728 -0.50488 254 254 254
0.06510 -0.58247 -0.50006 254 254 254
0.06678 -0.58765 -0.49524 254 254 254
0.06847 -0.59284 -0.49043 254 254 254
0.07015 -0.59802 -0.48561 254 254 254
0.07184 -0.60321 -0.48080 254 254 254
0.07352 -0.60839 -0.47599 254 254 254
0.07521 -0.61358 -0.47117 254 254 254
0.07689 -0.61876 -0.46636 254 254 254
0.07858 -0.62394 -0.46155 254 254 254
0.08026 -0.62912 -0.45674 254 254 254
0.08195 -0.63430 -0.45193 254 254 254
0.08363 -0.63947 -0.44713 254 254 254
0.08531 -0.64465 -0.44232 254 254 254
0.08700 -0.64983 -0.43751 254 254 254
0.08868 -0.65500 -0.43271 254 254 254
0.09036 -0.66018 -0.42790 254 254 254
0.02344 -0.48319 -0.59371 254 254 254
0.02512 -0.48837 -0.58890 254 254 254
0.02681 -0.49356 -0.58408 254 254 254
0.02849 -0.49874 -0.57927 254 254 254
0.03018 -0.50393 -0.57445 254 254 254
0.03187 -0.50911 -0.56964 254 254 254
0.03355 -0.51429 -0.56483 254 254 254
0.03524 -0.51947 -0.56002 254 254 254
0.03692 -0.52465 -0.55521 254 254 254
0.03861 -0.52983 -0.55040 254 254 254
0.04029 -0.53501 -0.54559 254 254 254
0.04197 -0.54019 -0.54079 254 254 254
0.04366 -0.54536 -0.53598 254 254 254
0.04534 -0.55054 -0.53118 254 254 254
0.04702 -0.55571 -0.52637 254 254 254
0.04871 -0.56089 -0.52157 254 254 254
0.05039 -0.56606 -0.51676 254 254 254
0.05207 -0.57123 -0.51196 254 254 254
0.05375 -0.57640 -0.50716 254 254 254
0.05544 -0.58157 -0.50236 254 254 254
0.05712 -0.58674 -0.49756 254 254 254
0.05880 -0.59191 -0.49276 254 254 254
0.06048 -0.59708 -0.48796 254 254 254
0.06216 -0.60224 -0.48317 254 254 254
0.06384 -0.60741 -0.47837 254 254 254
0.06552 -0.61257 -0.47357 254 254 254
0.06720 -0.61774 -0.46878 254 254 254
0.06888 -0.62290 -0.46398 254 254 254
0.07056 -0.62806 -0.45919 254 254 254
0.07224 -0.63322 -0.45440 254 254 254
0.07391 -0.63838 -0.44961 254 254 254
0.07559 -0.64354 -0.44482 254 254 254
0.07727 -0.64870 -0.44003 254 254 254
0.07895 -0.65386 -0.43524 254 254 254
0.01225 -0.47747 -0.60049 254 254 254
0.01394 -0.48264 -0.59569 254 254 254
0.01562 -0.48780 -0.59089 254 254 254
0.01730 -0.49297 -0.58609 254 254 254
0.01898 -0.49814 -0.58129 254 254 254
0.02066 -0.50330 -0.57649 254 254 254
0.02234 -0.50847 -0.57170 254 254 254
0.02402 -0.51363 -0.56690 254 254 254
0.02570 -0.51879 -0.56211 254 254 254
0.02738 -0.52396 -0.55732 254 254 254
0.02906 -0.52912 -0.55252 254 254 254
0.03074 -0.53428 -0.54773 254 254 254
0.03242 -0.53944 -0.54294 254 254 254
0.03410 -0.54460 -0.53815 254 254 254
0.03578 -0.54975 -0.53336 254 254 254
0.03746 -0.55491 -0.52857 254 254 254
0.03913 -0.56007 -0.52379 254 254 254
0.04081 -0.56522 -0.51900 254 254 254
0.04249 -0.57038 -0.51421 254 254 254
0.04417 -0.57553 -0.50943 254 254 254
0.04584 -0.58068 -0.50465 254 254 254
0.04752 -0.58583 -0.49986 254 254 254
0.04920 -0.59098 -0.49508 254 254 254
0.05087 -0.59613 -0.49030 254 254 254
0.05255 -0.60128 -0.48552 254 254 254
0.05422 -0.60643 -0.48074 254 254 254
0.05590 -0.61158 -0.47596 254 254 254
0.05757 -0.61672 -0.47118 254 254 254
0.05925 -0.62187 -0.46640 254 254 254
0.06092 -0.62701 -0.46162 254 254 254
0.06259 -0.63216 -0.45685 254 254 254
0.06427 -0.63730 -0.45207 254 254 254
0.06594 -0.64244 -0.44730 254 254 254
0.06761 -0.64758 -0.44252 254 254 254
0.06929 -0.65272 -0.43775 254 254 254
0.00283 -0.47694 -0.60243 254 254 254
0.00450 -0.48209 -0.59765 254 254 254
0.00618 -0.48724 -0.59286 254 254 254
0.00786 -0.49239 -0.58808 254 254 254
0.00953 -0.49754 -0.58330 254 254 254
0.01121 -0.50268 -0.57852 254 254 254
0.01288 -0.50783 -0.57374 254 254 254
0.01456 -0.51298 -0.56896 254 254 254
0.01623 -0.51812 -0.56418 254 254 254
0.01791 -0.52327 -0.55941 254 254 254
0.01958 -0.52841 -0.55463 254 254 254
0.02126 -0.53355 -0.54986 254 254 254
0.02293 -0.53870 -0.54508 254 254 254
0.02461 -0.54384 -0.54031 254 254 254
0.02628 -0.54898 -0.53554 254 254 253
0.02795 -0.55412 -0.53076 254 254 254
0.02963 -0.55925 -0.52599 254 254 254
0.03130 -0.56439 -0.52122 254 254 254
0.03297 -0.56953 -0.51645 254 254 254
0.03464 -0.57466 -0.51168 254 254 254
0.03631 -0.57980 -0.50691 254 254 254
0.03799 -0.58493 -0.50215 254 254 254
0.03966 -0.59007 -0.49738 254 254 254
0.04133 -0.59520 -0.49262 254 254 254
0.04300 -0.60033 -0.48785 254 254 254
0.04467 -0.60546 -0.48309 254 254 253
0.04634 -0.61059 -0.47832 254 254 254
0.04801 -0.61572 -0.47356 254 254 254
0.04968 -0.62085 -0.46880 254 254 254
0.05135 -0.62597 -0.46404 254 254 254
0.05302 -0.63110 -0.45928 254 254 254
0.05469 -0.63622 -0.45452 254 254 254
0.05635 -0.64135 -0.44976 254 254 253
0.05802 -0.64647 -0.44500 254 254 254
0.05969 -0.65159 -0.44025 254 254 254
-0.00821 -0.47127 -0.60913 254 254 254
-0.00654 -0.47641 -0.60436 254 254 254
-0.00487 -0.48154 -0.59959 254 254 254
-0.00319 -0.48668 -0.59483 254 254 253
-0.00152 -0.49181 -0.59006 254 254 253
0.00015 -0.49694 -0.58530 254 254 254
0.00182 -0.50207 -0.58053 254 254 254
0.00349 -0.50720 -0.57577 254 254 254
0.00516 -0.51233 -0.57101 254 254 254
0.00683 -0.51746 -0.56625 254 254 254
0.00850 -0.52258 -0.56148 254 254 254
0.01017 -0.52771 -0.55672 254 254 254
0.01184 -0.53283 -0.55197 254 254 254
0.01351 -0.53796 -0.54721 254 254 254
0.01518 -0.54308 -0.54245 254 254 254
0.01685 -0.54820 -0.53769 254 254 253
0.01852 -0.55333 -0.53294 254 254 252
0.02018 -0.55845 -0.52818 254 254 254
0.02185 -0.56357 -0.52343 254 254 254
0.02352 -0.56869 -0.51867 254 254 254
0.02519 -0.57380 -0.51392 254 254 254
0.02685 -0.57892 -0.50917 254 254 254
0.02852 -0.58404 -0.50442 254 254 253
0.03019 -0.58915 -0.49967 254 254 254
0.03185 -0.59427 -0.49492 254 254 254
0.03352 -0.59938 -0.49017 254 254 254
0.03518 -0.60449 -0.48542 254 254 254
0.03685 -0.60961 -0.48067 254 254 254
0.03851 -0.61472 -0.47593 254 254 254
0.04018 -0.61983 -0.47118 254 254 254
0.04184 -0.62494 -0.46644 254 254 254
0.04351 -0.63005 -0.46169 254 254 254
0.04517 -0.63515 -0.45695 254 254 254
0.04683 -0.64026 -0.45221 254 254 253
0.04850 -0.64537 -0.44747 254 254 252
-0.01917 -0.46565 -0.61578 254 254 254
-0.01751 -0.47077 -0.61103 254 254 254
-0.01584 -0.47589 -0.60628 254 254 254
-0.01417 -0.48100 -0.60153 254 254 254
-0.01250 -0.48612 -0.59678 254 254 254
-0.01084 -0.49123 -0.59203 254 254 254
-0.00917 -0.49635 -0.58728 254 254 254
-0.00751 -0.50146 -0.58253 254 254 254
-0.00584 -0.50657 -0.57778 254 254 254
-0.00417 -0.51168 -0.57304 254 254 254
-0.00251 -0.51679 -0.56829 254 254 253
-0.00084 -0.52190 -0.56355 254 254 254
0.00082 -0.52701 -0.55880 254 254 254
0.00249 -0.53212 -0.55406 254 254 254
0.00415 -0.53723 -0.54932 254 254 254
0.00581 -0.54233 -0.54458 254 254 254
0.00748 -0.54744 -0.53984 254 254 253
0.00914 -0.55254 -0.53510 254 254 254
0.01080 -0.55764 -0.53036 254 254 253
0.01247 -0.56275 -0.52562 254 254 254
0.01413 -0.56785 -0.52088 254 254 254
0.01579 -0.57295 -0.51614 254 254 254
0.01745 -0.57805 -0.51141 254 254 254
0.01912 -0.58315 -0.50667 254 254 253
0.02078 -0.58825 -0.50194 254 254 252
0.02244 -0.59334 -0.49720 254 254 254
0.02410 -0.59844 -0.49247 254 254 254
0.02576 -0.60354 -0.48774 254 254 254
0.02742 -0.60863 -0.48301 254 254 254
0.02908 -0.61373 -0.47828 254 254 254
0.03074 -0.61882 -0.47355 254 254 254
0.03240 -0.62391 -0.46882 254 254 254
0.03406 -0.62900 -0.46409 254 254 254
0.03572 -0.63409 -0.45937 254 254 254
0.03738 -0.63918 -0.45464 254 254 254
0.03903 -0.64427 -0.44991 254 254 254
-0.02840 -0.46517 -0.61766 254 254 254
-0.02674 -0.47027 -0.61292 254 254 254
-0.02508 -0.47537 -0.60818 254 254 254
-0.02341 -0.48046 -0.60345 254 254 254
-0.02175 -0.48556 -0.59872 254 254 254
-0.02009 -0.49066 -0.59398 254 254 254
-0.01843 -0.49576 -0.58925 254 254 254
-0.01677 -0.50085 -0.58452 254 254 254
-0.01511 -0.50595 -0.57979 254 254 254
-0.01344 -0.51104 -0.57505 254 254 254
-0.01178 -0.51613 -0.57033 254 254 254
-0.01012 -0.52123 -0.56560 254 254 254
-0.00846 -0.52632 -0.56087 254 254 253
-0.00680 -0.53141 -0.55614 254 254 253
-0.00515 -0.53650 -0.55141 254 254 254
-0.00349 -0.54159 -0.54669 254 254 254
-0.00183 -0.54668 -0.54196 254 254 254
-0.00017 -0.55176 -0.53724 254 254 254
0.00149 -0.55685 -0.53252 254 254 254
0.00315 -0.56193 -0.52779 254 254 254
0.00481 -0.56702 -0.52307 254 254 254
0.00646 -0.57210 -0.51835 254 254 254
0.00812 -0.57718 -0.51363 254 254 254
0.00978 -0.58227 -0.50891 254 254 254
0.01143 -0.58735 -0.50419 254 254 254
0.01309 -0.59243 -0.49948 254 254 253
0.01475 -0.59751 -0.49476 254 254 254
0.01640 -0.60259 -0.49004 254 254 254
0.01806 -0.60766 -0.48533 254 254 254
0.01971 -0.61274 -0.48061 254 254 254
0.02137 -0.61782 -0.47590 254 254 254
0.02302 -0.62289 -0.47119 254 254 254
0.02468 -0.62797 -0.46647 254 254 254
0.02633 -0.63304 -0.46176 254 254 254
0.02798 -0.63811 -0.45705 254 254 254
-0.03923 -0.45960 -0.62424 254 254 254
-0.03757 -0.46468 -0.61952 254 254 254
-0.03591 -0.46977 -0.61480 254 254 254
-0.03425 -0.47485 -0.61008 254 254 254
-0.03259 -0.47993 -0.60536 254 254 254
-0.03094 -0.48501 -0.60064 254 254 254
-0.02928 -0.49009 -0.59592 254 254 254
-0.02762 -0.49517 -0.59120 254 254 254
-0.02597 -0.50025 -0.58649 254 254 254
-0.02431 -0.50533 -0.58177 254 254 254
-0.02265 -0.51040 -0.57706 254 254 254
-0.02100 -0.51548 -0.57234 254 254 254
-0.01934 -0.52056 -0.56763 254 254 254
-0.01769 -0.52563 -0.56292 254 254 254
-0.01603 -0.53070 -0.55821 254 254 254
-0.01438 -0.53578 -0.55350 254 254 253
-0.01272 -0.54085 -0.54879 254 254 254
-0.01107 -0.54592 -0.54408 254 254 254
-0.00942 -0.55099 -0.53937 254 254 254
-0.00776 -0.55606 -0.53466 254 254 254
-0.00611 -0.56113 -0.52996 254 254 254
-0.00446 -0.56619 -0.52525 254 254 254
-0.00280 -0.57126 -0.52054 254 254 254
-0.00115 -0.57633 -0.51584 254 254 254
0.00050 -0.58139 -0.51114 254 254 254
0.00215 -0.58645 -0.50643 254 254 254
0.00380 -0.59152 -0.50173 254 254 254
0.00545 -0.59658 -0.49703 254 254 254
0.00711 -0.60164 -0.49233 254 254 253
0.00876 -0.60670 -0.48763 254 254 253
0.01041 -0.61176 -0.48293 254 254 254
0.01206 -0.61682 -0.47823 254 254 254
0.01371 -0.62188 -0.47354 254 254 254
0.01536 -0.62694 -0.46884 254 254 254
0.01701 -0.63199 -0.46414 254 254 254
0.01865 -0.63705 -0.45945 254 254 254
-0.04832 -0.45914 -0.62607 254 254 254
-0.04667 -0.46420 -0.62137 254 254 254
-0.04502 -0.46927 -0.61666 254 254 254
-0.04336 -0.47434 -0.61196 254 254 254
-0.04171 -0.47940 -0.60725 254 254 254
-0.04006 -0.48447 -0.60255 254 254 254
-0.03841 -0.48953 -0.59785 254 254 254
-0.03675 -0.49459 -0.59315 254 254 254
-0.03510 -0.49965 -0.58845 254 254 254
-0.03345 -0.50471 -0.58375 254 254 254
-0.03180 -0.50977 -0.57905 254 254 254
-0.03015 -0.51483 -0.57435 254 254 254
-0.02850 -0.51989 -0.56965 254 254 253
-0.02685 -0.52495 -0.56496 254 254 253
-0.02520 -0.53000 -0.56026 254 254 254
-0.02355 -0.53506 -0.55557 254 254 254
-0.02190 -0.54011 -0.55087 254 254 254
-0.02025 -0.54517 -0.54618 254 254 254
-0.01860 -0.55022 -0.54149 254 254 254
-0.01695 -0.55527 -0.53679 254 254 254
-0.01530 -0.56032 -0.53210 254 254 254
-0.01366 -0.56537 -0.52741 254 254 254
-0.01201 -0.57042 -0.52272 254 254 253
-0.01036 -0.57547 -0.51803 254 254 254
-0.00871 -0.58052 -0.51335 254 254 253
-0.00707 -0.58557 -0.50866 254 254 254
-0.00542 -0.59061 -0.50397 254 254 253
-0.00377 -0.59566 -0.49929 254 254 254
-0.00213 -0.60070 -0.49460 254 254 254
-0.00048 -0.60575 -0.48992 254 254 254
0.00116 -0.61079 -0.48524 254 254 254
0.00281 -0.61583 -0.48055 254 254 254
0.00445 -0.62087 -0.47587 254 254 254
0.00610 -0.62591 -0.47119 254 254 254
0.00774 -0.63095 -0.46651 254 254 254
-0.05901 -0.45363 -0.63258 254 254 252
-0.05736 -0.45868 -0.62789 254 254 252
-0.05571 -0.46373 -0.62320 254 254 253
-0.05406 -0.46878 -0.61851 254 254 254
-0.05241 -0.47383 -0.61382 254 254 253
-0.05077 -0.47888 -0.60914 254 254 254
-0.04912 -0.48392 -0.60445 254 254 254
-0.04747 -0.48897 -0.59976 254 254 254
-0.04582 -0.49401 -0.59508 254 254 254
-0.04418 -0.49906 -0.59039 254 254 254
-0.04253 -0.50410 -0.58571 254 254 254
-0.04088 -0.50914 -0.58102 254 254 254
-0.03924 -0.51419 -0.57634 254 254 254
-0.03759 -0.51923 -0.57166 254 254 254
-0.03595 -0.52427 -0.56698 254 254 254
-0.03430 -0.52931 -0.56230 254 254 253
-0.03266 -0.53435 -0.55762 254 254 254
-0.03101 -0.53938 -0.55294 254 254 254
-0.02937 -0.54442 -0.54826 254 254 254
-0.02772 -0.54946 -0.54359 254 254 254
-0.02608 -0.55449 -0.53891 254 254 254
-0.02444 -0.55953 -0.53423 254 254 254
-0.02279 -0.56456 -0.52956 254 254 254
-0.02115 -0.56959 -0.52489 254 254 254
-0.01951 -0.57462 -0.52021 254 254 254
-0.01787 -0.57965 -0.51554 254 254 253
-0.01622 -0.58468 -0.51087 254 254 252
-0.01458 -0.58971 -0.50620 254 254 254
-0.01294 -0.59474 -0.50153 254 254 254
-0.01130 -0.59977 -0.49686 254 254 254
-0.00966 -0.60480 -0.49219 254 254 254
-0.00802 -0.60982 -0.48752 254 254 254
-0.00638 -0.61485 -0.48286 254 254 254
-0.00474 -0.61987 -0.47819 254 254 254
-0.00310 -0.62490 -0.47352 254 254 254
-0.00146 -0.62992 -0.46886 254 254 254
-0.06963 -0.44815 -0.63905 254 254 252
-0.06798 -0.45319 -0.63438 254 254 252
-0.06634 -0.45822 -0.62970 254 254 252
-0.06469 -0.46326 -0.62503 254 254 252
-0.06305 -0.46829 -0.62035 254 254 253
-0.06141 -0.47332 -0.61568 254 254 254
-0.05976 -0.47835 -0.61101 254 254 254
-0.05812 -0.48338 -0.60633 254 254 254
-0.05648 -0.48841 -0.60166 254 254 254
-0.05483 -0.49344 -0.59699 254 254 254
-0.05319 -0.49847 -0.59232 254 254 254
-0.05155 -0.50349 -0.58766 254 254 254
-0.04991 -0.50852 -0.58299 254 254 254
-0.04827 -0.51355 -0.57832 254 254 254
-0.04663 -0.51857 -0.57365 254 254 254
-0.04499 -0.52359 -0.56899 254 254 254
-0.04335 -0.52862 -0.56432 254 254 254
-0.04171 -0.53364 -0.55966 254 254 254
-0.04007 -0.53866 -0.55500 254 254 254
-0.03843 -0.54368 -0.55034 254 254 254
-0.03679 -0.54870 -0.54567 254 254 254
-0.03515 -0.55372 -0.54101 254 254 254
-0.03351 -0.55873 -0.53635 254 254 254
-0.03187 -0.56375 -0.53169 254 254 253
-0.03023 -0.56877 -0.52704 254 254 254
-0.02859 -0.57378 -0.52238 254 254 254
-0.02696 -0.57880 -0.51772 254 254 254
-0.02532 -0.58381 -0.51306 254 254 254
-0.02368 -0.58882 -0.50841 254 254 253
-0.02204 -0.59383 -0.50375 254 254 254
-0.02041 -0.59884 -0.49910 254 254 254
-0.01877 -0.60385 -0.49445 254 254 254
-0.01714 -0.60886 -0.48980 254 254 253
-0.01550 -0.61387 -0.48514 254 254 252
-0.01386 -0.61888 -0.48049 254 254 254
-0.01223 -0.62389 -0.47584 254 254 254
-0.01059 -0.62889 -0.47119 254 254 254
-0.07853 -0.44774 -0.64082 254 254 253
-0.07689 -0.45275 -0.63616 254 254 253
-0.07525 -0.45777 -0.63150 254 254 253
-0.07361 -0.46279 -0.62684 254 254 253
-0.07197 -0.46780 -0.62218 254 254 253
-0.07034 -0.47282 -0.61752 254 254 251
-0.06870 -0.47783 -0.61286 254 254 252
-0.06706 -0.48285 -0.60821 254 254 254
-0.06542 -0.48786 -0.60355 254 254 254
-0.06378 -0.49287 -0.59890 254 254 254
-0.06215 -0.49788 -0.59424 254 254 254
-0.06051 -0.50289 -0.58959 254 254 254
-0.05887 -0.50790 -0.58494 254 254 254
-0.05724 -0.51291 -0.58029 254 254 254
-0.05560 -0.51792 -0.57564 254 254 253
-0.05396 -0.52292 -0.57099 254 254 252
-0.05233 -0.52793 -0.56634 254 254 251
-0.05069 -0.53293 -0.56169 254 254 253
-0.04906 -0.53794 -0.55704 254 254 254
-0.04742 -0.54294 -0.55239 254 254 254
-0.04579 -0.54794 -0.54775 254 254 254
-0.04415 -0.55295 -0.54310 254 254 254
-0.04252 -0.55795 -0.53846 254 254 253
-0.04089 -0.56295 -0.53381 254 254 254
-0.03925 -0.56795 -0.52917 254 254 254
-0.03762 -0.57294 -0.52453 254 254 254
-0.03599 -0.57794 -0.51989 254 254 253
-0.03435 -0.58294 -0.51525 254 254 254
-0.03272 -0.58793 -0.51061 254 254 254
-0.03109 -0.59293 -0.50597 254 254 254
-0.02946 -0.59792 -0.50133 254 254 254
-0.02782 -0.60292 -0.49669 254 254 254
-0.02619 -0.60791 -0.49205 254 254 254
-0.02456 -0.61290 -0.48742 254 254 254
-0.02293 -0.61789 -0.48278 254 254 253
-0.02130 -0.62288 -0.47815 254 254 254
-0.08902 -0.44232 -0.64722 254 254 250
-0.08738 -0.44732 -0.64257 254 254 251
-0.08574 -0.45232 -0.63792 254 254 253
-0.08411 -0.45732 -0.63328 254 254 253
-0.08248 -0.46232 -0.62864 254 254 253
-0.08084 -0.46732 -0.62399 254 254 253
-0.07921 -0.47232 -0.61935 254 254 253
-0.07757 -0.47732 -0.61471 254 254 253
-0.07594 -0.48231 -0.61007 254 254 253
-0.07431 -0.48731 -0.60543 254 254 253
-0.07267 -0.49231 -0.60079 254 254 253
-0.07104 -0.49730 -0.59615 254 254 254
-0.06941 -0.50229 -0.59151 254 254 252
-0.06778 -0.50729 -0.58687 254 254 252
-0.06614 -0.51228 -0.58224 254 254 254
-0.06451 -0.51727 -0.57760 254 254 254
-0.06288 -0.52226 -0.57297 254 254 254
-0.06125 -0.52725 -0.56833 254 254 254
-0.05962 -0.53224 -0.56370 254 254 253
-0.05799 -0.53722 -0.55907 254 254 253
-0.05636 -0.54221 -0.55444 254 254 254
-0.05473 -0.54720 -0.54981 254 254 254
-0.05310 -0.55218 -0.54518 254 254 254
-0.05147 -0.55717 -0.54055 254 254 254
-0.04984 -0.56215 -0.53592 254 254 254
-0.04821 -0.56713 -0.53129 254 254 254
-0.04658 -0.57211 -0.52666 254 254 254
-0.04496 -0.57709 -0.52204 254 254 254
-0.04333 -0.58207 -0.51741 254 254 254
-0.04170 -0.58705 -0.51279 254 254 254
-0.04007 -0.59203 -0.50816 254 254 254
-0.03845 -0.59701 -0.50354 254 254 254
-0.03682 -0.60199 -0.49892 254 254 254
-0.03519 -0.60696 -0.49430 254 254 254
-0.03357 -0.61194 -0.48967 254 254 253
-0.03194 -0.61691 -0.48505 254 254 252
-0.03031 -0.62189 -0.48043 254 254 254
-0.09943 -0.43693 -0.65357 253 253 247
-0.09780 -0.44192 -0.64894 254 254 249
-0.09617 -0.44691 -0.64431 254 254 252
-0.09454 -0.45189 -0.63968 254 254 253
-0.09291 -0.45688 -0.63505 254 254 254
-0.09128 -0.46186 -0.63042 254 254 253
-0.08965 -0.46684 -0.62579 254 254 251
-0.08802 -0.47182 -0.62117 254 254 251
-0.08639 -0.47681 -0.61654 254 254 251
-0.08476 -0.48179 -0.61192 254 254 253
-0.08313 -0.48676 -0.60729 254 254 254
-0.08151 -0.49174 -0.60267 254 254 253
-0.07988 -0.49672 -0.59804 254 254 253
-0.07825 -0.50170 -0.59342 254 254 254
-0.07662 -0.50667 -0.58880 254 254 253
-0.07499 -0.51165 -0.58418 254 254 253
-0.07337 -0.51662 -0.57956 254 254 254
-0.07174 -0.52160 -0.57494 254 254 254
-0.07012 -0.52657 -0.57032 254 254 254
-0.06849 -0.53154 -0.56570 254 254 254
-0.06686 -0.53651 -0.56108 254 254 254
-0.06524 -0.54148 -0.55647 254 254 254
-0.06361 -0.54645 -0.55185 254 254 254
-0.06199 -0.55142 -0.54724 254 254 253
-0.06036 -0.55639 -0.54262 254 254 254
-0.05874 -0.56136 -0.53801 254 254 254
-0.05711 -0.56632 -0.53340 254 254 254
-0.05549 -0.57129 -0.52878 254 254 254
-0.05387 -0.57625 -0.52417 254 254 253
-0.05224 -0.58122 -0.51956 254 254 253
-0.05062 -0.58618 -0.51495 254 254 252
-0.04900 -0.59114 -0.51034 254 254 254
-0.04737 -0.59610 -0.50574 254 254 254
-0.04575 -0.60106 -0.50113 254 254 254
-0.04413 -0.60602 -0.49652 254 254 253
-0.04251 -0.61098 -0.49192 254 254 254
-0.04089 -0.61594 -0.48731 254 254 254
-0.10815 -0.43656 -0.65527 254 254 251
-0.10653 -0.44153 -0.65066 254 254 250
-0.10490 -0.44650 -0.64604 254 254 250
-0.10327 -0.45147 -0.64143 254 254 251
-0.10165 -0.45643 -0.63681 254 254 252
-0.10002 -0.46140 -0.63220 254 254 253
-0.09840 -0.46637 -0.62758 254 254 252
-0.09677 -0.47133 -0.62297 254 254 250
-0.09515 -0.47630 -0.61836 254 254 249
-0.09353 -0.48126 -0.61375 254 254 250
-0.09190 -0.48622 -0.60914 254 254 253
-0.09028 -0.49118 -0.60453 254 254 254
-0.08865 -0.49615 -0.59992 254 254 253
-0.08703 -0.50111 -0.59532 254 254 250
-0.08541 -0.50607 -0.59071 254 254 251
-0.08379 -0.51103 -0.58610 254 254 253
-0.08216 -0.51598 -0.58150 254 254 253
-0.08054 -0.52094 -0.57689 254 254 253
-0.07892 -0.52590 -0.57229 254 254 253
-0.07730 -0.53085 -0.56769 254 254 254
-0.07568 -0.53581 -0.56309 254 254 254
-0.07406 -0.54076 -0.55848 254 254 254
-0.07244 -0.54571 -0.55388 254 254 254
-0.07082 -0.55067 -0.54928 254 254 254
-0.06920 -0.55562 -0.54469 254 254 254
-0.06758 -0.56057 -0.54009 254 254 254
-0.06596 -0.56552 -0.53549 254 254 254
-0.06434 -0.57047 -0.53089 254 254 254
-0.06272 -0.57542 -0.52630 254 254 254
-0.06110 -0.58036 -0.52170 254 254 254
-0.05948 -0.58531 -0.51711 254 254 254
-0.05786 -0.59026 -0.51251 254 254 253
-0.05624 -0.59520 -0.50792 254 254 254
-0.05463 -0.60015 -0.50333 254 254 254
-0.05301 -0.60509 -0.49874 254 254 254
-0.05139 -0.61003 -0.49414 254 254 254
-0.04978 -0.61497 -0.48955 254 254 254
-0.11844 -0.43123 -0.66156 254 254 250
-0.11682 -0.43618 -0.65696 254 254 249
-0.11519 -0.44114 -0.65236 254 254 251
-0.11357 -0.44609 -0.64776 254 254 252
-0.11195 -0.45104 -0.64316 254 254 251
-0.11033 -0.45599 -0.63856 254 254 250
-0.10871 -0.46094 -0.63396 254 254 250
-0.10709 -0.46589 -0.62936 254 254 252
-0.10547 -0.47084 -0.62477 254 254 253
-0.10385 -0.47579 -0.62017 254 254 251
-0.10223 -0.48074 -0.61557 254 254 251
-0.10061 -0.48568 -0.61098 254 254 252
-0.09899 -0.49063 -0.60639 254 254 254
-0.09737 -0.49558 -0.60179 254 254 254
-0.09576 -0.50052 -0.59720 254 254 253
-0.09414 -0.50546 -0.59261 254 254 252
-0.09252 -0.51041 -0.58802 254 254 252
-0.09090 -0.51535 -0.58343 254 254 253
-0.08928 -0.52029 -0.57884 254 254 254
-0.08767 -0.52523 -0.57425 254 254 254
-0.08605 -0.53017 -0.56966 254 254 254
-0.08443 -0.53511 -0.56508 254 254 254
-0.08282 -0.54004 -0.56049 254 254 254
-0.08120 -0.54498 -0.55590 254 254 254
-0.07959 -0.54992 -0.55132 254 254 254
-0.07797 -0.55485 -0.54673 254 254 254
-0.07636 -0.55979 -0.54215 254 254 254
-0.07474 -0.56472 -0.53757 254 254 254
-0.07313 -0.56965 -0.53299 254 254 254
-0.07151 -0.57459 -0.52841 254 254 254
-0.06990 -0.57952 -0.52382 254 254 254
-0.06828 -0.58445 -0.51924 254 254 254
-0.06667 -0.58938 -0.51467 254 254 254
-0.06506 -0.59431 -0.51009 254 254 254
-0.06344 -0.59923 -0.50551 254 254 254
-0.06183 -0.60416 -0.50093 254 254 254
-0.06022 -0.60909 -0.49636 254 254 254
-0.12866 -0.42593 -0.66781 254 254 252
-0.12704 -0.43087 -0.66323 254 254 252
-0.12542 -0.43581 -0.65864 254 254 251
-0.12381 -0.44075 -0.65405 254 254 251
-0.12219 -0.44568 -0.64947 254 254 253
-0.12057 -0.45062 -0.64488 254 254 253
-0.11896 -0.45556 -0.64030 254 254 251
-0.11734 -0.46049 -0.63571 254 254 250
-0.11572 -0.46542 -0.63113 254 254 250
-0.11411 -0.47036 -0.62655 254 254 251
-0.11249 -0.47529 -0.62197 254 254 251
-0.11088 -0.48022 -0.61739 254 254 252
-0.10926 -0.48515 -0.61281 254 254 253
-0.10765 -0.49008 -0.60823 254 254 253
-0.10604 -0.49501 -0.60365 254 254 253
-0.10442 -0.49994 -0.59907 254 254 253
-0.10281 -0.50486 -0.59450 254 254 253
-0.10120 -0.50979 -0.58992 254 254 254
-0.09958 -0.51472 -0.58534 254 254 254
-0.09797 -0.51964 -0.58077 254 254 254
-0.09636 -0.52456 -0.57620 254 254 254
-0.09475 -0.52949 -0.57162 254 254 254
-0.09313 -0.53441 -0.56705 254 254 254
-0.09152 -0.53933 -0.56248 254 254 253
-0.08991 -0.54425 -0.55791 254 254 254
-0.08830 -0.54917 -0.55334 254 254 254
-0.08669 -0.55409 -0.54877 254 254 254
-0.08508 -0.55901 -0.54420 254 254 254
-0.08347 -0.56393 -0.53963 254 254 254
-0.08186 -0.56884 -0.53507 254 254 252
-0.08025 -0.57376 -0.53050 254 254 252
-0.07864 -0.57867 -0.52593 254 254 254
-0.07703 -0.58359 -0.52137 254 254 254
-0.07542 -0.58850 -0.51681 254 254 254
-0.07381 -0.59342 -0.51224 254 254 254
-0.07220 -0.59833 -0.50768 254 254 254
-0.07059 -0.60324 -0.50312 254 254 253
-0.06899 -0.60815 -0.49856 254 254 252
-0.13720 -0.42559 -0.66945 254 254 252
-0.13559 -0.43052 -0.66488 254 254 251
-0.13397 -0.43544 -0.66030 254 254 251
-0.13236 -0.44036 -0.65573 254 254 252
-0.13075 -0.44528 -0.65116 254 254 253
-0.12914 -0.45020 -0.64659 254 254 254
-0.12753 -0.45512 -0.64202 254 254 252
-0.12591 -0.46004 -0.63745 254 254 250
-0.12430 -0.46496 -0.63289 254 254 248
-0.12269 -0.46987 -0.62832 254 254 250
-0.12108 -0.47479 -0.62375 254 254 252
-0.11947 -0.47970 -0.61919 254 254 252
-0.11786 -0.48462 -0.61462 254 254 252
-0.11625 -0.48953 -0.61006 254 254 251
-0.11464 -0.49444 -0.60549 254 254 252
-0.11303 -0.49936 -0.60093 254 254 253
-0.11142 -0.50427 -0.59637 254 254 254
-0.10982 -0.50918 -0.59181 254 254 253
-0.10821 -0.51409 -0.58725 254 254 254
-0.10660 -0.51900 -0.58269 254 254 254
-0.10499 -0.52390 -0.57813 254 254 254
-0.10338 -0.52881 -0.57357 254 254 254
-0.10178 -0.53372 -0.56901 254 254 254
-0.10017 -0.53862 -0.56446 254 254 254
-0.09856 -0.54353 -0.55990 254 254 254
-0.09695 -0.54843 -0.55535 254 254 254
-0.09535 -0.55334 -0.55079 254 254 254
-0.09374 -0.55824 -0.54624 254 254 254
-0.09214 -0.56314 -0.54168 254 254 253
-0.09053 -0.56804 -0.53713 254 254 254
-0.08893 -0.57294 -0.53258 254 254 254
-0.08732 -0.57784 -0.52803 254 254 253
-0.08572 -0.58274 -0.52348 254 254 254
-0.08411 -0.58763 -0.51893 254 254 254
-0.08251 -0.59253 -0.51438 254 254 254
-0.08090 -0.59743 -0.50983 254 254 254
-0.07930 -0.60232 -0.50529 254 254 254
-0.07770 -0.60722 -0.50074 254 254 254
-0.14729 -0.42035 -0.67563 254 254 251
-0.14568 -0.42526 -0.67107 254 254 249
-0.14408 -0.43017 -0.66652 254 254 250
-0.14247 -0.43507 -0.66196 254 254 250
-0.14086 -0.43998 -0.65740 254 254 250
-0.13925 -0.44488 -0.65285 254 254 252
-0.13764 -0.44979 -0.64829 254 254 254
-0.13604 -0.45469 -0.64374 254 254 253
-0.13443 -0.45959 -0.63918 254 254 253
-0.13282 -0.46449 -0.63463 254 254 252
-0.13122 -0.46939 -0.63008 254 254 251
-0.12961 -0.47429 -0.62553 254 254 252
-0.12801 -0.47919 -0.62097 254 254 253
-0.12640 -0.48409 -0.61642 254 254 253
-0.12480 -0.48899 -0.61188 254 254 252
-0.12319 -0.49389 -0.60733 254 254 252
-0.12159 -0.49878 -0.60278 254 254 253
-0.11998 -0.50368 -0.59823 254 254 254
-0.11838 -0.50857 -0.59369 254 254 254
-0.11677 -0.51346 -0.58914 254 254 254
-0.11517 -0.51836 -0.58459 254 254 254
-0.11357 -0.52325 -0.58005 254 254 254
-0.11196 -0.52814 -0.57551 254 254 254
-0.11036 -0.53303 -0.57096 254 254 254
-0.10876 -0.53792 -0.56642 254 254 253
-0.10716 -0.54281 -0.56188 254 254 252
-0.10555 -0.54770 -0.55734 254 254 253
-0.10395 -0.55258 -0.55280 254 254 253
-0.10235 -0.55747 -0.54826 254 254 254
-0.10075 -0.56236 -0.54372 254 254 254
-0.09915 -0.56724 -0.53919 254 254 254
-0.09755 -0.57212 -0.53465 254 254 254
-0.09595 -0.57701 -0.53011 254 254 253
-0.09435 -0.58189 -0.52558 254 254 253
-0.09275 -0.58677 -0.52104 254 254 254
-0.09115 -0.59165 -0.51651 254 254 254
-0.08955 -0.59653 -0.51198 254 254 254
-0.08795 -0.60141 -0.50744 254 254 253
-0.15572 -0.42003 -0.67723 254 254 252
-0.15411 -0.42493 -0.67269 254 254 252
-0.15251 -0.42982 -0.66815 254 254 252
-0.15091 -0.43471 -0.66360 254 254 252
-0.14930 -0.43960 -0.65906 254 254 252
-0.14770 -0.44448 -0.65452 254 254 252
-0.14610 -0.44937 -0.64998 254 254 253
-0.14450 -0.45426 -0.64544 254 254 254
-0.14289 -0.45915 -0.64090 254 254 254
-0.14129 -0.46403 -0.63636 254 254 253
-0.13969 -0.46892 -0.63182 254 254 254
-0.13809 -0.47380 -0.62729 254 254 253
-0.13649 -0.47868 -0.62275 254 254 253
-0.13489 -0.48357 -0.61822 254 254 253
-0.13329 -0.48845 -0.61368 254 254 252
-0.13169 -0.49333 -0.60915 254 254 249
-0.13009 -0.49821 -0.60461 254 254 251
-0.12849 -0.50309 -0.60008 254 254 254
-0.12689 -0.50797 -0.59555 254 254 254
-0.12529 -0.51284 -0.59102 254 254 254
-0.12369 -0.51772 -0.58649 254 254 254
-0.12209 -0.52260 -0.58196 254 254 254
-0.12049 -0.52747 -0.57743 254 254 254
-0.11889 -0.53235 -0.57290 254 254 254
-0.11729 -0.53722 -0.56837 254 254 254
-0.11570 -0.54209 -0.56385 254 254 254
-0.11410 -0.54697 -0.55932 254 254 253
-0.11250 -0.55184 -0.55480 254 254 254
-0.11090 -0.55671 -0.55027 254 254 253
-0.10931 -0.56158 -0.54575 254 254 254
-0.10771 -0.56645 -0.54123 254 254 254
-0.10611 -0.57132 -0.53670 254 254 254
-0.10452 -0.57618 -0.53218 254 254 254
-0.10292 -0.58105 -0.52766 254 254 254
-0.10133 -0.58592 -0.52314 254 254 253
-0.09973 -0.59078 -0.51862 254 254 254
-0.09814 -0.59564 -0.51410 254 254 254
-0.16569 -0.41484 -0.68335 254 254 249
-0.16409 -0.41972 -0.67882 254 254 251
-0.16249 -0.42459 -0.67429 254 254 250
-0.16089 -0.42947 -0.66977 254 254 250
-0.15929 -0.43434 -0.66524 254 254 252
-0.15769 -0.43922 -0.66071 254 254 253
-0.15609 -0.44409 -0.65618 254 254 252
-0.15450 -0.44896 -0.65166 254 254 253
-0.15290 -0.45383 -0.64713 254 254 254
-0.15130 -0.45870 -0.64261 254 254 254
-0.14970 -0.46357 -0.63808 254 254 254
-0.14811 -0.46844 -0.63356 254 254 253
-0.14651 -0.47331 -0.62904 254 254 252
-0.14491 -0.47818 -0.62452 254 254 249
-0.14332 -0.48305 -0.62000 254 254 249
-0.14172 -0.48791 -0.61548 254 254 251
-0.14012 -0.49278 -0.61096 254 254 252
-0.13853 -0.49764 -0.60644 254 254 252
-0.13693 -0.50250 -0.60192 254 254 253
-0.13534 -0.50737 -0.59740 254 254 252
-0.13374 -0.51223 -0.59289 254 254 253
-0.13215 -0.51709 -0.58837 254 254 253
-0.13055 -0.52195 -0.58385 254 254 254
-0.12896 -0.52681 -0.57934 254 254 254
-0.12737 -0.53167 -0.57483 254 254 254
-0.12577 -0.53653 -0.57031 254 254 254
-0.12418 -0.54138 -0.56580 254 254 254
-0.12259 -0.54624 -0.56129 254 254 254
-0.12099 -0.55110 -0.55678 254 254 254
-0.11940 -0.55595 -0.55227 254 254 254
-0.11781 -0.56081 -0.54776 254 254 254
-0.11622 -0.56566 -0.54325 254 254 254
-0.11462 -0.57051 -0.53874 254 254 252
-0.11303 -0.57536 -0.53424 254 254 249
-0.11144 -0.58021 -0.52973 254 254 250
-0.10985 -0.58506 -0.52522 254 254 254
-0.10826 -0.58991 -0.52072 254 254 252
-0.10667 -0.59476 -0.51622 254 254 252
-0.17560 -0.40968 -0.68944 254 254 250
-0.17400 -0.41454 -0.68492 254 254 250
-0.17241 -0.41940 -0.68040 254 254 250
-0.17081 -0.42426 -0.67589 254 254 250
-0.16922 -0.42912 -0.67137 254 254 250
-0.16762 -0.43398 -0.66686 254 254 252
-0.16603 -0.43884 -0.66235 254 254 252
-0.16443 -0.44370 -0.65784 254 254 253
-0.16284 -0.44855 -0.65332 254 254 253
