ply
format ascii 1.0
element face 0
property list uchar int vertex_indices
element vertex 1256
property float x
property float y
property float z
property uchar diffuse_red
property uchar diffuse_green
property uchar diffuse_blue
end_header
0.93361 -0.81916 -0.19215 251 250 251
0.93830 -0.82538 -0.18609 251 250 251
0.94298 -0.83160 -0.18004 251 250 251
0.94765 -0.83780 -0.17399 251 250 251
0.95232 -0.84400 -0.16795 251 250 251
0.95698 -0.85018 -0.16192 251 250 251
0.96163 -0.85636 -0.15590 251 250 251
0.96628 -0.86253 -0.14989 251 250 251
0.97092 -0.86869 -0.14388 251 250 251
0.97556 -0.87484 -0.13789 251 250 250
0.98019 -0.88098 -0.13190 251 250 251
0.98481 -0.88712 -0.12592 251 250 251
0.98942 -0.89324 -0.11995 251 250 251
0.99403 -0.89936 -0.11399 251 250 251
0.99863 -0.90547 -0.10803 252 250 251
1.00323 -0.91157 -0.10209 252 250 251
1.00782 -0.91766 -0.09615 252 250 251
1.01240 -0.92374 -0.09022 252 250 251
1.01698 -0.92982 -0.08430 252 250 251
1.02155 -0.93588 -0.07839 252 251 251
1.02611 -0.94194 -0.07248 252 251 251
1.03067 -0.94799 -0.06659 252 251 252
1.03522 -0.95403 -0.06070 252 252 252
1.03977 -0.96006 -0.05482 252 252 252
1.04431 -0.96609 -0.04895 252 252 252
1.04884 -0.97210 -0.04309 253 254 249
0.69451 -0.52608 -0.48140 253 253 253
0.69951 -0.53271 -0.47495 253 253 253
0.70451 -0.53932 -0.46850 253 253 253
0.70950 -0.54592 -0.46206 252 252 252
0.71447 -0.55251 -0.45564 252 252 252
0.71945 -0.55909 -0.44922 252 252 252
0.72441 -0.56566 -0.44281 252 252 252
0.72937 -0.57223 -0.43641 252 252 252
0.73432 -0.57878 -0.43002 252 252 252
0.73927 -0.58533 -0.42364 252 251 251
0.74420 -0.59186 -0.41727 252 251 251
0.74913 -0.59839 -0.41090 252 250 251
0.75406 -0.60490 -0.40455 252 250 251
0.75897 -0.61141 -0.39820 251 250 251
0.76388 -0.61791 -0.39187 251 250 251
0.76878 -0.62440 -0.38554 251 250 250
0.77367 -0.63087 -0.37923 251 250 250
0.77856 -0.63734 -0.37292 251 250 251
0.78344 -0.64380 -0.36662 251 250 251
0.78831 -0.65025 -0.36033 251 250 251
0.79318 -0.65670 -0.35405 251 250 251
0.79804 -0.66313 -0.34778 251 249 251
0.80289 -0.66955 -0.34151 251 249 251
0.80774 -0.67596 -0.33526 251 249 251
0.81258 -0.68237 -0.32901 251 249 251
0.81741 -0.68877 -0.32278 251 249 251
0.82223 -0.69515 -0.31655 251 249 251
0.82705 -0.70153 -0.31033 251 249 251
0.83186 -0.70790 -0.30412 251 249 251
0.83666 -0.71426 -0.29792 250 249 251
0.84146 -0.72061 -0.29173 250 249 251
0.84625 -0.72695 -0.28555 250 249 251
0.85104 -0.73328 -0.27937 250 249 251
0.85581 -0.73960 -0.27321 250 249 251
0.86058 -0.74592 -0.26705 251 249 251
0.86535 -0.75222 -0.26090 251 249 251
0.87010 -0.75852 -0.25476 251 249 251
0.87485 -0.76481 -0.24863 251 249 251
0.87959 -0.77108 -0.24251 251 249 251
0.88433 -0.77735 -0.23640 251 249 251
0.88906 -0.78361 -0.23029 251 249 251
0.89378 -0.78987 -0.22420 251 249 251
0.89850 -0.79611 -0.21811 251 249 251
0.90321 -0.80234 -0.21203 251 249 251
0.90791 -0.80857 -0.20596 251 249 251
0.91261 -0.81478 -0.19990 251 249 251
0.91730 -0.82099 -0.19385 251 249 251
0.92198 -0.82719 -0.18780 251 249 251
0.92666 -0.83338 -0.18176 251 250 251
0.93133 -0.83956 -0.17574 251 250 251
0.93599 -0.84574 -0.16972 251 250 251
0.94065 -0.85190 -0.16371 251 250 251
0.94530 -0.85806 -0.15771 251 250 251
0.94994 -0.86420 -0.15171 251 250 251
0.95458 -0.87034 -0.14573 251 250 251
0.95921 -0.87647 -0.13975 251 250 251
0.96383 -0.88259 -0.13378 251 250 250
0.96845 -0.88871 -0.12782 251 250 251
0.97306 -0.89481 -0.12187 251 250 251
0.97767 -0.90091 -0.11592 251 250 251
0.98227 -0.90699 -0.10999 252 250 251
0.98686 -0.91307 -0.10406 252 250 251
0.99144 -0.91914 -0.09814 252 250 251
0.99602 -0.92520 -0.09223 252 250 251
1.00060 -0.93126 -0.08633 252 250 251
1.00516 -0.93730 -0.08043 252 250 251
1.00972 -0.94334 -0.07455 252 251 251
1.01428 -0.94937 -0.06867 252 251 251
1.01883 -0.95539 -0.06280 252 251 251
1.02337 -0.96140 -0.05694 252 251 252
1.02790 -0.96740 -0.05109 252 252 252
1.03243 -0.97340 -0.04524 252 252 252
1.03695 -0.97938 -0.03940 252 252 252
1.04147 -0.98536 -0.03357 254 254 246
0.68354 -0.53558 -0.47571 253 253 253
0.68852 -0.54216 -0.46929 253 253 253
0.69351 -0.54874 -0.46287 253 253 253
0.69848 -0.55531 -0.45647 252 252 252
0.70345 -0.56187 -0.45007 252 252 252
0.70841 -0.56841 -0.44368 252 252 252
0.71336 -0.57495 -0.43730 252 252 252
0.71831 -0.58148 -0.43093 252 252 252
0.72324 -0.58800 -0.42457 252 251 252
0.72818 -0.59451 -0.41822 252 251 251
0.73310 -0.60101 -0.41188 252 251 251
0.73802 -0.60751 -0.40555 252 250 251
0.74293 -0.61399 -0.39922 252 250 251
0.74783 -0.62046 -0.39291 251 250 251
0.75273 -0.62693 -0.38660 251 250 250
0.75761 -0.63338 -0.38031 251 250 250
0.76250 -0.63983 -0.37402 251 250 251
0.76737 -0.64626 -0.36774 251 250 251
0.77224 -0.65269 -0.36147 251 250 251
0.77710 -0.65911 -0.35521 251 250 251
0.78196 -0.66552 -0.34896 251 249 251
0.78680 -0.67191 -0.34272 251 249 251
0.79164 -0.67831 -0.33649 251 249 251
0.79648 -0.68469 -0.33026 251 249 251
0.80130 -0.69106 -0.32404 251 249 251
0.80612 -0.69742 -0.31784 251 249 251
0.81094 -0.70378 -0.31164 251 249 251
0.81574 -0.71012 -0.30545 251 249 251
0.82054 -0.71646 -0.29927 250 249 251
0.82533 -0.72278 -0.29310 250 249 251
0.83012 -0.72910 -0.28693 250 249 251
0.83490 -0.73541 -0.28078 250 249 251
0.83967 -0.74171 -0.27463 250 249 251
0.84443 -0.74800 -0.26850 250 249 251
0.84919 -0.75429 -0.26237 250 249 251
0.85394 -0.76056 -0.25625 250 249 251
0.85869 -0.76682 -0.25014 250 249 251
0.86343 -0.77308 -0.24404 250 249 251
0.86816 -0.77933 -0.23794 250 249 251
0.87289 -0.78556 -0.23186 250 249 251
0.87760 -0.79179 -0.22578 250 249 251
0.88232 -0.79801 -0.21971 250 249 251
0.88702 -0.80423 -0.21365 251 249 251
0.89172 -0.81043 -0.20760 251 249 251
0.89641 -0.81662 -0.20156 251 249 251
0.90110 -0.82281 -0.19553 251 249 251
0.90577 -0.82899 -0.18950 251 249 251
0.91045 -0.83516 -0.18348 251 249 251
0.91511 -0.84132 -0.17747 251 249 251
0.91977 -0.84747 -0.17147 251 250 251
0.92442 -0.85361 -0.16548 251 250 251
0.92907 -0.85974 -0.15950 251 250 251
0.93371 -0.86587 -0.15352 251 250 251
0.93834 -0.87199 -0.14756 251 250 251
0.94297 -0.87809 -0.14160 251 250 251
0.94759 -0.88419 -0.13565 251 250 251
0.95220 -0.89029 -0.12971 251 250 251
0.95681 -0.89637 -0.12377 251 250 250
0.96141 -0.90244 -0.11785 251 250 251
0.96601 -0.90851 -0.11193 251 250 251
0.97060 -0.91457 -0.10602 251 250 251
0.97518 -0.92062 -0.10012 251 250 251
0.97975 -0.92666 -0.09423 251 250 251
0.98432 -0.93269 -0.08834 252 250 251
0.98889 -0.93871 -0.08247 252 250 251
0.99344 -0.94473 -0.07660 252 250 251
0.99799 -0.95074 -0.07074 252 250 251
1.00254 -0.95674 -0.06489 252 251 251
1.00707 -0.96273 -0.05904 252 251 251
1.01160 -0.96871 -0.05321 252 251 252
1.01613 -0.97468 -0.04738 252 252 252
1.02065 -0.98065 -0.04156 253 253 253
1.02516 -0.98661 -0.03575 253 253 254
1.02967 -0.99256 -0.02994 244 254 254
0.67265 -0.54499 -0.47007 253 253 253
0.67763 -0.55154 -0.46367 253 253 253
0.68260 -0.55809 -0.45729 252 253 253
0.68756 -0.56462 -0.45091 252 252 252
0.69251 -0.57114 -0.44455 252 252 252
0.69746 -0.57766 -0.43819 252 252 252
0.70240 -0.58416 -0.43184 252 252 252
0.70733 -0.59066 -0.42550 252 252 252
0.71226 -0.59714 -0.41917 252 251 251
0.71718 -0.60362 -0.41285 252 251 251
0.72209 -0.61009 -0.40654 252 250 251
0.72699 -0.61655 -0.40024 252 250 251
0.73189 -0.62300 -0.39394 251 250 251
0.73678 -0.62944 -0.38766 251 250 250
0.74166 -0.63587 -0.38138 251 250 250
0.74654 -0.64229 -0.37512 251 250 251
0.75141 -0.64870 -0.36886 251 250 251
0.75627 -0.65511 -0.36261 251 250 251
0.76113 -0.66150 -0.35637 251 250 251
0.76598 -0.66789 -0.35014 251 250 251
0.77082 -0.67426 -0.34392 251 249 251
0.77566 -0.68063 -0.33770 251 249 251
0.78049 -0.68699 -0.33150 251 249 251
0.78531 -0.69334 -0.32530 251 249 251
0.79012 -0.69968 -0.31912 251 249 251
0.79493 -0.70601 -0.31294 250 249 251
0.79973 -0.71233 -0.30677 251 249 251
0.80453 -0.71864 -0.30061 250 249 251
0.80931 -0.72495 -0.29446 250 249 251
0.81409 -0.73124 -0.28831 250 249 251
0.81887 -0.73753 -0.28218 250 249 251
0.82363 -0.74381 -0.27605 250 249 251
0.82840 -0.75008 -0.26994 250 249 251
0.83315 -0.75634 -0.26383 250 249 251
0.83790 -0.76259 -0.25773 250 249 251
0.84264 -0.76883 -0.25163 250 249 251
0.84737 -0.77506 -0.24555 250 249 251
0.85210 -0.78129 -0.23948 250 249 251
0.85682 -0.78750 -0.23341 250 249 251
0.86153 -0.79371 -0.22735 250 249 251
0.86624 -0.79991 -0.22131 250 249 251
0.87094 -0.80610 -0.21526 250 249 251
0.87563 -0.81228 -0.20923 250 249 251
0.88032 -0.81845 -0.20321 251 249 251
0.88500 -0.82462 -0.19719 251 249 251
0.88968 -0.83077 -0.19119 251 249 251
0.89435 -0.83692 -0.18519 251 249 251
0.89901 -0.84306 -0.17920 251 249 251
0.90366 -0.84919 -0.17322 251 249 251
0.90831 -0.85531 -0.16724 251 249 251
0.91295 -0.86142 -0.16128 251 250 251
0.91759 -0.86752 -0.15532 251 250 251
0.92222 -0.87362 -0.14937 251 250 251
0.92684 -0.87971 -0.14343 251 250 251
0.93145 -0.88578 -0.13750 251 250 251
0.93606 -0.89185 -0.13158 251 250 251
0.94067 -0.89792 -0.12566 251 250 251
0.94527 -0.90397 -0.11976 251 250 250
0.94986 -0.91001 -0.11386 251 250 251
0.95444 -0.91605 -0.10797 251 250 251
0.95902 -0.92208 -0.10208 251 250 251
0.96359 -0.92810 -0.09621 251 250 251
0.96815 -0.93411 -0.09034 252 250 251
0.97271 -0.94011 -0.08449 252 250 251
0.97727 -0.94611 -0.07863 252 250 251
0.98181 -0.95210 -0.07279 252 250 251
0.98635 -0.95807 -0.06696 252 250 251
0.99089 -0.96404 -0.06113 252 251 251
0.99541 -0.97001 -0.05531 253 251 252
0.99994 -0.97596 -0.04950 252 252 253
1.00445 -0.98191 -0.04370 251 253 253
1.00896 -0.98784 -0.03791 235 250 239
1.01346 -0.99377 -0.03212 208 219 196
0.66186 -0.55433 -0.46447 253 253 253
0.66682 -0.56085 -0.45811 253 253 253
0.67177 -0.56735 -0.45175 252 252 252
0.67672 -0.57385 -0.44541 252 252 252
0.68167 -0.58034 -0.43907 252 252 252
0.68660 -0.58682 -0.43274 252 252 252
0.69153 -0.59330 -0.42643 252 252 252
0.69645 -0.59976 -0.42012 252 252 252
0.70136 -0.60621 -0.41382 252 251 251
0.70627 -0.61266 -0.40753 252 251 251
0.71117 -0.61909 -0.40124 252 250 251
0.71606 -0.62552 -0.39497 252 250 251
0.72094 -0.63193 -0.38871 251 250 251
0.72582 -0.63834 -0.38245 251 250 250
0.73069 -0.64474 -0.37621 251 250 250
0.73556 -0.65113 -0.36997 251 250 251
0.74042 -0.65751 -0.36374 251 250 251
0.74527 -0.66388 -0.35752 251 250 251
0.75011 -0.67024 -0.35131 251 250 251
0.75495 -0.67659 -0.34511 251 249 251
0.75978 -0.68294 -0.33891 251 249 251
0.76460 -0.68927 -0.33273 251 249 251
0.76942 -0.69560 -0.32655 251 249 251
0.77423 -0.70192 -0.32039 251 249 251
0.77903 -0.70822 -0.31423 250 249 251
0.78383 -0.71452 -0.30808 250 249 251
0.78862 -0.72081 -0.30194 250 249 251
0.79340 -0.72710 -0.29581 250 249 251
0.79818 -0.73337 -0.28968 250 249 251
0.80295 -0.73963 -0.28357 250 249 251
0.80771 -0.74589 -0.27746 250 249 251
0.81246 -0.75213 -0.27136 250 249 251
0.81721 -0.75837 -0.26527 250 249 251
0.82196 -0.76460 -0.25919 250 249 251
0.82669 -0.77082 -0.25312 250 249 251
0.83142 -0.77703 -0.24706 250 249 251
0.83614 -0.78323 -0.24100 250 249 251
0.84086 -0.78943 -0.23496 250 249 251
0.84557 -0.79561 -0.22892 250 249 251
0.85027 -0.80179 -0.22289 250 249 251
0.85497 -0.80796 -0.21687 250 249 251
0.85966 -0.81412 -0.21085 250 249 251
0.86434 -0.82027 -0.20485 250 249 251
0.86902 -0.82641 -0.19885 250 249 251
0.87369 -0.83254 -0.19286 251 249 251
0.87835 -0.83867 -0.18688 251 249 251
0.88301 -0.84478 -0.18091 251 249 251
0.88766 -0.85089 -0.17495 251 249 251
0.89230 -0.85699 -0.16900 251 249 251
0.89694 -0.86308 -0.16305 251 249 251
0.90157 -0.86917 -0.15711 251 249 251
0.90620 -0.87524 -0.15118 251 250 251
0.91081 -0.88131 -0.14526 251 250 251
0.91543 -0.88736 -0.13935 251 250 251
0.92003 -0.89341 -0.13344 251 250 251
0.92463 -0.89945 -0.12754 251 250 251
0.92922 -0.90549 -0.12165 251 250 251
0.93381 -0.91151 -0.11577 251 250 251
0.93839 -0.91753 -0.10990 251 250 251
0.94296 -0.92353 -0.10404 251 250 250
0.94753 -0.92953 -0.09818 251 250 251
0.95209 -0.93552 -0.09233 251 250 251
0.95665 -0.94151 -0.08649 251 250 251
0.96120 -0.94748 -0.08066 251 250 251
0.96574 -0.95345 -0.07483 252 250 251
0.97028 -0.95940 -0.06902 252 250 251
0.97481 -0.96535 -0.06321 253 251 252
0.97933 -0.97130 -0.05741 252 252 254
0.98385 -0.97723 -0.05162 243 253 252
0.98836 -0.98316 -0.04583 221 242 234
0.99287 -0.98907 -0.04005 195 175 183
0.99736 -0.99498 -0.03429 150 111 152
0.64619 -0.55709 -0.46526 253 253 253
0.65115 -0.56359 -0.45892 253 253 253
0.65610 -0.57007 -0.45259 253 253 253
0.66104 -0.57655 -0.44626 252 252 252
0.66598 -0.58301 -0.43995 252 252 252
0.67091 -0.58947 -0.43364 252 252 252
0.67583 -0.59592 -0.42734 252 252 252
0.68075 -0.60236 -0.42106 252 252 252
0.68565 -0.60879 -0.41478 252 251 252
0.69055 -0.61521 -0.40851 252 251 251
0.69545 -0.62162 -0.40224 252 251 251
0.70034 -0.62802 -0.39599 252 250 251
0.70522 -0.63441 -0.38975 252 250 251
0.71009 -0.64080 -0.38351 251 250 251
0.71495 -0.64717 -0.37729 251 250 250
0.71981 -0.65354 -0.37107 251 250 251
0.72467 -0.65989 -0.36486 251 250 251
0.72951 -0.66624 -0.35866 251 250 251
0.73435 -0.67258 -0.35247 251 250 251
0.73918 -0.67891 -0.34629 251 249 251
0.74401 -0.68523 -0.34012 251 249 251
0.74883 -0.69154 -0.33395 251 249 251
0.75364 -0.69785 -0.32780 251 249 251
0.75844 -0.70414 -0.32165 251 249 251
0.76324 -0.71043 -0.31551 251 249 251
0.76803 -0.71670 -0.30938 250 249 251
0.77282 -0.72297 -0.30326 250 249 251
0.77759 -0.72923 -0.29715 250 249 251
0.78236 -0.73548 -0.29104 250 249 251
0.78713 -0.74172 -0.28495 250 249 251
0.79189 -0.74795 -0.27886 250 249 251
0.79664 -0.75418 -0.27278 250 249 251
0.80138 -0.76039 -0.26671 250 249 251
0.80612 -0.76660 -0.26065 250 249 251
0.81085 -0.77280 -0.25460 250 249 251
0.81558 -0.77899 -0.24855 250 249 251
0.82029 -0.78517 -0.24252 250 249 251
0.82500 -0.79134 -0.23649 250 249 251
0.82971 -0.79750 -0.23047 250 249 251
0.83441 -0.80366 -0.22446 250 249 251
0.83910 -0.80980 -0.21846 250 249 251
0.84378 -0.81594 -0.21246 250 249 251
0.84846 -0.82207 -0.20648 250 249 251
0.85314 -0.82819 -0.20050 250 249 251
0.85780 -0.83430 -0.19453 250 249 251
0.86246 -0.84041 -0.18857 250 249 251
0.86711 -0.84650 -0.18262 251 249 251
0.87176 -0.85259 -0.17667 251 249 251
0.87640 -0.85867 -0.17074 251 249 251
0.88103 -0.86474 -0.16481 251 249 251
0.88566 -0.87080 -0.15889 251 249 251
0.89028 -0.87685 -0.15298 251 249 251
0.89489 -0.88290 -0.14707 251 250 251
0.89950 -0.88893 -0.14118 251 250 251
0.90410 -0.89496 -0.13529 251 250 251
0.90870 -0.90098 -0.12941 251 250 251
0.91329 -0.90699 -0.12354 251 250 251
0.91787 -0.91300 -0.11768 251 250 251
0.92245 -0.91899 -0.11182 251 250 251
0.92702 -0.92498 -0.10598 251 250 251
0.93158 -0.93096 -0.10014 251 250 250
0.93614 -0.93693 -0.09431 251 250 251
0.94069 -0.94289 -0.08848 251 250 251
0.94523 -0.94884 -0.08267 252 250 251
0.94977 -0.95479 -0.07686 252 251 252
0.95430 -0.96073 -0.07106 252 252 253
0.95883 -0.96666 -0.06527 249 252 251
0.96335 -0.97258 -0.05949 232 246 232
0.96787 -0.97849 -0.05371 204 213 198
0.97237 -0.98440 -0.04795 170 140 177
0.63559 -0.56631 -0.45973 253 253 253
0.64053 -0.57277 -0.45341 253 253 253
0.64547 -0.57922 -0.44711 253 253 253
0.65040 -0.58566 -0.44082 252 252 252
0.65532 -0.59210 -0.43453 252 252 252
0.66024 -0.59852 -0.42825 252 252 252
0.66515 -0.60494 -0.42199 252 252 252
0.67005 -0.61134 -0.41573 252 252 252
0.67495 -0.61774 -0.40948 252 251 252
0.67984 -0.62413 -0.40324 252 251 251
0.68472 -0.63050 -0.39701 252 251 251
0.68959 -0.63687 -0.39078 252 250 251
0.69446 -0.64323 -0.38457 252 250 251
0.69932 -0.64959 -0.37836 251 250 251
0.70417 -0.65593 -0.37217 251 250 250
0.70902 -0.66226 -0.36598 251 250 251
0.71386 -0.66859 -0.35980 251 250 251
0.71870 -0.67490 -0.35363 251 250 251
0.72352 -0.68121 -0.34746 251 250 251
0.72834 -0.68751 -0.34131 251 250 251
0.73316 -0.69380 -0.33517 251 249 251
0.73796 -0.70008 -0.32903 251 249 251
0.74276 -0.70635 -0.32290 251 249 251
0.74755 -0.71261 -0.31678 251 249 251
0.75234 -0.71887 -0.31067 251 249 251
0.75712 -0.72511 -0.30457 250 249 251
0.76189 -0.73135 -0.29848 250 249 251
0.76666 -0.73758 -0.29239 250 249 251
0.77142 -0.74380 -0.28632 250 249 251
0.77617 -0.75001 -0.28025 250 249 251
0.78092 -0.75621 -0.27419 250 249 251
0.78566 -0.76240 -0.26814 250 249 251
0.79039 -0.76859 -0.26210 250 249 251
0.79512 -0.77476 -0.25606 250 249 251
0.79984 -0.78093 -0.25004 250 249 251
0.80455 -0.78709 -0.24402 250 249 251
0.80926 -0.79324 -0.23801 250 249 251
0.81396 -0.79938 -0.23201 250 249 251
0.81865 -0.80551 -0.22602 250 249 251
0.82334 -0.81164 -0.22004 250 249 251
0.82802 -0.81775 -0.21406 250 249 251
0.83269 -0.82386 -0.20809 250 249 251
0.83736 -0.82996 -0.20213 250 249 251
0.84202 -0.83605 -0.19618 250 249 251
0.84668 -0.84213 -0.19024 251 249 251
0.85132 -0.84821 -0.18431 251 249 251
0.85597 -0.85427 -0.17838 251 249 251
0.86060 -0.86033 -0.17246 251 249 251
0.86523 -0.86638 -0.16655 251 249 251
0.86985 -0.87242 -0.16065 251 249 251
0.87447 -0.87845 -0.15476 251 249 251
0.87908 -0.88448 -0.14887 251 249 251
0.88368 -0.89049 -0.14300 251 250 251
0.88828 -0.89650 -0.13713 251 250 251
0.89287 -0.90250 -0.13127 251 250 251
0.89746 -0.90849 -0.12541 251 250 251
0.90203 -0.91447 -0.11957 251 250 251
0.90661 -0.92045 -0.11373 251 250 251
0.91117 -0.92641 -0.10790 251 250 251
0.91573 -0.93237 -0.10208 251 250 251
0.95199 -0.97974 -0.05580 143 114 145
0.62507 -0.57545 -0.45424 253 253 253
0.63000 -0.58188 -0.44795 253 253 253
0.63493 -0.58829 -0.44168 253 253 253
0.63984 -0.59470 -0.43542 252 252 252
0.64476 -0.60111 -0.42916 252 252 252
0.64966 -0.60750 -0.42291 252 252 252
0.65456 -0.61388 -0.41667 252 252 252
0.65945 -0.62025 -0.41044 252 252 252
0.66433 -0.62662 -0.40422 252 251 252
0.66920 -0.63297 -0.39801 252 251 251
0.67407 -0.63932 -0.39181 252 251 251
0.67894 -0.64566 -0.38561 252 250 251
0.68379 -0.65199 -0.37943 252 250 251
0.68864 -0.65831 -0.37325 251 250 251
0.69348 -0.66462 -0.36708 251 250 251
0.69832 -0.67092 -0.36092 251 250 251
0.70315 -0.67721 -0.35477 251 250 251
0.70797 -0.68350 -0.34863 251 250 251
0.71278 -0.68977 -0.34250 251 250 251
0.71759 -0.69604 -0.33637 251 250 251
0.72239 -0.70230 -0.33026 251 249 251
0.72719 -0.70855 -0.32415 251 249 251
0.73197 -0.71479 -0.31805 251 249 251
0.73675 -0.72102 -0.31196 251 249 251
0.74153 -0.72724 -0.30588 251 249 251
0.74630 -0.73346 -0.29980 251 249 251
0.75106 -0.73966 -0.29374 251 249 251
0.75581 -0.74586 -0.28768 250 249 251
0.76056 -0.75205 -0.28163 250 249 251
0.76530 -0.75823 -0.27559 250 249 251
0.77004 -0.76440 -0.26956 250 249 251
0.77476 -0.77056 -0.26354 250 249 251
0.77949 -0.77671 -0.25752 250 249 251
0.78420 -0.78286 -0.25151 250 249 251
0.78891 -0.78900 -0.24552 250 249 251
0.79361 -0.79513 -0.23953 250 249 251
0.79831 -0.80125 -0.23354 250 249 251
0.80300 -0.80736 -0.22757 250 249 251
0.80768 -0.81346 -0.22161 250 249 251
0.81235 -0.81956 -0.21565 250 249 251
0.81702 -0.82564 -0.20970 250 249 251
0.82169 -0.83172 -0.20376 250 249 251
0.82634 -0.83779 -0.19783 250 249 251
0.83099 -0.84385 -0.19190 250 249 251
0.83564 -0.84990 -0.18599 251 249 251
0.84028 -0.85595 -0.18008 251 249 251
0.84491 -0.86198 -0.17418 251 249 251
0.84953 -0.86801 -0.16829 251 249 251
0.85415 -0.87403 -0.16241 251 249 251
0.85876 -0.88004 -0.15653 251 249 251
0.86337 -0.88605 -0.15066 251 249 251
0.86797 -0.89204 -0.14480 251 249 251
0.87256 -0.89803 -0.13895 251 250 251
0.87715 -0.90401 -0.13311 251 250 251
0.88173 -0.90998 -0.12727 251 250 251
0.88630 -0.91594 -0.12145 251 250 251
0.89087 -0.92189 -0.11563 251 250 251
0.61464 -0.58451 -0.44879 253 253 253
0.61956 -0.59091 -0.44254 253 253 253
0.62447 -0.59730 -0.43629 253 253 253
0.62937 -0.60367 -0.43006 252 252 252
0.63427 -0.61004 -0.42383 252 252 252
0.63916 -0.61640 -0.41761 252 252 252
0.64405 -0.62275 -0.41140 252 252 252
0.64893 -0.62909 -0.40520 252 252 252
0.65380 -0.63543 -0.39901 252 251 252
0.65866 -0.64175 -0.39283 252 251 251
0.66352 -0.64806 -0.38666 252 251 251
0.66837 -0.65437 -0.38049 252 250 251
0.67321 -0.66067 -0.37433 252 250 251
0.67805 -0.66695 -0.36818 251 250 251
0.68288 -0.67323 -0.36204 251 250 251
0.68770 -0.67950 -0.35591 251 250 251
0.69252 -0.68577 -0.34979 251 250 251
0.69732 -0.69202 -0.34368 251 250 251
0.70213 -0.69826 -0.33757 251 250 251
0.70692 -0.70450 -0.33147 251 250 251
0.71171 -0.71073 -0.32539 251 249 251
0.71650 -0.71694 -0.31931 251 249 251
0.72127 -0.72315 -0.31323 251 249 251
0.72604 -0.72935 -0.30717 251 249 251
0.73080 -0.73555 -0.30112 251 249 251
0.73556 -0.74173 -0.29507 251 249 251
0.74031 -0.74791 -0.28903 251 249 251
0.74505 -0.75407 -0.28300 250 249 251
0.74979 -0.76023 -0.27698 250 249 251
0.75452 -0.76638 -0.27097 250 249 251
0.75924 -0.77252 -0.26496 250 249 251
0.76396 -0.77865 -0.25897 250 249 251
0.76867 -0.78478 -0.25298 250 249 251
0.77337 -0.79089 -0.24700 250 249 251
0.77807 -0.79700 -0.24103 250 249 251
0.78276 -0.80310 -0.23507 250 249 251
0.78745 -0.80919 -0.22911 250 249 251
0.79212 -0.81527 -0.22317 250 249 251
0.79679 -0.82134 -0.21723 250 249 251
0.80146 -0.82741 -0.21130 250 249 251
0.80612 -0.83347 -0.20537 250 249 251
0.81077 -0.83951 -0.19946 250 249 251
0.81542 -0.84555 -0.19355 250 249 251
0.82005 -0.85159 -0.18766 250 249 251
0.82469 -0.85761 -0.18177 251 249 251
0.82931 -0.86363 -0.17589 251 249 251
0.83393 -0.86963 -0.17001 251 249 251
0.83855 -0.87563 -0.16415 251 249 251
0.84316 -0.88162 -0.15829 251 249 251
0.84776 -0.88760 -0.15244 251 249 251
0.85235 -0.89358 -0.14660 251 249 251
0.85694 -0.89954 -0.14077 251 249 251
0.86152 -0.90550 -0.13494 251 250 251
0.86610 -0.91145 -0.12912 251 250 251
0.87067 -0.91739 -0.12331 251 250 251
0.60429 -0.59351 -0.44339 253 253 253
0.60920 -0.59987 -0.43717 253 253 253
0.61410 -0.60622 -0.43095 253 253 253
0.61899 -0.61257 -0.42474 252 252 252
0.62387 -0.61891 -0.41855 252 252 252
0.62875 -0.62523 -0.41236 252 252 252
0.63362 -0.63155 -0.40618 252 252 252
0.63849 -0.63786 -0.40001 252 252 252
0.64335 -0.64416 -0.39384 252 251 252
0.64820 -0.65045 -0.38769 252 251 251
0.65304 -0.65674 -0.38154 252 251 251
0.65788 -0.66301 -0.37540 252 250 251
0.66271 -0.66928 -0.36928 252 250 251
0.66754 -0.67553 -0.36316 251 250 251
0.67236 -0.68178 -0.35704 251 250 251
0.67717 -0.68802 -0.35094 251 250 251
0.68197 -0.69425 -0.34485 251 250 251
0.68677 -0.70047 -0.33876 251 250 251
0.69156 -0.70669 -0.33268 251 250 251
0.69634 -0.71289 -0.32661 251 250 251
0.70112 -0.71909 -0.32055 251 249 251
0.70589 -0.72528 -0.31450 251 249 251
0.71066 -0.73145 -0.30846 251 249 251
0.71541 -0.73763 -0.30242 251 249 251
0.72016 -0.74379 -0.29639 251 249 251
0.72491 -0.74994 -0.29038 251 249 251
0.72965 -0.75609 -0.28437 251 249 251
0.73438 -0.76222 -0.27836 250 249 251
0.73910 -0.76835 -0.27237 250 249 251
0.74382 -0.77447 -0.26638 250 249 251
0.74853 -0.78058 -0.26041 250 249 251
0.75324 -0.78668 -0.25444 250 249 251
0.75794 -0.79278 -0.24848 250 249 251
0.76263 -0.79886 -0.24252 250 249 251
0.76732 -0.80494 -0.23658 250 249 251
0.77200 -0.81101 -0.23064 250 249 251
0.77667 -0.81707 -0.22471 250 249 251
0.78134 -0.82312 -0.21879 250 249 251
0.78600 -0.82917 -0.21288 250 249 251
0.79065 -0.83520 -0.20698 250 249 251
0.79530 -0.84123 -0.20108 250 249 251
0.79994 -0.84725 -0.19520 250 249 251
0.80457 -0.85326 -0.18932 250 249 251
0.80920 -0.85926 -0.18344 250 249 251
0.81382 -0.86526 -0.17758 251 249 251
0.81844 -0.87124 -0.17172 251 249 251
0.82305 -0.87722 -0.16588 251 249 251
0.82765 -0.88319 -0.16004 251 249 251
0.83225 -0.88915 -0.15421 251 249 251
0.83684 -0.89511 -0.14838 251 249 251
0.84142 -0.90105 -0.14257 251 249 251
0.84600 -0.90699 -0.13676 251 249 251
0.58913 -0.59609 -0.44424 253 253 253
0.59403 -0.60243 -0.43803 253 253 253
0.59892 -0.60876 -0.43184 253 253 253
0.60381 -0.61508 -0.42565 253 253 253
0.60869 -0.62139 -0.41947 253 252 252
0.61356 -0.62770 -0.41330 253 252 252
0.61843 -0.63399 -0.40714 252 252 252
0.62329 -0.64028 -0.40099 252 252 252
0.62814 -0.64656 -0.39485 252 252 252
0.63298 -0.65283 -0.38871 252 251 252
0.63782 -0.65909 -0.38259 252 251 251
0.64266 -0.66534 -0.37647 252 251 251
0.64748 -0.67158 -0.37036 252 250 251
0.65230 -0.67782 -0.36426 252 250 251
0.65711 -0.68404 -0.35817 251 250 251
0.66192 -0.69026 -0.35209 251 250 251
0.66672 -0.69647 -0.34601 251 250 251
0.67151 -0.70267 -0.33994 251 250 251
0.67630 -0.70886 -0.33388 251 250 251
0.68107 -0.71504 -0.32783 251 250 251
0.68585 -0.72122 -0.32179 251 250 251
0.69061 -0.72738 -0.31576 251 249 251
0.69537 -0.73354 -0.30974 251 249 251
0.70012 -0.73969 -0.30372 251 249 251
0.70487 -0.74583 -0.29771 251 249 251
0.70961 -0.75196 -0.29171 251 249 251
0.71434 -0.75808 -0.28572 251 249 251
0.71907 -0.76420 -0.27974 251 249 251
0.72379 -0.77031 -0.27376 250 249 251
0.72850 -0.77640 -0.26779 250 249 251
0.73321 -0.78249 -0.26183 250 249 251
0.73791 -0.78857 -0.25588 250 249 251
0.74260 -0.79465 -0.24994 250 249 251
0.74729 -0.80071 -0.24401 250 249 251
0.75197 -0.80677 -0.23808 250 249 251
0.75665 -0.81282 -0.23216 250 249 251
0.76132 -0.81886 -0.22625 250 249 251
0.76598 -0.82489 -0.22035 250 249 251
0.77063 -0.83091 -0.21446 250 249 251
0.77528 -0.83693 -0.20857 250 249 251
0.77993 -0.84293 -0.20269 250 249 251
0.78456 -0.84893 -0.19682 250 249 251
0.78919 -0.85492 -0.19096 250 249 251
0.79382 -0.86090 -0.18511 250 249 251
0.79843 -0.86688 -0.17926 250 249 251
0.80305 -0.87284 -0.17343 251 249 251
0.80765 -0.87880 -0.16760 251 249 251
0.81225 -0.88475 -0.16177 251 249 251
0.81684 -0.89069 -0.15596 251 249 251
0.82143 -0.89663 -0.15015 251 249 251
0.82601 -0.90255 -0.14436 251 249 251
0.57896 -0.60497 -0.43889 253 253 253
0.60818 -0.64268 -0.40197 252 252 252
0.61303 -0.64894 -0.39585 252 252 252
0.61787 -0.65519 -0.38973 252 252 252
0.62270 -0.66142 -0.38363 252 251 252
0.62753 -0.66765 -0.37753 252 251 251
0.63235 -0.67388 -0.37144 252 251 251
0.63716 -0.68009 -0.36536 252 250 251
0.64197 -0.68629 -0.35929 252 250 251
0.64677 -0.69249 -0.35322 251 250 251
0.65156 -0.69867 -0.34717 251 250 251
0.65635 -0.70485 -0.34112 251 250 251
0.66113 -0.71102 -0.33508 251 250 251
0.66591 -0.71718 -0.32905 251 250 251
0.67067 -0.72333 -0.32303 251 250 251
0.67543 -0.72948 -0.31701 251 250 251
0.68019 -0.73561 -0.31100 251 249 251
0.68494 -0.74174 -0.30501 251 249 251
0.68968 -0.74786 -0.29902 251 249 251
0.69441 -0.75397 -0.29304 251 249 251
0.69914 -0.76007 -0.28706 251 249 251
0.70386 -0.76616 -0.28110 251 249 251
0.70857 -0.77225 -0.27514 251 249 251
0.71328 -0.77833 -0.26919 250 249 251
0.71799 -0.78439 -0.26325 250 249 251
0.72268 -0.79045 -0.25732 250 249 251
0.72737 -0.79651 -0.25140 250 249 251
0.73205 -0.80255 -0.24548 250 249 251
0.73673 -0.80859 -0.23957 250 249 251
0.74140 -0.81461 -0.23367 250 249 251
0.74606 -0.82063 -0.22778 250 249 251
0.75072 -0.82664 -0.22190 250 249 251
0.75537 -0.83264 -0.21602 250 249 251
0.76002 -0.83864 -0.21016 250 249 251
0.76465 -0.84462 -0.20430 250 249 251
0.76929 -0.85060 -0.19844 250 249 251
0.77391 -0.85657 -0.19260 250 249 251
0.77853 -0.86253 -0.18676 250 249 251
0.78314 -0.86849 -0.18094 250 249 251
0.78775 -0.87443 -0.17512 250 249 251
0.79235 -0.88037 -0.16930 251 249 251
0.79695 -0.88630 -0.16350 251 249 251
0.80153 -0.89222 -0.15770 251 249 251
0.56399 -0.60749 -0.43975 253 253 253
0.56887 -0.61377 -0.43359 253 254 254
0.60286 -0.65753 -0.39075 253 252 252
0.60768 -0.66375 -0.38466 252 252 252
0.61251 -0.66995 -0.37858 252 251 252
0.61732 -0.67615 -0.37251 252 251 251
0.62213 -0.68234 -0.36645 252 251 251
0.62693 -0.68852 -0.36039 252 250 251
0.63172 -0.69470 -0.35435 252 250 251
0.63651 -0.70086 -0.34831 251 250 251
0.64129 -0.70702 -0.34228 251 250 251
0.64607 -0.71317 -0.33626 251 250 251
0.65084 -0.71930 -0.33025 251 250 251
0.65560 -0.72544 -0.32425 251 250 251
0.66035 -0.73156 -0.31825 251 250 251
0.66510 -0.73767 -0.31227 251 250 251
0.66985 -0.74378 -0.30629 251 249 251
0.67458 -0.74988 -0.30032 251 249 251
0.67931 -0.75596 -0.29435 251 249 251
0.68403 -0.76204 -0.28840 251 249 251
0.68875 -0.76812 -0.28245 251 249 251
0.69346 -0.77418 -0.27652 251 249 251
0.69816 -0.78024 -0.27059 251 249 251
0.70286 -0.78628 -0.26466 250 249 251
0.70755 -0.79232 -0.25875 250 249 251
0.71224 -0.79835 -0.25284 250 249 251
0.71691 -0.80438 -0.24695 250 249 251
0.72158 -0.81039 -0.24106 250 249 251
0.72625 -0.81640 -0.23517 250 249 251
0.73091 -0.82239 -0.22930 250 249 251
0.73556 -0.82838 -0.22344 250 249 251
0.74021 -0.83437 -0.21758 250 249 251
0.74485 -0.84034 -0.21173 250 249 251
0.74948 -0.84631 -0.20589 250 249 251
0.75411 -0.85226 -0.20005 250 249 251
0.75873 -0.85821 -0.19423 250 249 251
0.76334 -0.86415 -0.18841 250 249 251
0.76795 -0.87009 -0.18260 250 249 251
0.77255 -0.87601 -0.17680 250 249 251
0.77715 -0.88193 -0.17100 250 249 251
0.78174 -0.88784 -0.16521 251 249 251
0.54912 -0.60999 -0.44060 254 254 254
0.55399 -0.61626 -0.43446 253 253 253
0.55886 -0.62251 -0.42834 253 253 253
0.59276 -0.66605 -0.38568 252 252 252
0.59758 -0.67224 -0.37963 252 252 252
0.60239 -0.67841 -0.37357 252 251 252
0.60719 -0.68458 -0.36753 252 251 251
0.61199 -0.69074 -0.36150 252 251 251
0.61678 -0.69689 -0.35547 252 250 251
0.62156 -0.70304 -0.34945 252 250 251
0.62633 -0.70917 -0.34344 251 250 251
0.63110 -0.71530 -0.33744 251 250 251
0.63587 -0.72141 -0.33145 251 250 251
0.64062 -0.72752 -0.32546 251 250 251
0.64537 -0.73362 -0.31949 251 250 251
0.65012 -0.73972 -0.31352 251 250 251
0.65485 -0.74580 -0.30756 251 250 251
0.65959 -0.75188 -0.30161 251 249 251
0.66431 -0.75795 -0.29566 251 249 251
0.66903 -0.76401 -0.28973 251 249 251
0.67374 -0.77006 -0.28380 251 249 251
0.67844 -0.77610 -0.27788 251 249 251
0.68314 -0.78213 -0.27197 251 249 251
0.68783 -0.78816 -0.26606 251 249 251
0.69252 -0.79418 -0.26017 250 249 251
0.69720 -0.80019 -0.25428 250 249 251
0.70187 -0.80619 -0.24840 250 249 251
0.70654 -0.81218 -0.24253 250 249 251
0.71120 -0.81817 -0.23667 250 249 251
0.71585 -0.82415 -0.23081 250 249 251
0.72050 -0.83012 -0.22496 250 249 251
0.72514 -0.83608 -0.21912 250 249 251
0.72978 -0.84203 -0.21329 250 249 251
0.73440 -0.84798 -0.20747 250 249 251
0.73903 -0.85391 -0.20165 250 249 251
0.74364 -0.85984 -0.19584 250 249 251
0.74825 -0.86576 -0.19004 250 249 251
0.75286 -0.87168 -0.18425 250 249 251
0.75746 -0.87758 -0.17846 250 249 251
0.53435 -0.61248 -0.44144 254 254 254
0.53922 -0.61873 -0.43533 254 254 254
0.54408 -0.62496 -0.42922 253 253 253
0.54894 -0.63118 -0.42312 253 253 253
0.55379 -0.63740 -0.41703 253 253 253
0.57794 -0.66834 -0.38670 252 252 252
0.58275 -0.67450 -0.38066 252 252 252
0.58755 -0.68066 -0.37463 252 252 252
0.59235 -0.68681 -0.36861 252 251 252
0.59714 -0.69294 -0.36259 252 251 251
0.60192 -0.69907 -0.35658 252 251 251
0.60670 -0.70520 -0.35059 252 250 251
0.61147 -0.71131 -0.34460 252 250 251
0.61624 -0.71741 -0.33861 251 250 251
0.62099 -0.72351 -0.33264 251 250 251
0.62575 -0.72960 -0.32667 251 250 251
0.63049 -0.73568 -0.32071 251 250 251
0.63523 -0.74175 -0.31476 251 250 251
0.63996 -0.74781 -0.30882 251 250 251
0.64469 -0.75387 -0.30289 251 250 251
0.64941 -0.75991 -0.29696 251 249 251
0.65412 -0.76595 -0.29105 251 249 251
0.65882 -0.77198 -0.28514 251 249 251
0.66352 -0.77801 -0.27923 251 249 251
0.66822 -0.78402 -0.27334 251 249 251
0.67290 -0.79002 -0.26746 251 249 251
0.67758 -0.79602 -0.26158 251 249 251
0.68226 -0.80201 -0.25571 250 249 251
0.68693 -0.80799 -0.24985 250 249 251
0.69159 -0.81397 -0.24399 250 249 251
0.69624 -0.81993 -0.23815 250 249 251
0.70089 -0.82589 -0.23231 250 249 251
0.70554 -0.83184 -0.22648 250 249 251
0.71017 -0.83778 -0.22066 250 249 251
0.71480 -0.84371 -0.21484 250 249 251
0.71943 -0.84964 -0.20904 250 249 251
0.72404 -0.85555 -0.20324 250 249 251
0.72866 -0.86146 -0.19745 250 249 251
0.73326 -0.86736 -0.19167 250 249 251
0.73786 -0.87326 -0.18589 250 249 251
0.53425 -0.63359 -0.42402 253 253 253
0.53909 -0.63978 -0.41795 253 253 253
0.54393 -0.64596 -0.41188 253 253 253
0.54876 -0.65214 -0.40583 253 253 253
0.55358 -0.65831 -0.39978 253 253 253
0.55840 -0.66447 -0.39374 252 252 252
0.56321 -0.67062 -0.38772 252 252 252
0.56802 -0.67676 -0.38169 252 252 252
0.57281 -0.68289 -0.37568 252 252 252
0.57761 -0.68902 -0.36968 252 252 252
0.58239 -0.69513 -0.36368 252 251 251
0.58717 -0.70124 -0.35769 252 251 251
0.59194 -0.70734 -0.35171 252 251 251
0.59671 -0.71343 -0.34574 252 250 251
0.60147 -0.71952 -0.33978 252 250 251
0.60622 -0.72559 -0.33382 251 250 251
0.61096 -0.73166 -0.32787 251 250 251
0.61570 -0.73772 -0.32193 251 250 251
0.62044 -0.74377 -0.31600 251 250 251
0.62516 -0.74981 -0.31008 251 250 251
0.62988 -0.75584 -0.30416 251 250 251
0.63460 -0.76187 -0.29825 251 250 251
0.63930 -0.76789 -0.29236 251 249 251
0.64401 -0.77390 -0.28646 251 249 251
0.64870 -0.77990 -0.28058 251 249 251
0.65339 -0.78589 -0.27471 251 249 251
0.65807 -0.79188 -0.26884 251 249 251
0.66275 -0.79785 -0.26298 251 249 251
0.66742 -0.80382 -0.25713 251 249 251
0.67208 -0.80978 -0.25128 251 249 251
0.67673 -0.81574 -0.24545 251 249 251
0.68139 -0.82168 -0.23962 250 249 251
0.68603 -0.82762 -0.23380 250 249 251
0.69067 -0.83355 -0.22799 250 249 251
0.69530 -0.83947 -0.22218 250 249 251
0.69992 -0.84538 -0.21639 250 249 251
0.70454 -0.85129 -0.21060 250 249 251
0.70916 -0.85718 -0.20482 250 249 251
0.71376 -0.86307 -0.19904 250 249 251
0.50023 -0.61121 -0.44920 254 254 254
0.52932 -0.64831 -0.41281 253 253 253
0.53415 -0.65447 -0.40678 253 253 253
0.53896 -0.66061 -0.40075 253 253 253
0.54378 -0.66675 -0.39473 253 253 253
0.54858 -0.67288 -0.38872 252 252 252
0.55338 -0.67900 -0.38272 252 252 252
0.55817 -0.68511 -0.37672 252 252 252
0.56296 -0.69121 -0.37074 252 252 252
0.56774 -0.69731 -0.36476 252 252 252
0.57251 -0.70340 -0.35879 252 251 251
0.57728 -0.70947 -0.35283 252 251 251
0.58204 -0.71555 -0.34688 252 251 251
0.58679 -0.72161 -0.34093 252 250 251
0.59154 -0.72766 -0.33499 252 250 251
0.59628 -0.73371 -0.32906 251 250 251
0.60101 -0.73974 -0.32314 251 250 251
0.60574 -0.74577 -0.31723 251 250 251
0.61046 -0.75180 -0.31132 251 250 251
0.61518 -0.75781 -0.30543 251 250 251
0.61989 -0.76381 -0.29954 251 250 251
0.62459 -0.76981 -0.29366 251 250 251
0.62928 -0.77580 -0.28778 251 249 251
0.63397 -0.78178 -0.28192 251 249 251
0.63866 -0.78775 -0.27606 251 249 251
0.64333 -0.79372 -0.27021 251 249 251
0.64800 -0.79967 -0.26437 251 249 251
0.65267 -0.80562 -0.25854 251 249 251
0.65733 -0.81156 -0.25271 251 249 251
0.66198 -0.81750 -0.24689 251 249 251
0.66662 -0.82342 -0.24108 251 249 251
0.67126 -0.82934 -0.23528 251 249 251
0.67589 -0.83525 -0.22949 250 249 251
0.68052 -0.84115 -0.22370 250 249 251
0.68514 -0.84704 -0.21792 250 249 251
0.68976 -0.85292 -0.21215 250 249 251
0.48575 -0.61367 -0.45001 254 254 254
0.49061 -0.61986 -0.44394 254 254 254
0.51963 -0.65678 -0.40772 253 253 253
0.52444 -0.66290 -0.40171 253 253 253
0.52925 -0.66902 -0.39571 253 253 253
0.53405 -0.67512 -0.38972 253 253 253
0.53884 -0.68122 -0.38374 252 252 252
0.54363 -0.68731 -0.37776 252 252 252
0.54841 -0.69340 -0.37179 252 252 252
0.55318 -0.69947 -0.36583 252 252 252
0.55795 -0.70554 -0.35988 252 252 252
0.56271 -0.71159 -0.35394 252 252 252
0.56746 -0.71764 -0.34801 252 251 251
0.57221 -0.72368 -0.34208 252 251 251
0.57695 -0.72972 -0.33616 252 250 251
0.58169 -0.73574 -0.33025 252 250 251
0.58642 -0.74176 -0.32435 251 250 251
0.59114 -0.74777 -0.31845 251 250 250
0.59585 -0.75377 -0.31256 251 250 251
0.60056 -0.75976 -0.30668 251 250 251
0.60527 -0.76574 -0.30081 251 250 251
0.60996 -0.77172 -0.29495 251 250 251
0.61465 -0.77769 -0.28910 251 250 251
0.61934 -0.78365 -0.28325 251 250 251
0.62402 -0.78960 -0.27741 251 249 251
0.62869 -0.79555 -0.27158 251 249 251
0.63335 -0.80148 -0.26575 251 249 251
0.63801 -0.80741 -0.25994 251 249 251
0.64267 -0.81333 -0.25413 251 249 251
0.64731 -0.81924 -0.24833 251 249 251
0.65195 -0.82515 -0.24254 251 249 251
0.65659 -0.83104 -0.23675 251 249 251
0.66122 -0.83693 -0.23097 251 249 251
0.66584 -0.84281 -0.22520 251 249 251
0.67045 -0.84869 -0.21944 250 249 251
0.47622 -0.62228 -0.44476 254 254 254
0.48107 -0.62843 -0.43872 254 254 254
0.51001 -0.66517 -0.40267 253 253 253
0.51481 -0.67127 -0.39668 253 253 253
0.51960 -0.67735 -0.39071 253 253 253
0.52439 -0.68343 -0.38475 253 253 253
0.52917 -0.68950 -0.37879 253 252 252
0.53395 -0.69556 -0.37284 252 252 252
0.53872 -0.70162 -0.36690 252 252 252
0.54348 -0.70766 -0.36097 252 252 252
0.54823 -0.71370 -0.35504 252 252 252
0.55298 -0.71973 -0.34913 252 252 252
0.55772 -0.72575 -0.34322 252 251 252
0.56246 -0.73176 -0.33732 252 251 251
0.56719 -0.73776 -0.33143 252 251 251
0.57191 -0.74376 -0.32554 252 250 251
0.57663 -0.74975 -0.31966 251 250 251
0.58134 -0.75573 -0.31379 251 250 251
0.58605 -0.76170 -0.30793 252 251 251
0.59074 -0.76766 -0.30208 251 251 252
0.59543 -0.77362 -0.29624 251 250 251
0.60012 -0.77957 -0.29040 251 250 251
0.60480 -0.78551 -0.28457 251 250 251
0.60947 -0.79144 -0.27875 251 250 251
0.61414 -0.79736 -0.27293 251 250 251
0.61880 -0.80328 -0.26713 251 249 251
0.62345 -0.80919 -0.26133 251 249 251
0.62810 -0.81509 -0.25554 251 249 251
0.63274 -0.82098 -0.24976 251 249 251
0.63738 -0.82686 -0.24398 251 249 251
0.64201 -0.83274 -0.23821 251 249 251
0.64663 -0.83861 -0.23245 251 249 251
0.46677 -0.63082 -0.43956 254 254 254
0.47160 -0.63694 -0.43355 254 254 254
0.47643 -0.64306 -0.42755 254 254 254
0.48606 -0.65526 -0.41556 254 254 254
0.49087 -0.66135 -0.40958 254 254 254
0.49567 -0.66743 -0.40361 254 254 254
0.50047 -0.67351 -0.39765 253 253 253
0.50526 -0.67957 -0.39170 253 253 253
0.51004 -0.68563 -0.38575 253 253 253
0.51481 -0.69168 -0.37981 253 253 253
0.51958 -0.69772 -0.37388 253 253 253
0.52434 -0.70375 -0.36796 252 252 252
0.52910 -0.70977 -0.36205 252 252 252
0.53385 -0.71579 -0.35614 252 252 252
0.53859 -0.72180 -0.35024 252 252 252
0.54333 -0.72780 -0.34435 252 252 252
0.54806 -0.73379 -0.33847 252 252 252
0.55279 -0.73977 -0.33259 252 251 251
0.55750 -0.74575 -0.32673 252 251 251
0.56222 -0.75172 -0.32087 252 250 251
0.56692 -0.75767 -0.31502 252 250 251
0.57162 -0.76363 -0.30918 252 251 250
0.57631 -0.76957 -0.30334 249 251 248
0.58100 -0.77551 -0.29751 248 251 250
0.58568 -0.78143 -0.29169 252 251 252
0.59035 -0.78735 -0.28588 251 250 251
0.59502 -0.79326 -0.28008 251 250 251
0.59968 -0.79917 -0.27428 251 250 251
0.60434 -0.80506 -0.26849 251 250 251
0.60898 -0.81095 -0.26271 251 249 251
0.61363 -0.81683 -0.25694 251 249 251
0.61826 -0.82271 -0.25117 251 249 251
0.62289 -0.82857 -0.24542 251 249 251
0.62752 -0.83443 -0.23966 251 249 251
0.45256 -0.63319 -0.44039 254 254 254
0.45739 -0.63929 -0.43440 254 254 254
0.46221 -0.64539 -0.42841 254 254 254
0.46702 -0.65147 -0.42244 254 254 254
0.47183 -0.65755 -0.41647 254 254 254
0.47663 -0.66362 -0.41051 254 254 254
0.48143 -0.66968 -0.40456 254 254 254
0.48622 -0.67573 -0.39861 254 254 254
0.49100 -0.68177 -0.39268 253 253 254
0.49578 -0.68781 -0.38675 253 253 253
0.50055 -0.69384 -0.38083 253 253 253
0.50531 -0.69986 -0.37492 253 253 253
0.51007 -0.70587 -0.36901 253 253 253
0.51482 -0.71187 -0.36312 252 252 252
0.51956 -0.71787 -0.35723 252 252 252
0.52430 -0.72385 -0.35135 252 252 252
0.52903 -0.72983 -0.34548 252 252 252
0.53375 -0.73580 -0.33961 252 252 252
0.53847 -0.74177 -0.33376 252 252 252
0.54319 -0.74772 -0.32791 252 251 251
0.54789 -0.75367 -0.32207 252 251 251
0.55259 -0.75961 -0.31623 252 250 251
0.55729 -0.76554 -0.31041 252 250 251
0.56197 -0.77146 -0.30459 252 250 247
0.56665 -0.77738 -0.29878 249 250 242
0.57133 -0.78329 -0.29298 247 250 246
0.57600 -0.78919 -0.28719 251 251 252
0.58066 -0.79508 -0.28140 252 250 251
0.58531 -0.80096 -0.27562 251 250 251
0.58996 -0.80684 -0.26985 251 250 251
0.59461 -0.81271 -0.26409 251 250 251
0.59925 -0.81857 -0.25833 251 250 251
0.60388 -0.82442 -0.25258 251 249 251
0.44326 -0.64163 -0.43524 254 254 254
0.44808 -0.64770 -0.42928 254 254 254
0.45289 -0.65377 -0.42332 254 254 254
0.45769 -0.65982 -0.41737 254 254 254
0.46249 -0.66587 -0.41143 254 254 254
0.46727 -0.67191 -0.40549 254 254 254
0.47206 -0.67794 -0.39957 254 254 254
0.47683 -0.68396 -0.39365 254 254 254
0.48161 -0.68998 -0.38774 254 254 254
0.48637 -0.69598 -0.38184 253 253 253
0.49113 -0.70198 -0.37595 253 253 253
0.49588 -0.70797 -0.37006 253 253 253
0.50062 -0.71396 -0.36418 253 253 253
0.50536 -0.71993 -0.35831 253 252 252
0.51009 -0.72590 -0.35245 252 252 252
0.51482 -0.73186 -0.34660 252 252 252
0.51954 -0.73781 -0.34075 252 252 252
0.52425 -0.74375 -0.33491 252 252 252
0.52896 -0.74969 -0.32908 252 252 252
0.53366 -0.75561 -0.32326 252 251 252
0.53835 -0.76153 -0.31744 252 251 251
0.54304 -0.76744 -0.31163 252 251 251
0.54772 -0.77335 -0.30583 252 250 251
0.55240 -0.77924 -0.30004 252 251 251
0.55707 -0.78513 -0.29426 253 251 249
0.56173 -0.79101 -0.28848 252 251 250
0.56639 -0.79688 -0.28271 252 251 251
0.57104 -0.80275 -0.27695 251 250 250
0.57568 -0.80860 -0.27120 251 250 251
0.58032 -0.81445 -0.26545 251 250 251
0.58496 -0.82029 -0.25971 251 250 251
0.43404 -0.65000 -0.43013 254 254 254
0.43884 -0.65604 -0.42419 254 254 254
0.44364 -0.66208 -0.41826 254 254 254
0.44843 -0.66811 -0.41234 254 254 254
0.45321 -0.67412 -0.40642 254 254 254
0.45799 -0.68013 -0.40052 254 254 254
0.46276 -0.68614 -0.39462 254 254 254
0.46753 -0.69213 -0.38873 254 254 254
0.47228 -0.69812 -0.38284 254 254 254
0.50541 -0.73980 -0.34188 252 252 252
0.51012 -0.74572 -0.33606 252 252 252
0.51482 -0.75164 -0.33024 252 252 252
0.51952 -0.75754 -0.32444 252 252 252
0.52421 -0.76344 -0.31864 252 252 252
0.52889 -0.76933 -0.31285 252 251 251
0.53357 -0.77522 -0.30707 252 251 251
0.53824 -0.78109 -0.30129 252 250 251
0.54290 -0.78696 -0.29553 252 250 251
0.54756 -0.79282 -0.28977 252 250 252
0.55221 -0.79867 -0.28402 251 250 251
0.55685 -0.80452 -0.27827 251 250 250
0.56149 -0.81035 -0.27254 251 250 250
0.42009 -0.65229 -0.43098 254 254 254
0.42489 -0.65831 -0.42506 254 254 254
0.42968 -0.66432 -0.41915 254 254 254
0.43446 -0.67033 -0.41325 254 254 254
0.43924 -0.67633 -0.40735 254 254 254
0.44401 -0.68232 -0.40146 254 254 254
0.44878 -0.68830 -0.39558 254 254 254
0.45353 -0.69427 -0.38971 254 254 254
0.45829 -0.70024 -0.38384 254 254 254
0.50078 -0.75357 -0.33140 252 252 252
0.50546 -0.75946 -0.32561 252 252 252
0.51015 -0.76534 -0.31983 252 252 252
0.51483 -0.77121 -0.31406 252 252 252
0.51950 -0.77707 -0.30830 252 251 251
0.52416 -0.78293 -0.30254 252 251 251
0.52882 -0.78878 -0.29679 252 250 251
0.53347 -0.79462 -0.29105 252 250 251
0.53812 -0.80045 -0.28531 252 250 251
0.54276 -0.80628 -0.27959 251 250 251
0.41102 -0.66056 -0.42593 254 254 254
0.41580 -0.66655 -0.42003 254 254 254
0.42058 -0.67254 -0.41415 254 254 254
0.42536 -0.67851 -0.40827 254 254 254
0.43012 -0.68448 -0.40240 254 254 254
0.43488 -0.69044 -0.39653 254 254 254
0.43963 -0.69640 -0.39068 254 254 254
0.44438 -0.70234 -0.38483 254 254 254
0.49150 -0.76137 -0.32678 253 252 252
0.49618 -0.76723 -0.32102 252 252 252
0.50085 -0.77308 -0.31526 252 252 252
0.50552 -0.77892 -0.30952 252 252 252
0.51017 -0.78476 -0.30378 252 251 252
0.51483 -0.79059 -0.29804 252 251 251
0.51948 -0.79641 -0.29232 252 251 251
0.52412 -0.80222 -0.28660 252 250 251
0.40202 -0.66877 -0.42091 254 254 254
0.40679 -0.67473 -0.41504 254 254 254
0.41156 -0.68069 -0.40918 254 254 254
0.41632 -0.68664 -0.40333 254 254 254
0.42107 -0.69258 -0.39748 254 254 254
0.42582 -0.69851 -0.39165 254 254 254
0.43056 -0.70444 -0.38582 254 254 254
0.43529 -0.71035 -0.37999 254 254 254
0.47762 -0.76326 -0.32794 253 253 253
0.48230 -0.76910 -0.32220 252 252 252
0.48696 -0.77493 -0.31646 252 252 252
0.49162 -0.78076 -0.31073 252 252 252
0.49628 -0.78657 -0.30501 252 252 252
0.50092 -0.79238 -0.29929 252 252 252
0.39309 -0.67691 -0.41593 254 254 254
0.39785 -0.68285 -0.41009 254 254 254
0.40260 -0.68878 -0.40425 254 254 254
0.40735 -0.69470 -0.39843 254 254 254
0.41209 -0.70061 -0.39261 254 254 254
0.41683 -0.70652 -0.38679 254 254 254
0.42156 -0.71241 -0.38099 254 254 254
0.42628 -0.71830 -0.37519 254 254 254
0.46383 -0.76514 -0.32910 253 253 253
0.46850 -0.77096 -0.32337 252 252 253
0.47316 -0.77678 -0.31765 252 252 252
0.47782 -0.78258 -0.31193 252 252 252
0.48246 -0.78838 -0.30623 252 252 252
0.38423 -0.68500 -0.41099 254 254 254
0.38898 -0.69090 -0.40517 254 254 254
0.39372 -0.69680 -0.39936 254 254 254
0.39845 -0.70270 -0.39356 254 254 254
0.40318 -0.70858 -0.38777 254 254 254
0.40790 -0.71446 -0.38198 254 254 254
0.41262 -0.72033 -0.37620 254 254 254
0.41733 -0.72619 -0.37043 254 254 254
0.42203 -0.73205 -0.36467 254 254 254
0.44546 -0.76120 -0.33596 253 253 253
0.45013 -0.76701 -0.33024 253 253 253
0.45479 -0.77281 -0.32453 253 253 253
0.45945 -0.77861 -0.31883 253 252 252
0.37543 -0.69302 -0.40609 254 254 254
0.38017 -0.69890 -0.40029 254 254 254
0.38490 -0.70477 -0.39451 254 254 254
0.38962 -0.71064 -0.38873 254 254 254
0.39434 -0.71650 -0.38296 254 254 254
0.39905 -0.72235 -0.37720 254 254 254
0.40375 -0.72819 -0.37145 254 254 254
0.40845 -0.73402 -0.36570 254 254 254
0.41314 -0.73985 -0.35996 254 254 254
0.41783 -0.74567 -0.35423 254 254 254
0.42251 -0.75148 -0.34851 254 254 254
0.42718 -0.75729 -0.34279 254 253 253
0.43185 -0.76308 -0.33708 253 253 253
0.43651 -0.76887 -0.33138 253 253 253
0.44117 -0.77465 -0.32569 253 253 253
0.36670 -0.70098 -0.40122 254 254 254
0.37143 -0.70683 -0.39545 254 254 254
0.37614 -0.71268 -0.38969 254 254 254
0.38085 -0.71852 -0.38394 254 254 254
0.38556 -0.72435 -0.37820 254 254 254
0.39026 -0.73017 -0.37246 254 254 254
0.39495 -0.73599 -0.36673 254 254 254
0.39964 -0.74179 -0.36101 254 254 254
0.40432 -0.74759 -0.35529 254 254 254
0.40899 -0.75339 -0.34959 254 254 254
0.41366 -0.75917 -0.34389 254 254 254
0.41832 -0.76495 -0.33820 254 254 254
0.42298 -0.77072 -0.33251 254 253 253
0.35804 -0.70888 -0.39639 254 254 254
0.36275 -0.71471 -0.39065 254 254 254
0.36746 -0.72053 -0.38491 254 254 254
0.37216 -0.72634 -0.37918 254 254 254
0.37685 -0.73214 -0.37347 254 254 254
0.38153 -0.73794 -0.36775 254 254 254
0.38622 -0.74372 -0.36205 254 254 254
0.39089 -0.74951 -0.35635 254 254 254
0.39556 -0.75528 -0.35066 254 254 254
0.40022 -0.76105 -0.34498 254 254 254
0.34944 -0.71672 -0.39159 254 254 254
0.35414 -0.72252 -0.38588 254 254 254
0.35883 -0.72831 -0.38017 254 254 254
0.36352 -0.73410 -0.37446 254 254 254
0.36820 -0.73987 -0.36877 254 254 254
0.37288 -0.74564 -0.36308 254 254 254
0.37755 -0.75141 -0.35740 254 254 254
0.34091 -0.72451 -0.38684 254 254 254
0.34559 -0.73028 -0.38114 254 254 254
0.35028 -0.73604 -0.37546 254 254 254
0.35495 -0.74180 -0.36978 254 254 254
0.35962 -0.74755 -0.36411 254 254 254
0.33244 -0.73223 -0.38211 254 254 254
0.33711 -0.73798 -0.37645 254 254 254
0.60611 -0.39249 -0.57858 254 254 254
0.61127 -0.39923 -0.57211 254 254 254
0.58008 -0.38236 -0.59211 254 254 254
0.58525 -0.38910 -0.58564 254 254 254
0.59042 -0.39583 -0.57918 254 254 254
0.59558 -0.40255 -0.57272 254 254 254
0.60073 -0.40927 -0.56628 254 254 254
0.55416 -0.37227 -0.60558 254 254 254
0.55934 -0.37900 -0.59911 254 254 254
0.56451 -0.38573 -0.59266 254 254 254
0.56968 -0.39244 -0.58621 254 254 254
0.57484 -0.39915 -0.57977 254 254 254
0.57999 -0.40585 -0.57333 254 254 254
0.58513 -0.41253 -0.56691 254 254 254
0.59027 -0.41921 -0.56050 254 254 254
0.59540 -0.42588 -0.55409 254 254 251
0.53353 -0.36895 -0.61254 254 254 254
0.53871 -0.37567 -0.60608 254 254 254
0.54388 -0.38238 -0.59964 254 254 254
0.54905 -0.38908 -0.59320 254 254 254
0.55421 -0.39577 -0.58677 254 254 254
0.55936 -0.40245 -0.58035 254 254 254
0.56450 -0.40912 -0.57394 254 254 254
0.56964 -0.41578 -0.56754 254 254 254
0.57477 -0.42244 -0.56115 254 254 254
0.57989 -0.42908 -0.55476 254 254 254
0.58501 -0.43572 -0.54839 254 253 249
0.50783 -0.35893 -0.62590 254 254 254
0.51301 -0.36565 -0.61945 254 254 254
0.51819 -0.37235 -0.61301 254 254 254
0.52337 -0.37904 -0.60658 254 254 254
0.52853 -0.38573 -0.60015 254 254 254
0.53369 -0.39240 -0.59374 254 254 254
0.53884 -0.39907 -0.58733 254 254 254
0.54399 -0.40572 -0.58093 254 254 254
0.54912 -0.41237 -0.57455 254 254 254
0.55426 -0.41901 -0.56816 254 254 254
0.55938 -0.42564 -0.56179 254 254 254
0.56450 -0.43226 -0.55543 254 254 254
