ply
format ascii 1.0
element face 0
property list uchar int vertex_indices
element vertex 1356
property float x
property float y
property float z
property uchar diffuse_red
property uchar diffuse_green
property uchar diffuse_blue
end_header
1.27088 -0.55741 0.44476 12 12 22
1.28053 -0.56223 0.44639 12 11 24
1.29023 -0.56707 0.44802 11 10 21
1.29998 -0.57195 0.44966 12 12 24
1.30979 -0.57684 0.45131 13 12 18
1.31964 -0.58177 0.45297 12 13 18
1.32955 -0.58672 0.45464 12 14 11
1.33951 -0.59169 0.45632 15 12 12
1.34952 -0.59669 0.45800 17 10 9
1.35959 -0.60172 0.45970 13 10 15
1.36971 -0.60678 0.46140 11 10 22
1.37988 -0.61186 0.46312 15 9 22
1.39011 -0.61697 0.46484 13 10 30
1.40040 -0.62211 0.46657 13 12 21
1.41074 -0.62727 0.46831 15 11 16
1.42113 -0.63246 0.47006 15 13 20
1.43159 -0.63768 0.47182 28 18 27
1.44209 -0.64293 0.47359 24 20 20
1.45266 -0.64821 0.47537 18 17 18
1.46328 -0.65352 0.47716 15 16 21
1.49551 -0.66962 0.48258 17 18 16
1.16677 -0.51091 0.41975 18 16 20
1.17591 -0.51548 0.42127 14 14 16
1.18509 -0.52008 0.42280 13 13 18
1.19432 -0.52471 0.42433 14 14 20
1.20359 -0.52936 0.42587 15 14 20
1.21292 -0.53403 0.42742 18 12 16
1.22229 -0.53872 0.42898 18 12 12
1.23171 -0.54344 0.43055 15 12 19
1.24118 -0.54819 0.43212 13 12 23
1.25070 -0.55296 0.43370 15 12 27
1.26026 -0.55775 0.43530 13 11 25
1.26988 -0.56257 0.43689 10 11 12
1.27955 -0.56741 0.43850 12 11 17
1.28927 -0.57228 0.44012 11 10 18
1.29904 -0.57718 0.44174 12 12 18
1.30886 -0.58210 0.44337 15 11 16
1.31873 -0.58704 0.44502 12 13 17
1.32865 -0.59202 0.44667 13 14 11
1.33863 -0.59702 0.44832 14 12 9
1.34866 -0.60204 0.44999 15 9 11
1.35874 -0.60709 0.45167 11 9 18
1.36888 -0.61217 0.45335 11 9 29
1.37907 -0.61728 0.45505 15 7 19
1.38932 -0.62242 0.45675 13 9 23
1.39962 -0.62758 0.45847 15 11 20
1.40998 -0.63277 0.46019 14 12 13
1.42040 -0.63799 0.46192 14 12 20
1.43087 -0.64323 0.46366 17 13 27
1.44139 -0.64851 0.46541 18 15 25
1.45198 -0.65381 0.46717 16 14 27
1.46262 -0.65914 0.46894 14 14 30
1.47332 -0.66451 0.47072 16 16 22
1.48409 -0.66990 0.47251 14 17 20
1.49491 -0.67532 0.47431 16 18 18
1.16561 -0.51585 0.41204 18 19 18
1.17476 -0.52045 0.41354 12 16 14
1.18396 -0.52507 0.41505 12 15 16
1.19320 -0.52971 0.41657 13 14 17
1.20249 -0.53438 0.41809 15 15 17
1.21183 -0.53908 0.41963 19 12 16
1.22121 -0.54380 0.42117 18 12 17
1.23065 -0.54854 0.42272 15 12 17
1.24013 -0.55330 0.42427 11 13 21
1.24967 -0.55809 0.42584 14 11 23
1.25925 -0.56291 0.42741 13 10 22
1.26888 -0.56775 0.42899 11 10 10
1.27857 -0.57262 0.43058 14 11 14
1.28830 -0.57751 0.43218 12 10 18
1.29809 -0.58243 0.43379 13 12 17
1.30792 -0.58737 0.43540 20 10 16
1.31781 -0.59234 0.43703 15 11 20
1.32775 -0.59734 0.43866 14 12 15
1.33775 -0.60236 0.44030 14 10 18
1.34779 -0.60741 0.44195 14 9 15
1.35790 -0.61249 0.44361 12 9 18
1.36805 -0.61759 0.44528 12 10 25
1.37826 -0.62272 0.44695 14 9 21
1.38853 -0.62788 0.44864 12 9 20
1.39885 -0.63307 0.45033 11 11 21
1.40922 -0.63829 0.45203 11 13 15
1.41965 -0.64353 0.45375 11 11 16
1.43014 -0.64880 0.45547 10 10 14
1.44069 -0.65410 0.45720 13 12 19
1.45130 -0.65943 0.45894 15 15 23
1.46196 -0.66479 0.46069 16 14 20
1.47268 -0.67018 0.46245 17 15 19
1.48346 -0.67560 0.46422 17 15 18
1.49430 -0.68105 0.46600 18 17 18
1.17361 -0.52543 0.40578 10 18 20
1.18282 -0.53007 0.40728 11 16 19
1.19208 -0.53474 0.40878 12 15 18
1.20138 -0.53943 0.41029 12 15 17
1.21073 -0.54415 0.41180 14 12 17
1.22014 -0.54889 0.41333 13 12 18
1.22959 -0.55365 0.41486 12 12 19
1.23908 -0.55844 0.41640 11 11 22
1.24863 -0.56325 0.41794 15 11 21
1.25823 -0.56809 0.41950 13 11 19
1.26788 -0.57296 0.42106 11 11 11
1.27758 -0.57785 0.42264 13 11 11
1.28733 -0.58276 0.42422 11 9 22
1.29713 -0.58770 0.42580 12 10 30
1.30698 -0.59267 0.42740 15 9 19
1.31689 -0.59766 0.42901 12 9 17
1.32685 -0.60268 0.43062 11 13 13
1.33686 -0.60773 0.43224 12 12 21
1.34692 -0.61280 0.43388 12 11 17
1.35704 -0.61790 0.43552 11 10 14
1.36722 -0.62303 0.43716 11 11 15
1.37744 -0.62819 0.43882 12 10 18
1.38773 -0.63337 0.44049 10 10 21
1.39806 -0.63859 0.44216 10 10 19
1.40846 -0.64383 0.44385 10 11 20
1.41891 -0.64909 0.44554 12 9 19
1.42942 -0.65439 0.44725 11 10 15
1.43999 -0.65972 0.44896 12 15 23
1.45061 -0.66507 0.45068 15 16 34
1.46129 -0.67046 0.45241 15 15 26
1.18168 -0.53510 0.39947 12 16 23
1.19095 -0.53978 0.40096 12 15 25
1.20027 -0.54450 0.40245 12 14 20
1.20964 -0.54923 0.40395 12 13 24
1.21905 -0.55400 0.40545 11 12 24
1.22852 -0.55878 0.40697 12 13 28
1.23803 -0.56359 0.40849 12 12 21
1.24760 -0.56843 0.41002 18 10 20
1.25721 -0.57329 0.41156 16 10 25
1.26687 -0.57818 0.41310 11 12 25
1.27659 -0.58309 0.41466 12 12 15
1.28636 -0.58803 0.41622 12 11 21
1.29617 -0.59299 0.41779 10 11 29
1.30604 -0.59799 0.41937 12 11 19
1.31597 -0.60300 0.42096 11 11 16
1.32594 -0.60805 0.42255 10 15 15
1.33597 -0.61312 0.42416 12 12 25
1.34605 -0.61822 0.42577 11 10 17
1.35619 -0.62334 0.42739 10 10 13
1.36638 -0.62850 0.42902 10 12 11
1.37662 -0.63368 0.43066 11 12 10
1.38692 -0.63889 0.43231 10 11 19
1.39728 -0.64412 0.43396 10 10 17
1.40769 -0.64939 0.43563 11 14 21
1.41816 -0.65468 0.43731 13 15 26
1.42869 -0.66001 0.43899 11 14 20
1.43928 -0.66536 0.44068 12 15 23
1.44992 -0.67074 0.44239 16 17 34
1.18053 -0.54014 0.39164 13 16 16
1.18982 -0.54485 0.39311 14 16 19
1.19915 -0.54958 0.39458 14 14 18
1.20853 -0.55434 0.39606 14 13 25
1.21797 -0.55912 0.39755 13 11 26
1.22745 -0.56393 0.39905 15 12 24
1.23697 -0.56877 0.40055 14 12 14
1.24655 -0.57363 0.40206 16 11 16
1.25618 -0.57851 0.40358 13 12 18
1.26586 -0.58342 0.40511 10 13 24
1.27560 -0.58836 0.40665 12 13 15
1.28538 -0.59332 0.40819 13 12 16
1.29521 -0.59831 0.40974 12 12 20
1.30510 -0.60332 0.41131 13 12 17
1.31504 -0.60836 0.41287 13 14 15
1.32503 -0.61343 0.41445 12 14 11
1.33507 -0.61853 0.41604 10 12 15
1.34517 -0.62365 0.41763 11 11 20
1.35533 -0.62880 0.41923 10 12 25
1.36554 -0.63398 0.42085 9 12 18
1.37580 -0.63918 0.42247 9 12 12
1.38612 -0.64442 0.42409 9 11 14
1.39649 -0.64968 0.42573 14 10 16
1.40693 -0.65497 0.42738 16 14 16
1.41741 -0.66029 0.42904 16 14 19
1.42796 -0.66564 0.43070 12 13 14
1.43856 -0.67102 0.43237 13 14 21
1.17938 -0.54520 0.38378 13 15 15
1.18868 -0.54993 0.38523 13 14 16
1.19803 -0.55469 0.38668 12 13 20
1.20743 -0.55947 0.38815 10 12 26
1.21687 -0.56427 0.38962 11 10 25
1.22637 -0.56910 0.39110 15 11 23
1.23591 -0.57396 0.39258 13 13 19
1.24551 -0.57884 0.39408 13 12 18
1.25515 -0.58375 0.39558 12 12 14
1.26485 -0.58868 0.39709 10 12 16
1.27460 -0.59364 0.39861 11 11 15
1.28440 -0.59863 0.40013 12 12 12
1.29425 -0.60364 0.40167 12 11 16
1.30415 -0.60868 0.40321 12 12 27
1.31411 -0.61374 0.40476 15 12 16
1.32411 -0.61884 0.40632 12 12 11
1.33418 -0.62396 0.40789 10 12 11
1.34429 -0.62910 0.40946 12 12 18
1.35447 -0.63428 0.41105 14 10 23
1.36469 -0.63948 0.41264 11 11 19
1.37497 -0.64471 0.41424 7 11 15
1.38531 -0.64997 0.41585 10 10 13
1.39570 -0.65526 0.41747 17 12 22
1.40615 -0.66058 0.41910 17 13 16
1.41666 -0.66593 0.42073 14 12 20
1.42723 -0.67130 0.42238 10 13 17
1.17823 -0.55028 0.37589 13 16 22
1.18754 -0.55503 0.37732 12 13 19
1.19690 -0.55981 0.37876 12 11 21
1.20632 -0.56461 0.38020 11 11 25
1.21578 -0.56944 0.38166 11 12 21
1.22529 -0.57430 0.38312 11 12 24
1.23485 -0.57917 0.38459 11 12 32
1.24446 -0.58408 0.38606 14 11 23
1.25412 -0.58901 0.38755 14 12 16
1.26383 -0.59397 0.38904 13 13 12
1.27360 -0.59895 0.39054 12 11 20
1.28341 -0.60396 0.39204 12 11 24
1.29328 -0.60900 0.39356 13 12 21
1.30320 -0.61406 0.39508 11 13 28
1.31317 -0.61915 0.39662 13 11 18
1.32320 -0.62426 0.39816 11 11 14
1.33328 -0.62941 0.39970 9 12 13
1.34341 -0.63458 0.40126 12 10 15
1.35360 -0.63978 0.40283 12 9 13
1.36384 -0.64501 0.40440 11 10 12
1.37414 -0.65027 0.40598 10 11 16
1.38450 -0.65555 0.40757 14 11 18
1.39491 -0.66086 0.40917 16 15 23
1.40538 -0.66621 0.41078 15 13 14
1.41591 -0.67158 0.41240 13 12 29
1.17707 -0.55537 0.36797 17 17 23
1.18640 -0.56015 0.36938 14 13 22
1.19577 -0.56495 0.37080 15 11 22
1.20520 -0.56978 0.37223 15 9 21
1.21468 -0.57463 0.37366 13 12 23
1.22420 -0.57951 0.37511 12 12 26
1.23378 -0.58441 0.37656 11 11 33
1.24341 -0.58934 0.37802 18 11 23
1.25308 -0.59429 0.37948 17 12 16
1.26281 -0.59927 0.38095 15 12 12
1.27259 -0.60428 0.38244 14 12 19
1.28242 -0.60931 0.38392 14 10 25
1.29231 -0.61437 0.38542 15 9 23
1.30224 -0.61946 0.38693 12 11 23
1.31223 -0.62457 0.38844 10 10 14
1.32227 -0.62971 0.38996 9 10 9
1.33237 -0.63488 0.39149 10 10 18
1.34252 -0.64008 0.39303 13 8 25
1.35273 -0.64530 0.39457 13 7 15
1.36299 -0.65056 0.39613 13 11 19
1.37331 -0.65584 0.39769 13 10 19
1.38368 -0.66115 0.39926 16 10 25
1.39411 -0.66649 0.40084 15 13 28
1.40460 -0.67186 0.40243 11 12 17
1.41515 -0.67726 0.40402 11 13 27
1.17590 -0.56049 0.36002 21 18 19
1.18525 -0.56529 0.36141 16 13 21
1.19464 -0.57011 0.36282 16 12 22
1.20408 -0.57496 0.36423 18 10 19
1.21357 -0.57984 0.36564 16 11 25
1.22312 -0.58474 0.36707 16 10 28
1.23271 -0.58966 0.36850 14 12 26
1.24235 -0.59461 0.36994 16 12 21
1.25204 -0.59959 0.37138 16 12 17
1.26179 -0.60459 0.37284 14 12 12
1.27158 -0.60962 0.37430 11 13 13
1.28143 -0.61468 0.37577 13 10 15
1.29133 -0.61977 0.37725 13 8 20
1.30128 -0.62488 0.37874 10 9 19
1.31129 -0.63002 0.38023 10 10 14
1.32135 -0.63518 0.38173 11 11 9
1.33146 -0.64038 0.38324 11 10 15
1.34163 -0.64560 0.38476 13 10 18
1.35186 -0.65085 0.38629 14 9 10
1.36214 -0.65613 0.38782 16 9 19
1.37247 -0.66144 0.38936 16 10 18
1.38286 -0.66677 0.39092 24 9 26
1.39331 -0.67214 0.39248 18 12 25
1.40382 -0.67753 0.39404 12 10 17
1.41438 -0.68296 0.39562 13 13 19
1.42501 -0.68841 0.39721 13 15 20
1.17474 -0.56563 0.35204 22 21 20
1.18409 -0.57045 0.35341 15 13 18
1.19350 -0.57530 0.35480 14 12 18
1.20296 -0.58017 0.35619 16 10 17
1.21247 -0.58506 0.35759 15 10 21
1.22202 -0.58999 0.35899 15 10 23
1.23163 -0.59494 0.36041 13 12 21
1.24129 -0.59991 0.36183 13 12 20
1.25100 -0.60491 0.36326 13 12 17
1.26076 -0.60994 0.36469 12 11 12
1.27057 -0.61499 0.36614 8 11 14
1.28043 -0.62007 0.36759 10 10 16
1.29035 -0.62518 0.36905 14 10 19
1.30032 -0.63032 0.37051 11 11 21
1.31034 -0.63548 0.37199 11 11 22
1.32042 -0.64067 0.37347 14 10 12
1.33055 -0.64589 0.37496 12 10 16
1.34074 -0.65114 0.37646 12 11 21
1.35098 -0.65642 0.37797 12 11 8
1.36128 -0.66172 0.37948 15 10 9
1.37163 -0.66705 0.38101 14 11 12
1.38204 -0.67242 0.38254 18 11 21
1.39251 -0.67781 0.38408 16 10 18
1.40304 -0.68323 0.38563 12 8 15
1.41362 -0.68868 0.38718 13 10 16
1.42426 -0.69416 0.38875 12 12 17
1.43496 -0.69968 0.39032 16 15 22
1.18294 -0.57563 0.34539 16 15 17
1.19236 -0.58050 0.34675 13 12 18
1.20183 -0.58539 0.34812 14 11 16
1.21135 -0.59031 0.34950 14 12 14
1.22093 -0.59526 0.35089 13 12 13
1.23055 -0.60023 0.35229 10 12 16
1.24022 -0.60523 0.35369 11 10 19
1.24995 -0.61025 0.35510 10 11 17
1.25972 -0.61530 0.35652 14 10 10
1.26955 -0.62038 0.35794 11 10 21
1.27943 -0.62549 0.35937 9 11 28
1.28936 -0.63062 0.36081 13 11 23
1.29935 -0.63578 0.36226 12 11 23
1.30939 -0.64097 0.36372 12 11 20
1.31949 -0.64619 0.36518 16 11 9
1.32964 -0.65143 0.36665 11 9 13
1.33984 -0.65670 0.36813 13 10 22
1.35010 -0.66200 0.36962 11 10 12
1.36042 -0.66733 0.37111 12 10 9
1.37079 -0.67269 0.37262 11 10 14
1.38122 -0.67808 0.37413 15 12 26
1.39170 -0.68350 0.37565 14 12 12
1.40225 -0.68895 0.37718 14 10 11
1.41285 -0.69443 0.37871 15 11 14
1.42351 -0.69994 0.38026 15 11 20
1.43423 -0.70548 0.38181 14 12 24
1.44502 -0.71105 0.38337 14 13 26
1.45586 -0.71665 0.38495 13 16 27
1.46676 -0.72228 0.38653 13 16 20
1.47772 -0.72795 0.38812 12 17 19
1.48875 -0.73364 0.38971 15 16 20
1.49983 -0.73937 0.39132 16 16 16
1.51098 -0.74514 0.39294 15 15 17
1.19121 -0.58572 0.33867 16 13 21
1.20070 -0.59064 0.34003 15 12 15
1.21024 -0.59558 0.34139 14 13 12
1.21983 -0.60055 0.34276 14 11 9
1.22946 -0.60554 0.34413 14 10 14
1.23915 -0.61057 0.34552 15 10 16
1.24889 -0.61561 0.34691 13 11 16
1.25868 -0.62069 0.34831 13 10 14
1.26853 -0.62579 0.34971 13 11 22
1.27843 -0.63092 0.35112 10 10 27
1.28838 -0.63608 0.35255 12 10 23
1.29838 -0.64127 0.35397 13 11 28
1.30844 -0.64648 0.35541 13 10 26
1.31855 -0.65172 0.35685 14 9 13
1.32872 -0.65699 0.35830 13 8 13
1.33894 -0.66229 0.35976 17 8 20
1.34922 -0.66762 0.36123 12 8 19
1.35955 -0.67297 0.36271 11 10 7
1.36994 -0.67836 0.36419 10 9 12
1.38039 -0.68377 0.36568 19 12 16
1.39090 -0.68922 0.36718 14 12 6
1.40146 -0.69469 0.36869 13 13 7
1.41208 -0.70020 0.37021 14 13 11
1.42276 -0.70574 0.37173 16 13 17
1.43350 -0.71130 0.37326 15 12 22
1.44430 -0.71690 0.37481 16 11 23
1.45516 -0.72253 0.37636 16 13 19
1.46609 -0.72819 0.37792 17 14 12
1.47707 -0.73388 0.37949 15 15 10
1.48812 -0.73961 0.38106 16 14 17
1.49922 -0.74537 0.38265 16 16 21
1.51040 -0.75116 0.38424 15 15 17
1.19006 -0.59096 0.33056 19 13 23
1.19956 -0.59590 0.33190 17 13 16
1.20912 -0.60087 0.33324 15 13 12
1.21872 -0.60586 0.33459 14 12 12
1.22837 -0.61088 0.33595 15 11 17
1.23808 -0.61592 0.33731 17 10 18
1.24783 -0.62100 0.33869 15 11 15
1.25764 -0.62610 0.34006 15 10 17
1.26750 -0.63122 0.34145 13 10 21
1.27742 -0.63638 0.34284 12 11 23
1.28738 -0.64156 0.34425 13 9 20
1.29741 -0.64677 0.34565 13 10 24
1.30748 -0.65201 0.34707 13 10 23
1.31761 -0.65728 0.34849 13 8 15
1.32779 -0.66257 0.34993 12 7 11
1.33803 -0.66790 0.35137 13 8 12
1.34833 -0.67325 0.35281 10 9 17
1.35868 -0.67863 0.35427 11 12 8
1.36909 -0.68404 0.35573 13 11 15
1.37956 -0.68949 0.35720 18 13 18
1.39008 -0.69496 0.35868 13 12 11
1.40067 -0.70046 0.36017 13 14 13
1.41131 -0.70599 0.36167 14 15 12
1.42201 -0.71156 0.36317 11 13 13
1.43277 -0.71715 0.36468 13 13 22
1.44359 -0.72278 0.36620 14 13 28
1.45447 -0.72843 0.36773 14 14 16
1.46541 -0.73412 0.36927 13 15 10
1.47642 -0.73985 0.37082 13 15 10
1.48748 -0.74560 0.37238 16 13 14
1.49861 -0.75139 0.37394 15 15 17
1.50981 -0.75721 0.37551 12 14 16
1.52106 -0.76306 0.37710 15 14 20
1.18891 -0.59622 0.32242 20 14 21
1.19842 -0.60118 0.32374 18 13 14
1.20799 -0.60617 0.32507 15 13 13
1.21761 -0.61119 0.32640 15 11 14
1.22728 -0.61623 0.32773 16 11 23
1.23700 -0.62130 0.32908 16 10 27
1.24677 -0.62640 0.33043 16 11 17
1.25660 -0.63153 0.33179 18 11 16
1.26647 -0.63668 0.33316 16 11 20
1.27641 -0.64186 0.33453 12 11 26
1.28639 -0.64706 0.33591 10 12 19
1.29643 -0.65230 0.33730 12 11 17
1.30652 -0.65756 0.33870 12 10 13
1.31667 -0.66285 0.34010 12 10 13
1.32687 -0.66818 0.34152 12 11 12
1.33713 -0.67353 0.34293 11 11 16
1.34744 -0.67890 0.34436 12 10 17
1.35781 -0.68431 0.34580 13 11 14
1.36824 -0.68975 0.34724 15 10 18
1.37872 -0.69522 0.34869 16 11 20
1.38927 -0.70072 0.35015 12 10 18
1.39987 -0.70625 0.35162 11 14 21
1.41053 -0.71181 0.35309 15 13 13
1.42125 -0.71740 0.35457 12 15 10
1.43203 -0.72302 0.35607 12 12 16
1.44287 -0.72868 0.35757 16 14 15
1.45377 -0.73436 0.35908 15 14 12
1.46474 -0.74008 0.36059 14 14 11
1.47576 -0.74583 0.36212 13 15 9
1.48685 -0.75161 0.36365 15 15 11
1.49800 -0.75743 0.36519 14 15 12
1.50921 -0.76328 0.36675 14 15 15
1.52049 -0.76916 0.36831 15 13 15
1.18775 -0.60150 0.31425 22 16 21
1.19728 -0.60649 0.31555 19 13 15
1.20686 -0.61150 0.31686 16 12 12
1.21650 -0.61654 0.31817 14 12 13
1.22618 -0.62161 0.31949 14 11 23
1.23592 -0.62670 0.32081 15 10 24
1.24571 -0.63183 0.32215 13 12 15
1.25555 -0.63697 0.32349 14 12 11
1.26544 -0.64215 0.32483 13 11 17
1.27539 -0.64736 0.32619 11 10 21
1.28539 -0.65259 0.32755 12 11 16
1.29544 -0.65785 0.32892 13 11 18
1.30555 -0.66314 0.33029 13 12 12
1.31572 -0.66845 0.33168 13 12 12
1.32594 -0.67380 0.33307 14 12 11
1.33621 -0.67918 0.33447 13 13 15
1.34655 -0.68458 0.33588 14 11 13
1.35694 -0.69002 0.33729 15 11 15
1.36738 -0.69548 0.33871 16 11 16
1.37789 -0.70098 0.34014 17 11 15
1.38845 -0.70651 0.34158 16 9 17
1.39907 -0.71206 0.34303 14 12 32
1.40975 -0.71765 0.34448 20 13 15
1.42049 -0.72327 0.34594 12 13 16
1.43129 -0.72892 0.34741 12 14 27
1.44215 -0.73460 0.34889 20 12 16
1.45307 -0.74032 0.35038 16 12 14
1.46406 -0.74606 0.35188 16 12 16
1.47510 -0.75184 0.35338 15 15 13
1.48621 -0.75765 0.35489 16 14 10
1.49738 -0.76350 0.35641 15 15 12
1.50862 -0.76938 0.35794 15 16 20
1.51992 -0.77529 0.35948 16 16 13
1.18658 -0.60680 0.30605 21 19 20
1.19613 -0.61181 0.30733 17 14 22
1.20573 -0.61685 0.30862 15 13 19
1.21538 -0.62192 0.30991 14 13 13
1.22508 -0.62701 0.31121 14 13 18
1.23483 -0.63213 0.31251 14 12 18
1.24464 -0.63727 0.31383 10 13 13
1.25449 -0.64245 0.31515 9 13 13
1.26440 -0.64765 0.31647 11 11 18
1.27437 -0.65288 0.31781 12 10 21
1.28439 -0.65813 0.31915 14 10 22
1.29446 -0.66342 0.32050 14 10 19
1.30459 -0.66873 0.32186 15 12 13
1.31477 -0.67408 0.32322 14 14 11
1.32500 -0.67945 0.32459 15 11 13
1.33530 -0.68485 0.32597 15 12 12
1.34565 -0.69028 0.32736 16 13 12
1.35606 -0.69575 0.32875 16 12 18
1.36652 -0.70124 0.33015 14 12 10
1.37704 -0.70676 0.33156 16 13 15
1.38762 -0.71231 0.33298 15 10 18
1.39827 -0.71790 0.33440 15 12 26
1.40896 -0.72351 0.33584 18 13 14
1.41972 -0.72916 0.33728 13 14 17
1.43054 -0.73484 0.33873 13 13 24
1.44143 -0.74055 0.34018 16 13 15
1.45237 -0.74629 0.34165 15 14 12
1.46337 -0.75207 0.34312 14 12 15
1.47444 -0.75788 0.34461 13 14 16
1.48557 -0.76372 0.34610 14 15 10
1.49676 -0.76959 0.34760 14 16 12
1.50802 -0.77550 0.34910 13 17 17
1.51934 -0.78144 0.35062 13 17 13
1.18541 -0.61213 0.29782 24 21 19
1.19498 -0.61716 0.29908 18 14 23
1.20459 -0.62222 0.30034 14 12 24
1.21426 -0.62731 0.30162 15 12 16
1.22397 -0.63243 0.30290 13 12 17
1.23374 -0.63757 0.30418 13 12 17
1.24356 -0.64274 0.30548 10 14 16
1.25344 -0.64794 0.30678 11 14 15
1.26336 -0.65316 0.30808 12 13 17
1.27334 -0.65842 0.30940 13 12 17
1.28338 -0.66370 0.31072 15 10 18
1.29347 -0.66901 0.31205 15 11 18
1.30361 -0.67435 0.31338 15 13 14
1.31381 -0.67972 0.31473 14 14 13
1.32407 -0.68512 0.31608 12 10 15
1.33438 -0.69055 0.31744 14 10 10
1.34475 -0.69601 0.31880 13 12 11
1.35517 -0.70150 0.32018 14 12 15
1.36566 -0.70702 0.32156 14 11 11
1.37620 -0.71257 0.32294 14 11 17
1.38680 -0.71815 0.32434 13 11 16
1.39746 -0.72376 0.32574 16 12 17
1.40818 -0.72940 0.32716 18 13 14
1.41896 -0.73508 0.32858 14 15 15
1.42980 -0.74078 0.33000 14 16 16
1.44070 -0.74652 0.33144 14 15 10
1.45166 -0.75229 0.33288 14 15 8
1.46269 -0.75810 0.33434 15 14 14
1.47378 -0.76394 0.33580 15 15 18
1.48493 -0.76981 0.33726 14 16 11
1.49614 -0.77571 0.33874 14 15 10
1.50742 -0.78165 0.34023 12 15 16
1.51877 -0.78762 0.34172 15 16 18
1.19382 -0.62253 0.29079 18 14 22
1.20345 -0.62761 0.29204 13 13 21
1.21313 -0.63273 0.29329 13 13 14
1.22286 -0.63787 0.29455 13 13 14
1.23265 -0.64303 0.29582 14 13 19
1.24248 -0.64823 0.29709 12 14 16
1.25237 -0.65345 0.29837 13 13 17
1.26232 -0.65870 0.29966 13 14 19
1.27232 -0.66398 0.30095 13 13 19
1.28237 -0.66929 0.30226 15 11 19
1.29247 -0.67463 0.30356 14 12 18
1.30264 -0.67999 0.30488 13 13 13
1.31285 -0.68539 0.30620 13 13 15
1.32313 -0.69082 0.30753 12 10 18
1.33346 -0.69627 0.30887 12 11 15
1.34384 -0.70176 0.31021 11 12 8
1.35429 -0.70727 0.31157 12 14 11
1.36479 -0.71282 0.31293 12 13 14
1.37535 -0.71840 0.31429 14 11 21
1.38597 -0.72400 0.31567 14 13 13
1.39665 -0.72964 0.31705 15 13 13
1.40739 -0.73531 0.31844 16 14 14
1.41819 -0.74102 0.31984 12 14 18
1.42905 -0.74675 0.32124 12 16 18
1.43997 -0.75252 0.32266 13 15 12
1.45095 -0.75832 0.32408 14 17 9
1.46200 -0.76415 0.32551 17 16 11
1.47311 -0.77002 0.32695 16 17 10
1.48428 -0.77592 0.32840 15 16 12
1.49552 -0.78186 0.32985 14 16 18
1.50682 -0.78782 0.33131 13 14 16
1.51819 -0.79383 0.33278 17 14 16
1.19266 -0.62791 0.28247 19 16 22
1.20230 -0.63302 0.28370 15 13 22
1.21200 -0.63816 0.28494 13 13 21
1.22175 -0.64333 0.28618 15 15 15
1.23155 -0.64852 0.28742 17 15 17
1.24140 -0.65374 0.28868 14 14 11
1.25131 -0.65899 0.28994 14 14 13
1.26127 -0.66426 0.29120 13 14 20
1.27128 -0.66957 0.29248 11 12 25
1.28135 -0.67490 0.29376 14 12 27
1.29148 -0.68027 0.29505 13 11 21
1.30165 -0.68566 0.29634 12 12 14
1.31189 -0.69108 0.29764 13 13 15
1.32218 -0.69653 0.29895 13 12 17
1.33253 -0.70201 0.30027 13 12 17
1.34293 -0.70753 0.30159 11 13 9
1.35340 -0.71307 0.30292 12 13 11
1.36392 -0.71864 0.30426 13 12 11
1.37450 -0.72425 0.30561 15 12 16
1.38514 -0.72988 0.30696 14 14 8
1.39584 -0.73555 0.30832 15 13 11
1.40659 -0.74125 0.30969 17 12 15
1.41741 -0.74698 0.31107 15 13 20
1.42829 -0.75275 0.31245 12 13 18
1.43924 -0.75854 0.31384 12 13 14
1.45024 -0.76437 0.31524 14 14 12
1.46131 -0.77024 0.31665 15 16 13
1.47244 -0.77613 0.31807 15 16 11
1.48363 -0.78206 0.31949 15 15 11
1.49489 -0.78803 0.32092 14 14 15
1.50622 -0.79403 0.32236 14 13 12
1.51760 -0.80006 0.32381 15 14 14
1.52906 -0.80613 0.32527 12 13 14
1.20115 -0.63846 0.27533 17 14 24
1.21086 -0.64362 0.27655 14 14 22
1.22063 -0.64881 0.27777 14 14 17
1.23044 -0.65402 0.27899 17 14 13
1.24031 -0.65927 0.28023 15 14 11
1.25024 -0.66454 0.28147 14 13 13
1.26021 -0.66985 0.28271 14 12 21
1.27025 -0.67518 0.28397 13 11 26
1.28033 -0.68054 0.28523 16 11 28
1.29047 -0.68593 0.28649 14 11 24
1.30067 -0.69134 0.28777 14 13 19
1.31092 -0.69679 0.28905 14 13 14
1.32123 -0.70227 0.29034 14 11 17
1.33160 -0.70778 0.29163 14 14 21
1.34202 -0.71332 0.29293 13 16 11
1.35250 -0.71889 0.29424 11 14 20
1.36304 -0.72449 0.29556 11 13 12
1.37364 -0.73012 0.29688 13 12 14
1.38430 -0.73579 0.29822 13 12 12
1.39502 -0.74148 0.29956 14 13 13
1.40580 -0.74721 0.30090 16 13 21
1.41664 -0.75297 0.30226 14 13 26
1.42754 -0.75876 0.30362 14 12 20
1.43850 -0.76459 0.30499 13 13 18
1.44953 -0.77045 0.30637 13 14 17
1.46061 -0.77634 0.30775 16 14 15
1.47177 -0.78227 0.30914 15 13 16
1.48298 -0.78823 0.31055 16 13 13
1.49426 -0.79422 0.31196 14 12 15
1.50561 -0.80025 0.31337 13 13 17
1.51702 -0.80632 0.31480 16 13 19
1.52850 -0.81242 0.31623 12 13 22
1.19999 -0.64391 0.26693 18 18 19
1.20972 -0.64910 0.26812 15 15 16
1.21950 -0.65431 0.26932 14 13 17
1.22934 -0.65955 0.27053 14 13 16
1.23922 -0.66482 0.27174 14 14 17
1.24916 -0.67012 0.27296 14 12 19
1.25916 -0.67545 0.27419 16 11 24
1.26921 -0.68081 0.27542 16 10 26
1.27931 -0.68619 0.27666 16 10 30
1.28947 -0.69161 0.27791 14 11 21
1.29968 -0.69705 0.27916 14 13 17
1.30995 -0.70253 0.28042 14 14 13
1.32028 -0.70803 0.28169 13 13 19
1.33066 -0.71357 0.28296 15 14 20
1.34111 -0.71914 0.28424 12 15 13
1.35161 -0.72474 0.28553 11 14 19
1.36217 -0.73036 0.28682 10 11 16
1.37278 -0.73602 0.28813 11 11 23
1.38346 -0.74172 0.28944 13 11 23
1.39420 -0.74744 0.29075 15 14 14
1.40500 -0.75320 0.29208 14 15 16
1.41586 -0.75899 0.29341 12 14 20
1.42678 -0.76481 0.29475 13 14 18
1.43776 -0.77066 0.29610 14 13 23
1.44881 -0.77655 0.29745 13 14 15
1.45992 -0.78247 0.29882 14 14 11
1.47109 -0.78843 0.30019 14 14 12
1.48233 -0.79442 0.30156 14 15 7
1.49363 -0.80045 0.30295 13 16 8
1.50500 -0.80651 0.30435 13 16 16
1.51643 -0.81260 0.30575 14 15 24
1.52793 -0.81873 0.30716 15 15 23
1.19883 -0.64939 0.25850 20 20 19
1.20858 -0.65460 0.25967 17 16 15
1.21837 -0.65984 0.26085 15 13 18
1.22822 -0.66510 0.26203 15 13 20
1.23813 -0.67040 0.26323 14 14 20
1.24808 -0.67572 0.26442 14 12 21
1.25809 -0.68108 0.26563 17 11 22
1.26816 -0.68646 0.26684 17 10 21
1.27828 -0.69187 0.26806 15 11 22
1.28846 -0.69731 0.26929 15 13 21
1.29869 -0.70279 0.27052 14 13 19
1.30898 -0.70829 0.27176 14 13 13
1.31932 -0.71382 0.27300 14 11 17
1.32973 -0.71938 0.27425 16 11 19
1.34019 -0.72498 0.27551 14 13 15
1.35071 -0.73060 0.27678 13 11 15
1.36128 -0.73626 0.27805 14 10 22
1.37192 -0.74195 0.27933 14 12 25
1.38262 -0.74767 0.28062 14 12 22
1.39338 -0.75342 0.28192 17 13 14
1.40419 -0.75921 0.28322 15 14 13
1.41507 -0.76503 0.28453 12 15 12
1.42602 -0.77088 0.28585 14 14 10
1.43702 -0.77676 0.28717 15 14 14
1.44809 -0.78268 0.28850 12 16 14
1.45922 -0.78863 0.28984 13 14 13
1.47041 -0.79462 0.29119 14 14 13
1.48167 -0.80064 0.29255 15 17 11
1.49300 -0.80670 0.29391 15 17 10
1.50439 -0.81279 0.29528 15 15 15
1.51584 -0.81891 0.29666 13 16 17
1.52736 -0.82508 0.29805 15 15 14
1.20743 -0.66012 0.25118 17 16 17
1.21724 -0.66538 0.25234 16 15 17
1.22711 -0.67068 0.25350 16 14 22
1.23703 -0.67600 0.25468 15 14 20
1.24700 -0.68135 0.25585 14 14 17
1.25703 -0.68673 0.25704 16 13 15
1.26711 -0.69214 0.25823 17 11 15
1.27725 -0.69757 0.25943 17 13 15
1.28744 -0.70304 0.26063 16 14 18
1.29769 -0.70854 0.26184 14 13 18
1.30800 -0.71407 0.26306 13 13 12
1.31836 -0.71963 0.26428 13 11 16
1.32878 -0.72522 0.26551 16 11 21
1.33926 -0.73084 0.26675 13 11 22
1.34980 -0.73650 0.26799 14 10 20
1.36040 -0.74218 0.26924 17 11 29
1.37106 -0.74790 0.27050 15 12 25
1.38177 -0.75365 0.27177 14 12 21
1.39255 -0.75943 0.27304 15 14 11
1.40339 -0.76524 0.27432 14 15 12
1.41429 -0.77109 0.27561 14 16 7
1.42525 -0.77697 0.27690 16 14 10
1.43627 -0.78288 0.27821 17 13 15
1.44736 -0.78883 0.27951 14 15 14
1.45851 -0.79482 0.28083 14 14 15
1.46973 -0.80083 0.28216 12 14 18
1.48101 -0.80688 0.28349 15 15 15
1.49236 -0.81297 0.28483 16 12 18
1.50377 -0.81909 0.28618 15 11 22
1.51525 -0.82525 0.28753 14 13 21
1.52679 -0.83145 0.28890 17 12 16
1.21610 -0.67095 0.24380 15 15 23
1.22599 -0.67627 0.24494 14 15 25
1.23592 -0.68162 0.24609 14 14 20
1.24591 -0.68699 0.24725 12 13 20
1.25596 -0.69240 0.24841 15 12 21
1.26606 -0.69783 0.24958 18 12 15
1.27621 -0.70330 0.25076 19 12 14
1.28642 -0.70879 0.25194 17 13 22
1.29669 -0.71432 0.25313 14 12 24
1.30702 -0.71988 0.25432 13 11 11
1.31740 -0.72546 0.25553 15 11 12
1.35951 -0.74813 0.26040 14 12 24
1.37019 -0.75387 0.26164 13 12 22
1.38092 -0.75965 0.26288 13 12 19
1.39172 -0.76546 0.26413 15 13 13
1.40258 -0.77130 0.26539 15 14 19
1.41350 -0.77718 0.26665 15 14 18
1.42448 -0.78309 0.26792 15 14 16
1.43553 -0.78903 0.26920 16 14 22
1.44664 -0.79501 0.27049 12 14 13
1.45781 -0.80102 0.27178 13 14 13
1.46905 -0.80707 0.27308 14 15 15
1.48035 -0.81316 0.27439 16 13 21
1.49172 -0.81927 0.27571 17 11 27
1.50315 -0.82543 0.27703 15 13 17
1.51465 -0.83162 0.27837 13 15 17
1.52622 -0.83784 0.27970 16 14 15
1.21496 -0.67654 0.23522 17 13 27
1.22486 -0.68189 0.23634 17 13 26
1.23481 -0.68726 0.23747 16 14 20
1.24482 -0.69266 0.23861 14 14 23
1.25488 -0.69809 0.23975 14 13 23
1.26500 -0.70355 0.24090 17 12 19
1.27517 -0.70905 0.24205 17 11 19
1.28540 -0.71457 0.24321 16 12 25
1.29569 -0.72012 0.24438 14 13 24
1.30603 -0.72571 0.24555 13 12 9
1.36931 -0.75987 0.25274 14 13 25
1.38007 -0.76568 0.25396 15 12 29
1.39089 -0.77151 0.25518 18 11 17
1.40176 -0.77739 0.25642 16 13 18
1.41271 -0.78329 0.25766 15 14 18
1.42371 -0.78923 0.25891 15 13 15
1.43478 -0.79521 0.26016 19 12 21
1.44591 -0.80122 0.26143 15 14 16
1.45710 -0.80726 0.26270 15 14 18
1.46836 -0.81334 0.26397 14 14 18
1.47968 -0.81945 0.26526 16 14 19
1.49107 -0.82560 0.26655 15 14 19
1.50253 -0.83179 0.26785 13 16 13
1.51406 -0.83801 0.26916 11 17 16
1.52565 -0.84427 0.27047 14 17 13
1.53731 -0.85056 0.27180 17 13 13
1.21382 -0.68215 0.22661 20 11 22
1.22373 -0.68752 0.22771 19 12 23
1.23370 -0.69292 0.22882 17 14 22
1.24372 -0.69835 0.22993 15 14 26
1.25380 -0.70381 0.23106 15 13 27
1.26394 -0.70930 0.23218 17 11 28
1.37921 -0.77173 0.24499 16 10 19
1.39005 -0.77760 0.24620 20 10 17
1.40095 -0.78350 0.24741 17 13 16
1.41191 -0.78943 0.24863 14 15 8
1.42293 -0.79540 0.24985 14 13 13
1.43402 -0.80141 0.25109 17 13 15
1.44517 -0.80745 0.25233 15 14 16
1.45639 -0.81352 0.25357 14 13 28
1.46767 -0.81963 0.25483 14 13 16
1.47902 -0.82578 0.25609 18 12 14
1.49043 -0.83196 0.25736 14 12 9
1.50191 -0.83817 0.25863 16 14 10
1.51346 -0.84443 0.25991 15 14 13
1.52507 -0.85072 0.26121 14 14 11
1.53676 -0.85705 0.26250 17 14 14
1.21266 -0.68779 0.21797 20 13 23
1.22260 -0.69318 0.21905 16 13 23
1.23258 -0.69861 0.22013 16 15 18
1.24262 -0.70407 0.22123 16 14 23
1.25272 -0.70955 0.22232 18 12 25
1.38921 -0.78370 0.23718 17 12 16
1.40013 -0.78963 0.23836 16 14 16
1.41111 -0.79560 0.23956 14 15 5
1.42215 -0.80160 0.24076 14 14 11
1.43326 -0.80764 0.24197 17 13 16
1.44444 -0.81371 0.24319 14 13 22
1.45567 -0.81981 0.24441 15 13 23
1.46698 -0.82595 0.24564 17 14 14
1.47835 -0.83213 0.24687 17 13 20
1.48978 -0.83834 0.24812 16 12 12
1.50128 -0.84459 0.24937 18 14 11
1.51285 -0.85088 0.25063 15 15 7
1.52449 -0.85720 0.25190 14 14 9
1.53620 -0.86356 0.25317 16 15 21
1.21151 -0.69345 0.20929 19 16 25
1.22146 -0.69887 0.21035 15 16 22
1.23146 -0.70432 0.21141 15 16 16
1.24152 -0.70980 0.21248 16 14 19
1.39930 -0.79580 0.22928 14 13 15
1.41031 -0.80179 0.23045 14 13 11
1.42137 -0.80782 0.23163 15 14 13
1.43250 -0.81389 0.23282 17 12 16
1.44370 -0.81999 0.23401 15 12 20
1.45496 -0.82613 0.23521 18 13 16
1.46628 -0.83230 0.23641 16 14 16
1.47767 -0.83851 0.23762 14 14 21
1.48913 -0.84475 0.23884 15 14 16
1.50066 -0.85103 0.24007 16 15 21
1.51225 -0.85735 0.24130 15 16 16
1.52391 -0.86371 0.24255 15 16 14
1.53564 -0.87010 0.24380 17 15 22
1.21035 -0.69913 0.20057 21 18 26
1.22031 -0.70457 0.20161 17 16 21
1.40950 -0.80801 0.22131 16 11 23
1.42059 -0.81407 0.22246 16 12 18
1.43174 -0.82017 0.22362 19 12 17
1.44295 -0.82630 0.22479 15 14 13
1.45424 -0.83247 0.22596 17 14 12
1.46558 -0.83867 0.22715 16 12 18
1.47700 -0.84491 0.22833 14 14 22
1.48848 -0.85119 0.22953 14 14 13
1.50002 -0.85750 0.23073 15 13 22
1.51164 -0.86385 0.23194 12 15 20
1.52333 -0.87024 0.23316 14 15 18
1.53508 -0.87667 0.23438 14 13 21
1.41980 -0.82035 0.21325 15 13 21
1.43097 -0.82647 0.21439 16 13 19
1.44221 -0.83264 0.21553 14 13 17
1.45351 -0.83884 0.21668 17 14 17
1.46488 -0.84507 0.21784 18 13 16
1.47632 -0.85134 0.21900 15 15 18
1.48782 -0.85765 0.22017 15 14 14
1.49939 -0.86400 0.22135 16 14 20
1.51103 -0.87038 0.22253 14 16 17
1.52274 -0.87681 0.22373 12 16 18
1.53452 -0.88327 0.22492 14 13 23
1.54637 -0.88977 0.22613 17 10 14
1.43020 -0.83281 0.20512 13 15 21
1.44146 -0.83900 0.20624 13 15 21
1.45278 -0.84523 0.20736 15 15 20
1.46418 -0.85150 0.20849 15 14 14
1.47563 -0.85781 0.20963 14 14 14
1.48716 -0.86415 0.21078 16 13 14
1.49875 -0.87053 0.21193 18 14 17
1.51042 -0.87694 0.21309 16 15 13
1.52215 -0.88340 0.21425 15 15 16
1.53395 -0.88989 0.21543 17 15 20
1.54582 -0.89643 0.21661 18 12 18
1.44071 -0.84539 0.19690 15 14 28
1.45205 -0.85166 0.19800 15 13 21
1.46347 -0.85796 0.19911 14 13 17
1.47495 -0.86429 0.20022 13 12 13
1.48650 -0.87067 0.20134 16 11 15
1.49811 -0.87708 0.20247 18 13 25
1.50980 -0.88353 0.20360 16 14 9
1.52156 -0.89002 0.20474 14 14 16
1.53338 -0.89655 0.20589 18 14 22
1.54528 -0.90312 0.20704 16 13 18
1.45132 -0.85811 0.18860 17 14 17
1.46276 -0.86444 0.18968 16 15 19
1.47426 -0.87081 0.19077 16 15 18
1.48583 -0.87722 0.19187 15 15 17
1.49747 -0.88366 0.19297 16 14 23
1.50918 -0.89015 0.19407 16 14 14
1.52096 -0.89667 0.19519 15 14 19
1.53281 -0.90323 0.19631 19 15 17
1.54473 -0.90983 0.19744 16 13 11
1.46204 -0.87095 0.18022 16 14 27
1.47357 -0.87735 0.18128 15 13 29
1.48516 -0.88380 0.18235 16 14 12
1.49683 -0.89028 0.18342 16 14 20
1.50856 -0.89679 0.18450 16 15 20
1.52036 -0.90335 0.18559 16 13 32
1.53224 -0.90995 0.18669 17 15 20
1.54418 -0.91658 0.18779 15 14 15
1.47288 -0.88393 0.17175 13 13 26
1.48449 -0.89040 0.17279 16 14 16
1.49618 -0.89692 0.17384 16 15 17
1.50794 -0.90347 0.17489 17 15 16
1.51976 -0.91006 0.17595 16 14 17
1.53166 -0.91669 0.17702 19 14 15
1.54363 -0.92336 0.17809 19 15 13
1.55568 -0.93007 0.17918 20 14 15
1.48382 -0.89704 0.16319 13 17 10
1.49553 -0.90358 0.16421 15 16 16
1.50731 -0.91017 0.16524 19 15 23
1.51916 -0.91680 0.16627 16 15 14
1.53108 -0.92346 0.16731 22 14 12
1.54308 -0.93017 0.16836 22 15 13
1.55515 -0.93692 0.16941 20 15 13
1.48314 -0.90370 0.15355 16 15 10
1.49488 -0.91028 0.15454 21 16 17
1.50668 -0.91690 0.15554 22 14 21
1.51856 -0.92356 0.15655 19 15 20
1.53050 -0.93027 0.15756 20 14 21
1.54252 -0.93701 0.15858 21 14 23
1.55462 -0.94379 0.15961 18 16 20
1.49422 -0.91701 0.14483 25 15 14
1.50605 -0.92367 0.14580 22 13 18
1.54197 -0.94388 0.14876 21 15 20
1.55408 -0.95070 0.14976 20 18 20
1.55355 -0.95763 0.13987 20 18 14
1.41647 -0.36464 -0.45117 254 254 254
1.42042 -0.37358 -0.44331 254 254 254
1.42437 -0.38251 -0.43545 254 254 254
1.42831 -0.39144 -0.42759 254 254 254
1.43226 -0.40037 -0.41974 254 254 254
1.38533 -0.35163 -0.46753 254 254 254
1.38927 -0.36053 -0.45970 254 254 254
1.39321 -0.36943 -0.45187 254 254 254
1.39714 -0.37832 -0.44405 254 254 254
1.40108 -0.38721 -0.43622 254 254 254
1.40501 -0.39610 -0.42841 254 254 254
1.40894 -0.40498 -0.42059 254 254 254
1.41286 -0.41386 -0.41278 254 254 254
1.41679 -0.42273 -0.40497 254 254 254
1.36233 -0.35647 -0.46815 254 254 254
1.36625 -0.36532 -0.46035 254 254 254
1.37017 -0.37418 -0.45256 254 254 254
1.37409 -0.38302 -0.44477 254 254 254
1.37801 -0.39187 -0.43699 254 254 254
1.38193 -0.40071 -0.42921 254 254 254
1.38584 -0.40955 -0.42143 254 254 254
1.38976 -0.41838 -0.41366 254 254 254
1.39367 -0.42721 -0.40589 254 254 254
1.39758 -0.43604 -0.39812 254 254 254
1.33563 -0.35244 -0.47651 254 254 254
1.33955 -0.36125 -0.46875 254 254 254
1.34346 -0.37007 -0.46100 254 254 254
1.34736 -0.37887 -0.45325 254 254 254
1.35127 -0.38768 -0.44550 254 254 254
1.35517 -0.39648 -0.43775 254 254 254
1.35908 -0.40528 -0.43001 254 254 254
1.36298 -0.41407 -0.42227 254 254 254
1.36688 -0.42286 -0.41453 254 254 254
1.37077 -0.43165 -0.40680 254 254 254
1.37467 -0.44043 -0.39907 254 254 254
1.37857 -0.44921 -0.39135 254 254 254
1.38246 -0.45798 -0.38362 254 254 254
1.27794 -0.27811 -0.54671 254 254 253
1.28186 -0.28691 -0.53896 254 254 254
1.28577 -0.29571 -0.53122 254 254 254
1.28967 -0.30451 -0.52347 254 254 254
1.29358 -0.31331 -0.51573 254 254 254
1.29749 -0.32210 -0.50800 254 254 254
1.30139 -0.33088 -0.50026 254 254 254
1.30529 -0.33967 -0.49253 254 254 254
1.30919 -0.34845 -0.48480 254 254 254
1.31309 -0.35722 -0.47708 254 254 254
1.31699 -0.36599 -0.46936 254 254 254
1.32088 -0.37476 -0.46164 254 254 254
1.32477 -0.38353 -0.45392 254 254 254
1.32867 -0.39229 -0.44621 254 254 254
1.33256 -0.40105 -0.43850 254 254 254
1.33644 -0.40980 -0.43080 254 254 254
1.34033 -0.41855 -0.42310 254 254 254
1.34422 -0.42730 -0.41540 254 254 254
1.34810 -0.43604 -0.40770 254 254 254
1.35198 -0.44478 -0.40001 254 254 254
1.35586 -0.45351 -0.39232 254 254 254
1.35974 -0.46225 -0.38464 254 254 254
1.36362 -0.47097 -0.37695 254 254 254
1.36749 -0.47970 -0.36927 254 254 254
1.24794 -0.26570 -0.56237 254 254 253
1.25185 -0.27447 -0.55465 254 254 254
1.25574 -0.28324 -0.54694 254 254 254
1.25964 -0.29200 -0.53923 254 254 254
1.26354 -0.30076 -0.53152 254 254 254
1.26743 -0.30951 -0.52381 254 254 254
1.27132 -0.31826 -0.51611 254 254 254
1.27521 -0.32701 -0.50841 254 254 254
1.27910 -0.33575 -0.50071 254 254 254
1.28299 -0.34449 -0.49302 254 254 254
1.28688 -0.35323 -0.48533 254 254 254
1.29076 -0.36196 -0.47764 254 254 254
1.29464 -0.37069 -0.46995 254 254 254
1.29852 -0.37941 -0.46227 254 254 254
1.30240 -0.38813 -0.45460 254 254 254
1.30628 -0.39685 -0.44692 254 254 254
1.31016 -0.40557 -0.43925 254 254 254
1.31403 -0.41428 -0.43158 254 254 254
1.31790 -0.42298 -0.42392 254 254 254
1.32177 -0.43169 -0.41625 254 254 254
1.32564 -0.44039 -0.40860 254 254 254
1.32951 -0.44908 -0.40094 254 254 254
1.33338 -0.45778 -0.39329 254 254 254
1.33724 -0.46647 -0.38564 254 254 254
1.34111 -0.47515 -0.37799 254 254 254
1.34497 -0.48383 -0.37035 254 254 254
1.34883 -0.49251 -0.36271 254 254 254
1.35269 -0.50119 -0.35508 254 254 254
1.21821 -0.25341 -0.57790 254 254 252
1.22210 -0.26214 -0.57021 254 254 253
1.22599 -0.27087 -0.56252 254 254 254
1.22987 -0.27960 -0.55484 254 254 254
1.23376 -0.28832 -0.54716 254 254 254
1.23764 -0.29704 -0.53949 254 254 254
1.24152 -0.30575 -0.53181 254 254 254
1.24540 -0.31446 -0.52414 254 254 254
1.24928 -0.32317 -0.51648 254 254 254
1.25316 -0.33187 -0.50881 254 254 254
1.25703 -0.34057 -0.50115 254 254 254
1.26090 -0.34927 -0.49350 254 254 254
1.26478 -0.35796 -0.48584 254 254 254
1.26865 -0.36665 -0.47819 254 254 254
1.27251 -0.37534 -0.47055 254 254 254
1.27638 -0.38402 -0.46290 254 254 254
1.28025 -0.39270 -0.45526 254 254 254
1.28411 -0.40137 -0.44762 254 254 254
1.28797 -0.41005 -0.43999 254 254 254
1.29183 -0.41871 -0.43236 254 254 254
1.29569 -0.42738 -0.42473 254 254 254
1.29955 -0.43604 -0.41710 254 254 254
1.30340 -0.44470 -0.40948 254 254 254
1.30726 -0.45335 -0.40186 254 254 254
1.31111 -0.46200 -0.39425 254 254 254
1.31496 -0.47065 -0.38663 254 254 254
1.31881 -0.47929 -0.37902 254 254 254
1.32266 -0.48793 -0.37142 254 254 254
1.32651 -0.49656 -0.36381 254 254 254
1.33035 -0.50520 -0.35621 254 254 254
1.33419 -0.51382 -0.34862 254 254 254
1.33803 -0.52245 -0.34102 254 254 254
1.19649 -0.25861 -0.57797 254 254 253
1.20036 -0.26730 -0.57032 254 254 254
1.20424 -0.27599 -0.56267 254 254 254
1.20811 -0.28467 -0.55502 254 254 254
1.21198 -0.29335 -0.54738 254 254 254
1.21585 -0.30202 -0.53974 254 254 254
1.21972 -0.31070 -0.53211 254 254 254
1.22358 -0.31936 -0.52447 254 254 254
1.22745 -0.32803 -0.51684 254 254 254
1.23131 -0.33669 -0.50922 254 254 254
1.23517 -0.34535 -0.50159 254 254 254
1.23903 -0.35400 -0.49397 254 254 254
1.24289 -0.36265 -0.48636 254 254 254
1.24674 -0.37130 -0.47874 254 254 254
1.25060 -0.37994 -0.47113 254 254 254
1.25445 -0.38858 -0.46352 254 254 254
1.25830 -0.39722 -0.45592 254 254 254
1.26215 -0.40585 -0.44832 254 254 254
1.26600 -0.41448 -0.44072 254 254 254
1.26985 -0.42311 -0.43312 254 254 254
1.27369 -0.43173 -0.42553 254 254 254
1.27753 -0.44035 -0.41794 254 254 254
1.28138 -0.44896 -0.41036 254 254 254
1.28522 -0.45757 -0.40277 254 254 254
1.28906 -0.46618 -0.39519 254 254 254
1.29289 -0.47479 -0.38762 254 254 254
1.29673 -0.48339 -0.38004 254 254 254
1.30056 -0.49198 -0.37247 254 254 254
1.30439 -0.50058 -0.36491 254 254 254
1.30822 -0.50917 -0.35734 254 254 254
1.31205 -0.51775 -0.34978 254 254 254
1.31588 -0.52634 -0.34222 254 254 254
1.31971 -0.53492 -0.33467 254 254 254
1.32353 -0.54349 -0.32712 254 254 254
1.16725 -0.24646 -0.59328 254 254 254
1.17111 -0.25511 -0.58566 254 254 254
1.17498 -0.26376 -0.57804 254 254 254
1.17884 -0.27241 -0.57043 254 254 254
1.18270 -0.28105 -0.56281 254 254 254
1.18656 -0.28969 -0.55520 254 254 254
1.19041 -0.29833 -0.54760 254 254 254
1.19427 -0.30696 -0.54000 254 254 254
1.19812 -0.31559 -0.53240 254 254 254
1.20197 -0.32422 -0.52480 254 254 254
1.20582 -0.33284 -0.51721 254 254 254
1.20967 -0.34146 -0.50962 254 254 254
1.21352 -0.35008 -0.50203 254 254 254
1.21736 -0.35869 -0.49444 254 254 254
1.22121 -0.36730 -0.48686 254 254 254
1.22505 -0.37590 -0.47929 254 254 254
1.22889 -0.38450 -0.47171 254 254 254
1.23273 -0.39310 -0.46414 254 254 254
1.23657 -0.40170 -0.45657 254 254 254
1.24040 -0.41029 -0.44901 254 254 254
1.24424 -0.41887 -0.44144 254 254 254
1.24807 -0.42746 -0.43388 254 254 254
1.25190 -0.43604 -0.42633 254 254 254
1.25573 -0.44461 -0.41878 254 254 254
1.25956 -0.45319 -0.41123 254 254 254
1.26338 -0.46176 -0.40368 254 254 254
1.26721 -0.47032 -0.39613 254 254 254
1.27103 -0.47889 -0.38859 254 254 254
1.27485 -0.48745 -0.38106 254 254 254
1.27867 -0.49600 -0.37352 254 254 254
1.28249 -0.50455 -0.36599 254 254 254
1.28631 -0.51310 -0.35846 254 254 254
1.29013 -0.52165 -0.35094 254 254 254
1.29394 -0.53019 -0.34341 254 254 254
1.29775 -0.53873 -0.33589 254 254 254
1.30156 -0.54726 -0.32838 254 254 254
1.30537 -0.55579 -0.32087 254 254 254
1.13826 -0.23441 -0.60846 254 254 254
1.14212 -0.24303 -0.60087 254 254 254
1.14597 -0.25165 -0.59328 254 254 254
1.14982 -0.26026 -0.58570 254 254 254
1.15367 -0.26887 -0.57811 254 254 254
1.15752 -0.27747 -0.57053 254 254 254
1.16136 -0.28607 -0.56296 254 254 254
1.16521 -0.29467 -0.55538 254 254 254
1.16905 -0.30327 -0.54781 254 254 254
1.17289 -0.31186 -0.54025 254 254 254
1.17673 -0.32045 -0.53268 254 254 254
1.18057 -0.32903 -0.52512 254 254 254
1.18440 -0.33761 -0.51757 254 254 254
1.18824 -0.34619 -0.51001 254 254 254
1.19207 -0.35476 -0.50246 254 254 254
1.19590 -0.36333 -0.49491 254 254 254
1.19973 -0.37190 -0.48737 254 254 254
1.20356 -0.38046 -0.47983 254 254 254
1.20739 -0.38902 -0.47229 254 254 254
1.21121 -0.39758 -0.46475 254 254 254
1.21504 -0.40613 -0.45722 254 254 254
1.21886 -0.41468 -0.44969 254 254 254
1.22268 -0.42323 -0.44216 254 254 254
1.22650 -0.43177 -0.43464 254 254 254
1.23031 -0.44031 -0.42712 254 254 254
1.23413 -0.44884 -0.41960 254 254 254
1.23794 -0.45737 -0.41208 254 254 254
1.24176 -0.46590 -0.40457 254 254 254
1.24557 -0.47443 -0.39706 254 254 254
1.24938 -0.48295 -0.38956 254 254 254
1.25319 -0.49147 -0.38206 254 254 254
1.25699 -0.49998 -0.37456 254 254 254
1.26080 -0.50849 -0.36706 254 254 254
1.26460 -0.51700 -0.35957 254 254 254
1.26840 -0.52550 -0.35208 254 254 254
1.27220 -0.53400 -0.34459 254 254 254
1.27600 -0.54250 -0.33711 254 254 254
1.27980 -0.55099 -0.32963 254 254 254
1.28360 -0.55949 -0.32215 254 254 254
1.28739 -0.56797 -0.31467 254 254 254
1.29118 -0.57646 -0.30720 254 254 254
1.11721 -0.23963 -0.60839 254 254 254
1.12105 -0.24821 -0.60083 254 254 254
1.12489 -0.25679 -0.59328 254 254 254
1.14789 -0.30816 -0.54803 254 254 254
1.15171 -0.31671 -0.54050 254 254 254
1.15554 -0.32525 -0.53297 254 254 254
1.15936 -0.33379 -0.52544 254 254 254
1.16318 -0.34233 -0.51792 254 254 254
1.16701 -0.35087 -0.51040 254 254 254
1.17082 -0.35940 -0.50289 254 254 254
1.17464 -0.36793 -0.49538 254 254 254
1.17846 -0.37646 -0.48787 254 254 254
1.18227 -0.38498 -0.48036 254 254 254
1.18609 -0.39350 -0.47286 254 254 254
1.18990 -0.40201 -0.46536 254 254 254
1.19371 -0.41052 -0.45786 254 254 254
1.19752 -0.41903 -0.45036 254 254 254
1.20132 -0.42754 -0.44287 254 254 254
1.20513 -0.43604 -0.43538 254 254 254
1.20893 -0.44453 -0.42790 254 254 254
1.21273 -0.45303 -0.42042 254 254 254
1.21654 -0.46152 -0.41294 254 254 254
1.22033 -0.47001 -0.40546 254 254 254
1.22413 -0.47849 -0.39799 254 254 254
1.22793 -0.48697 -0.39052 254 254 254
1.23172 -0.49545 -0.38305 254 254 254
1.23552 -0.50392 -0.37559 254 254 254
1.23931 -0.51239 -0.36812 254 254 254
1.24310 -0.52086 -0.36067 254 254 254
1.24689 -0.52932 -0.35321 254 254 254
1.25067 -0.53778 -0.34576 254 254 254
1.25446 -0.54624 -0.33831 254 254 254
1.25824 -0.55469 -0.33086 254 254 254
1.26202 -0.56314 -0.32342 254 254 254
1.26581 -0.57159 -0.31598 254 254 254
1.26958 -0.58003 -0.30854 254 254 254
1.27336 -0.58847 -0.30111 254 254 254
1.27714 -0.59691 -0.29368 254 254 254
1.15358 -0.37249 -0.49583 254 254 254
1.15739 -0.38097 -0.48836 254 254 254
1.16119 -0.38945 -0.48089 254 254 254
1.16499 -0.39793 -0.47342 254 254 254
1.16878 -0.40640 -0.46595 254 254 254
1.17258 -0.41488 -0.45849 254 254 254
1.17637 -0.42334 -0.45103 254 254 254
1.18017 -0.43181 -0.44358 254 254 254
1.18396 -0.44027 -0.43612 254 254 254
1.18775 -0.44872 -0.42867 254 254 254
1.19154 -0.45718 -0.42122 254 254 254
1.19533 -0.46563 -0.41378 254 254 254
1.19911 -0.47407 -0.40634 254 254 254
1.20290 -0.48252 -0.39890 254 254 254
1.20668 -0.49096 -0.39146 254 254 254
1.21046 -0.49939 -0.38403 254 254 254
1.21424 -0.50783 -0.37660 254 254 254
1.21802 -0.51626 -0.36918 254 254 254
1.22179 -0.52468 -0.36175 254 254 254
1.22557 -0.53311 -0.35433 254 254 254
1.22934 -0.54153 -0.34691 254 254 254
1.23311 -0.54994 -0.33950 254 254 254
1.23689 -0.55836 -0.33209 254 254 254
1.24065 -0.56677 -0.32468 254 254 254
1.24442 -0.57517 -0.31727 254 254 254
1.24819 -0.58357 -0.30987 254 254 254
1.25195 -0.59197 -0.30247 254 254 254
1.25571 -0.60037 -0.29508 254 254 254
1.25948 -0.60876 -0.28768 254 254 254
1.26324 -0.61715 -0.28029 254 254 254
1.14030 -0.39389 -0.48141 254 254 254
1.14408 -0.40232 -0.47398 254 254 254
1.14787 -0.41076 -0.46655 254 254 254
1.15165 -0.41919 -0.45912 254 254 254
1.15543 -0.42761 -0.45169 254 254 254
1.15921 -0.43604 -0.44427 254 254 254
1.16299 -0.44446 -0.43685 254 254 254
1.16677 -0.45287 -0.42944 254 254 254
1.17054 -0.46129 -0.42203 254 254 254
1.17431 -0.46970 -0.41462 254 254 254
1.17809 -0.47810 -0.40721 254 254 254
1.18186 -0.48651 -0.39980 254 254 254
1.18563 -0.49491 -0.39240 254 254 254
1.18939 -0.50330 -0.38501 254 254 254
1.19316 -0.51170 -0.37761 254 254 254
1.19693 -0.52009 -0.37022 254 254 254
1.20069 -0.52847 -0.36283 254 254 254
1.20445 -0.53686 -0.35544 254 254 254
1.20821 -0.54524 -0.34806 254 254 254
1.21197 -0.55361 -0.34068 254 254 254
1.21573 -0.56199 -0.33330 254 254 254
1.21948 -0.57036 -0.32593 254 254 254
1.22324 -0.57872 -0.31856 254 254 254
1.22699 -0.58708 -0.31119 254 254 254
1.23074 -0.59544 -0.30382 254 254 254
1.23449 -0.60380 -0.29646 254 254 254
1.23824 -0.61215 -0.28910 254 254 254
1.24199 -0.62050 -0.28174 254 254 254
1.24573 -0.62885 -0.27439 254 254 254
1.24947 -0.63719 -0.26704 254 254 254
1.12337 -0.40667 -0.47453 254 254 254
1.12714 -0.41507 -0.46714 254 254 254
1.13091 -0.42346 -0.45974 254 254 254
1.13468 -0.43184 -0.45235 254 254 254
1.13845 -0.44023 -0.44496 254 254 254
1.14221 -0.44861 -0.43758 254 254 254
1.14598 -0.45699 -0.43020 254 254 254
1.14974 -0.46536 -0.42282 254 254 254
1.15350 -0.47373 -0.41544 254 254 254
1.15726 -0.48210 -0.40807 254 254 254
1.16101 -0.49046 -0.40070 254 254 254
1.16477 -0.49882 -0.39333 254 254 254
1.16853 -0.50718 -0.38597 254 254 254
1.17228 -0.51553 -0.37861 254 254 254
1.17603 -0.52388 -0.37125 254 254 254
1.17978 -0.53223 -0.36390 254 254 254
1.18353 -0.54057 -0.35654 254 254 254
1.18728 -0.54891 -0.34919 254 254 254
1.19102 -0.55725 -0.34185 254 254 254
1.19476 -0.56558 -0.33451 254 254 254
1.19851 -0.57391 -0.32716 254 254 254
1.20225 -0.58224 -0.31983 254 254 254
1.20599 -0.59056 -0.31249 254 254 254
1.20973 -0.59888 -0.30516 254 254 254
1.21346 -0.60720 -0.29783 254 254 254
1.21720 -0.61551 -0.29051 254 254 254
1.22093 -0.62382 -0.28318 254 254 254
1.22466 -0.63213 -0.27586 254 254 254
1.22839 -0.64043 -0.26855 254 254 254
1.23212 -0.64873 -0.26123 254 254 254
1.23585 -0.65703 -0.25392 254 254 254
1.11037 -0.42769 -0.46036 254 254 254
1.11412 -0.43604 -0.45300 254 254 254
1.11788 -0.44438 -0.44565 254 254 254
1.12163 -0.45272 -0.43830 254 254 254
1.12538 -0.46106 -0.43095 254 254 254
1.12913 -0.46939 -0.42361 254 254 254
1.13287 -0.47772 -0.41626 254 254 254
1.13662 -0.48605 -0.40893 254 254 254
1.14036 -0.49437 -0.40159 254 254 254
1.14411 -0.50270 -0.39426 254 254 254
1.14785 -0.51101 -0.38693 254 254 254
1.15159 -0.51933 -0.37960 254 254 254
1.15533 -0.52764 -0.37227 254 254 254
1.15906 -0.53595 -0.36495 254 254 254
1.16280 -0.54425 -0.35763 254 254 254
1.16653 -0.55255 -0.35032 254 254 254
1.17026 -0.56085 -0.34301 254 254 254
1.17400 -0.56914 -0.33570 254 254 254
1.17772 -0.57743 -0.32839 254 254 254
1.18145 -0.58572 -0.32109 254 254 254
1.18518 -0.59401 -0.31378 254 254 254
1.18890 -0.60229 -0.30649 254 254 254
1.19263 -0.61057 -0.29919 254 254 254
1.19635 -0.61884 -0.29190 254 254 254
1.20007 -0.62711 -0.28461 254 254 254
1.20379 -0.63538 -0.27732 254 254 254
1.20751 -0.64365 -0.27004 254 254 254
1.21122 -0.65191 -0.26276 254 254 254
1.21494 -0.66017 -0.25548 254 254 254
1.21865 -0.66842 -0.24820 254 254 254
1.22236 -0.67667 -0.24093 254 254 254
1.22607 -0.68492 -0.23366 254 254 252
1.09750 -0.44849 -0.44633 254 254 254
1.10123 -0.45680 -0.43901 254 254 254
1.10497 -0.46509 -0.43170 254 254 254
1.10871 -0.47339 -0.42439 254 254 254
1.11244 -0.48168 -0.41708 254 254 254
1.11617 -0.48997 -0.40977 254 254 254
1.11990 -0.49825 -0.40247 254 254 254
1.12363 -0.50654 -0.39517 254 254 254
1.12736 -0.51482 -0.38787 254 254 254
1.13109 -0.52309 -0.38058 254 254 254
1.13481 -0.53136 -0.37329 254 254 254
1.13854 -0.53963 -0.36600 254 254 254
1.14226 -0.54790 -0.35872 254 254 254
1.14598 -0.55616 -0.35143 254 254 254
1.14970 -0.56442 -0.34415 254 254 254
1.15342 -0.57267 -0.33688 254 254 254
1.15713 -0.58093 -0.32960 254 254 254
1.16085 -0.58918 -0.32233 254 254 254
1.16456 -0.59742 -0.31506 254 254 254
1.16827 -0.60566 -0.30780 254 254 254
1.17198 -0.61390 -0.30054 254 254 254
1.17569 -0.62214 -0.29328 254 254 254
1.17940 -0.63037 -0.28602 254 254 254
1.18311 -0.63860 -0.27877 254 254 254
1.18681 -0.64683 -0.27152 254 254 254
1.19051 -0.65505 -0.26427 254 254 254
1.19422 -0.66327 -0.25702 254 254 254
1.19792 -0.67149 -0.24978 254 254 254
1.08103 -0.46083 -0.43972 254 254 254
1.08475 -0.46909 -0.43243 254 254 254
1.08847 -0.47735 -0.42516 254 254 254
1.09219 -0.48560 -0.41788 254 254 254
1.09591 -0.49385 -0.41061 254 254 254
1.09963 -0.50210 -0.40334 254 254 254
1.10335 -0.51034 -0.39607 254 254 254
1.10706 -0.51858 -0.38881 254 254 254
