ply
format ascii 1.0
element face 0
property list uchar int vertex_indices
element vertex 1256
property float x
property float y
property float z
property uchar diffuse_red
property uchar diffuse_green
property uchar diffuse_blue
end_header
0.93135 -0.91274 -0.09573 252 250 251
0.93446 -0.91970 -0.08950 251 250 251
0.93756 -0.92665 -0.08327 251 250 250
0.94065 -0.93360 -0.07704 251 250 250
0.94375 -0.94053 -0.07083 251 250 251
0.72637 -0.48943 -0.47736 254 254 254
0.72968 -0.49684 -0.47072 254 254 254
0.73299 -0.50423 -0.46409 254 254 254
0.73629 -0.51162 -0.45747 254 254 254
0.73959 -0.51901 -0.45085 254 254 254
0.74289 -0.52638 -0.44424 254 254 254
0.74618 -0.53374 -0.43764 254 254 254
0.74947 -0.54110 -0.43105 254 254 254
0.75275 -0.54845 -0.42446 254 254 254
0.75604 -0.55579 -0.41789 254 254 254
0.75931 -0.56312 -0.41131 254 254 254
0.76259 -0.57044 -0.40475 254 254 254
0.76586 -0.57776 -0.39820 254 254 254
0.76912 -0.58507 -0.39165 254 254 254
0.77239 -0.59237 -0.38511 254 254 254
0.77565 -0.59966 -0.37857 254 254 254
0.77890 -0.60694 -0.37204 254 254 254
0.78215 -0.61421 -0.36553 254 254 254
0.78540 -0.62148 -0.35901 254 254 254
0.78865 -0.62874 -0.35251 254 254 254
0.79189 -0.63599 -0.34601 254 254 254
0.79513 -0.64323 -0.33952 254 254 254
0.79836 -0.65046 -0.33304 254 254 254
0.80159 -0.65769 -0.32656 254 254 254
0.80482 -0.66491 -0.32010 254 254 254
0.80804 -0.67212 -0.31363 254 254 254
0.81126 -0.67932 -0.30718 254 254 254
0.81448 -0.68651 -0.30073 254 254 254
0.81769 -0.69370 -0.29429 254 254 254
0.82090 -0.70087 -0.28786 254 254 254
0.82410 -0.70804 -0.28144 254 254 254
0.82730 -0.71520 -0.27502 254 254 254
0.83050 -0.72236 -0.26861 254 254 254
0.83370 -0.72950 -0.26220 254 254 254
0.83689 -0.73664 -0.25581 254 254 254
0.84007 -0.74377 -0.24942 254 254 254
0.84326 -0.75089 -0.24304 254 254 254
0.84644 -0.75801 -0.23666 254 254 254
0.84962 -0.76511 -0.23029 254 254 254
0.85279 -0.77221 -0.22393 254 254 254
0.85596 -0.77930 -0.21758 254 254 254
0.85913 -0.78638 -0.21123 254 254 254
0.86229 -0.79346 -0.20489 254 254 254
0.86545 -0.80052 -0.19856 254 254 254
0.86860 -0.80758 -0.19223 254 254 254
0.87175 -0.81463 -0.18591 254 254 254
0.87490 -0.82168 -0.17960 253 253 253
0.87805 -0.82871 -0.17329 253 253 253
0.88119 -0.83574 -0.16700 253 253 253
0.88433 -0.84276 -0.16070 253 253 253
0.88746 -0.84977 -0.15442 252 253 253
0.89060 -0.85678 -0.14814 252 252 252
0.89372 -0.86377 -0.14187 252 252 252
0.89685 -0.87076 -0.13561 252 252 252
0.89997 -0.87774 -0.12935 252 252 252
0.90309 -0.88472 -0.12310 252 252 252
0.90620 -0.89168 -0.11686 252 251 251
0.90931 -0.89864 -0.11062 252 251 251
0.91242 -0.90559 -0.10439 252 250 251
0.91552 -0.91254 -0.09817 252 250 251
0.91862 -0.91947 -0.09196 251 250 251
0.92172 -0.92640 -0.08575 251 250 250
0.92482 -0.93332 -0.07955 251 250 250
0.71415 -0.49819 -0.47182 254 254 254
0.71745 -0.50556 -0.46521 254 254 254
0.72075 -0.51292 -0.45861 254 254 254
0.72405 -0.52028 -0.45202 254 254 254
0.72734 -0.52762 -0.44544 254 254 254
0.73063 -0.53496 -0.43886 254 254 254
0.73392 -0.54229 -0.43229 254 254 254
0.73720 -0.54961 -0.42573 254 254 254
0.74047 -0.55692 -0.41918 254 254 254
0.74375 -0.56422 -0.41263 254 254 254
0.74702 -0.57152 -0.40609 254 254 254
0.75029 -0.57881 -0.39956 254 254 254
0.75355 -0.58609 -0.39303 254 254 254
0.75681 -0.59336 -0.38652 254 254 254
0.76007 -0.60062 -0.38001 254 254 254
0.76332 -0.60787 -0.37350 254 254 254
0.76657 -0.61512 -0.36701 254 254 254
0.76981 -0.62236 -0.36052 254 254 254
0.77305 -0.62959 -0.35404 254 254 254
0.77629 -0.63681 -0.34756 254 254 254
0.77953 -0.64403 -0.34110 254 254 254
0.78276 -0.65123 -0.33464 254 254 254
0.78598 -0.65843 -0.32818 254 254 254
0.78921 -0.66562 -0.32174 254 254 254
0.79243 -0.67280 -0.31530 254 254 254
0.79564 -0.67998 -0.30887 254 254 254
0.79886 -0.68715 -0.30245 254 254 254
0.80206 -0.69430 -0.29603 254 254 254
0.80527 -0.70145 -0.28962 254 254 254
0.80847 -0.70860 -0.28322 254 254 254
0.81167 -0.71573 -0.27682 254 254 254
0.81487 -0.72286 -0.27044 254 254 254
0.81806 -0.72998 -0.26405 254 254 254
0.82124 -0.73709 -0.25768 254 254 254
0.82443 -0.74419 -0.25131 254 254 254
0.82761 -0.75129 -0.24495 254 254 254
0.83079 -0.75837 -0.23860 254 254 254
0.83396 -0.76545 -0.23225 254 254 254
0.83713 -0.77252 -0.22592 254 254 254
0.84030 -0.77959 -0.21958 254 254 254
0.84346 -0.78664 -0.21326 254 254 254
0.84662 -0.79369 -0.20694 254 254 254
0.84978 -0.80073 -0.20063 254 254 254
0.85293 -0.80777 -0.19433 254 254 254
0.85608 -0.81479 -0.18803 254 254 254
0.85922 -0.82181 -0.18174 254 254 254
0.86237 -0.82882 -0.17546 253 253 253
0.86551 -0.83582 -0.16918 253 253 253
0.86864 -0.84281 -0.16291 253 253 253
0.87177 -0.84980 -0.15665 253 253 253
0.87490 -0.85678 -0.15039 252 252 252
0.87803 -0.86375 -0.14414 252 252 252
0.88115 -0.87071 -0.13790 252 252 252
0.88427 -0.87767 -0.13167 252 252 252
0.88738 -0.88462 -0.12544 252 252 252
0.89049 -0.89156 -0.11922 252 252 252
0.89360 -0.89849 -0.11300 252 251 251
0.89671 -0.90542 -0.10679 252 251 251
0.89981 -0.91234 -0.10059 252 250 251
0.90291 -0.91925 -0.09440 252 250 251
0.90600 -0.92615 -0.08821 251 250 251
0.70203 -0.50688 -0.46633 254 254 254
0.70533 -0.51421 -0.45975 254 254 254
0.70862 -0.52154 -0.45319 254 254 254
0.71191 -0.52886 -0.44663 254 254 254
0.71520 -0.53616 -0.44007 254 254 254
0.71848 -0.54346 -0.43353 254 254 254
0.72176 -0.55076 -0.42699 254 254 254
0.72503 -0.55804 -0.42046 254 254 254
0.72830 -0.56532 -0.41394 254 254 254
0.73157 -0.57258 -0.40742 254 254 254
0.73483 -0.57984 -0.40091 254 254 254
0.73809 -0.58710 -0.39441 254 254 254
0.74135 -0.59434 -0.38792 254 254 254
0.74460 -0.60157 -0.38143 254 254 254
0.74785 -0.60880 -0.37495 254 254 254
0.75109 -0.61602 -0.36848 254 254 254
0.75434 -0.62323 -0.36201 254 254 254
0.75757 -0.63044 -0.35555 254 254 254
0.76081 -0.63763 -0.34910 254 254 254
0.76404 -0.64482 -0.34266 254 254 254
0.76727 -0.65200 -0.33622 254 254 254
0.77049 -0.65917 -0.32979 254 254 254
0.77371 -0.66633 -0.32337 254 254 254
0.77693 -0.67349 -0.31696 254 254 254
0.78014 -0.68064 -0.31055 254 254 254
0.78335 -0.68778 -0.30415 254 254 254
0.78656 -0.69491 -0.29775 254 254 254
0.78976 -0.70203 -0.29137 254 254 254
0.79296 -0.70915 -0.28499 254 254 254
0.79615 -0.71625 -0.27861 254 254 254
0.79934 -0.72335 -0.27225 254 254 254
0.80253 -0.73045 -0.26589 254 254 254
0.80572 -0.73753 -0.25954 254 254 254
0.80890 -0.74461 -0.25319 254 254 254
0.81208 -0.75168 -0.24686 254 254 254
0.81525 -0.75874 -0.24053 254 254 254
0.81842 -0.76579 -0.23420 254 254 254
0.82159 -0.77284 -0.22789 254 254 254
0.82475 -0.77988 -0.22158 254 254 254
0.82791 -0.78691 -0.21527 254 254 254
0.83107 -0.79393 -0.20898 254 254 254
0.83422 -0.80094 -0.20269 254 254 254
0.83737 -0.80795 -0.19641 254 254 254
0.84052 -0.81495 -0.19013 254 254 254
0.84366 -0.82194 -0.18386 254 254 254
0.84680 -0.82892 -0.17760 253 254 254
0.84994 -0.83590 -0.17135 253 253 253
0.85307 -0.84287 -0.16510 253 253 253
0.85620 -0.84983 -0.15886 253 253 253
0.85932 -0.85678 -0.15262 253 253 253
0.86245 -0.86373 -0.14640 252 252 252
0.86556 -0.87067 -0.14018 252 252 252
0.86868 -0.87760 -0.13396 252 252 252
0.87179 -0.88452 -0.12776 252 252 252
0.87490 -0.89144 -0.12155 252 252 252
0.87801 -0.89835 -0.11536 252 251 252
0.88111 -0.90525 -0.10918 252 251 251
0.88421 -0.91214 -0.10300 252 251 251
0.88730 -0.91902 -0.09682 252 250 251
0.69002 -0.51549 -0.46088 254 254 254
0.69331 -0.52279 -0.45434 254 254 254
0.69660 -0.53008 -0.44780 254 254 254
0.69988 -0.53736 -0.44128 254 254 254
0.70316 -0.54463 -0.43475 254 254 254
0.70643 -0.55190 -0.42824 254 254 254
0.70970 -0.55915 -0.42173 254 254 254
0.71297 -0.56640 -0.41523 254 254 254
0.71623 -0.57364 -0.40874 254 254 254
0.71949 -0.58087 -0.40226 254 254 254
0.72275 -0.58810 -0.39578 254 254 254
0.72600 -0.59532 -0.38931 254 254 254
0.72925 -0.60252 -0.38284 254 254 254
0.73250 -0.60972 -0.37639 254 254 254
0.73574 -0.61692 -0.36994 254 254 254
0.73898 -0.62410 -0.36349 254 254 254
0.74221 -0.63128 -0.35706 254 254 254
0.74544 -0.63844 -0.35063 254 254 254
0.74867 -0.64560 -0.34421 254 254 254
0.75189 -0.65276 -0.33780 254 254 254
0.75511 -0.65990 -0.33139 254 254 254
0.75833 -0.66704 -0.32499 254 254 254
0.76154 -0.67417 -0.31860 254 254 254
0.76475 -0.68129 -0.31221 254 254 254
0.76796 -0.68840 -0.30584 254 254 254
0.77116 -0.69551 -0.29946 254 254 254
0.77436 -0.70260 -0.29310 254 254 254
0.77756 -0.70969 -0.28674 254 254 254
0.78075 -0.71677 -0.28039 254 254 254
0.78394 -0.72385 -0.27405 254 254 254
0.78712 -0.73091 -0.26771 254 254 254
0.79030 -0.73797 -0.26138 254 254 254
0.79348 -0.74502 -0.25506 254 254 254
0.79665 -0.75207 -0.24875 254 254 254
0.79983 -0.75910 -0.24244 254 254 254
0.80299 -0.76613 -0.23614 254 254 254
0.80616 -0.77315 -0.22984 254 254 254
0.80932 -0.78016 -0.22355 254 254 254
0.81247 -0.78716 -0.21727 254 254 254
0.81563 -0.79416 -0.21100 254 254 254
0.81878 -0.80115 -0.20473 254 254 254
0.82193 -0.80813 -0.19847 254 254 254
0.82507 -0.81510 -0.19222 254 254 254
0.82821 -0.82207 -0.18597 254 254 254
0.83135 -0.82903 -0.17973 254 254 254
0.83448 -0.83598 -0.17350 253 253 253
0.83761 -0.84292 -0.16727 253 253 253
0.84073 -0.84986 -0.16105 253 253 253
0.84386 -0.85679 -0.15484 253 253 253
0.84698 -0.86371 -0.14863 253 253 253
0.85009 -0.87062 -0.14243 252 252 252
0.85320 -0.87753 -0.13624 252 252 252
0.85631 -0.88442 -0.13006 252 252 252
0.85942 -0.89132 -0.12388 252 252 252
0.86252 -0.89820 -0.11771 252 252 252
0.86562 -0.90507 -0.11154 252 251 252
0.86872 -0.91194 -0.10538 252 251 251
0.87181 -0.91880 -0.09923 252 251 251
0.67811 -0.52403 -0.45549 254 254 254
0.68140 -0.53129 -0.44897 254 254 254
0.68467 -0.53855 -0.44247 254 254 254
0.68795 -0.54579 -0.43597 254 254 254
0.69122 -0.55303 -0.42948 254 254 254
0.69449 -0.56026 -0.42300 254 254 254
0.69775 -0.56748 -0.41652 254 254 254
0.70101 -0.57469 -0.41005 254 254 254
0.70427 -0.58190 -0.40359 254 254 254
0.70752 -0.58909 -0.39713 254 254 254
0.71077 -0.59628 -0.39069 254 254 254
0.71401 -0.60346 -0.38425 254 254 254
0.71725 -0.61064 -0.37781 254 254 254
0.72049 -0.61780 -0.37139 254 254 254
0.72373 -0.62496 -0.36497 254 254 254
0.72696 -0.63211 -0.35855 254 254 254
0.73019 -0.63925 -0.35215 254 254 254
0.73341 -0.64638 -0.34575 254 254 254
0.73663 -0.65351 -0.33936 254 254 254
0.73985 -0.66063 -0.33298 254 254 254
0.74306 -0.66774 -0.32660 254 254 254
0.74627 -0.67484 -0.32023 254 254 254
0.74948 -0.68193 -0.31387 254 254 254
0.75268 -0.68902 -0.30751 254 254 254
0.75588 -0.69610 -0.30116 254 254 254
0.75907 -0.70317 -0.29482 254 254 254
0.76227 -0.71023 -0.28849 254 254 254
0.76546 -0.71729 -0.28216 254 254 254
0.76864 -0.72434 -0.27584 254 254 254
0.77182 -0.73138 -0.26952 254 254 254
0.77500 -0.73841 -0.26321 254 254 254
0.77817 -0.74543 -0.25691 254 254 254
0.78135 -0.75245 -0.25062 254 254 254
0.78451 -0.75946 -0.24433 254 254 254
0.78768 -0.76646 -0.23805 254 254 254
0.79084 -0.77346 -0.23178 254 254 254
0.79400 -0.78044 -0.22552 254 254 254
0.79715 -0.78742 -0.21926 254 254 254
0.80030 -0.79439 -0.21300 254 254 254
0.80345 -0.80136 -0.20676 254 254 254
0.80659 -0.80831 -0.20052 254 254 254
0.80973 -0.81526 -0.19429 254 254 254
0.81287 -0.82220 -0.18806 254 254 254
0.81600 -0.82913 -0.18185 254 254 254
0.81913 -0.83606 -0.17563 254 254 254
0.82226 -0.84298 -0.16943 253 253 253
0.82538 -0.84989 -0.16323 253 253 253
0.82850 -0.85679 -0.15704 253 253 253
0.83162 -0.86369 -0.15085 253 253 253
0.83473 -0.87058 -0.14468 253 253 253
0.83784 -0.87746 -0.13851 252 252 252
0.84095 -0.88433 -0.13234 252 252 252
0.84405 -0.89119 -0.12618 252 252 252
0.84715 -0.89805 -0.12003 252 252 252
0.85025 -0.90490 -0.11389 252 252 252
0.85334 -0.91175 -0.10775 252 251 252
0.66631 -0.53250 -0.45014 254 254 254
0.66958 -0.53973 -0.44365 254 254 254
0.67285 -0.54694 -0.43718 254 254 254
0.67612 -0.55415 -0.43071 254 254 254
0.67938 -0.56136 -0.42425 254 254 254
0.68264 -0.56855 -0.41780 254 254 254
0.68590 -0.57574 -0.41135 254 254 254
0.68915 -0.58291 -0.40491 254 254 254
0.69240 -0.59008 -0.39848 254 254 254
0.69564 -0.59725 -0.39206 254 254 254
0.69889 -0.60440 -0.38564 254 254 254
0.70212 -0.61155 -0.37923 254 254 254
0.70536 -0.61868 -0.37282 254 254 254
0.70859 -0.62581 -0.36643 254 254 254
0.71182 -0.63294 -0.36004 254 254 254
0.71504 -0.64005 -0.35366 254 254 254
0.71826 -0.64716 -0.34728 254 254 254
0.72148 -0.65426 -0.34091 254 254 254
0.72469 -0.66135 -0.33455 254 254 254
0.72790 -0.66843 -0.32820 254 254 254
0.73111 -0.67551 -0.32185 254 254 254
0.73431 -0.68258 -0.31551 254 254 254
0.73751 -0.68964 -0.30917 254 254 254
0.74071 -0.69669 -0.30285 254 254 254
0.74390 -0.70373 -0.29653 254 254 254
0.74709 -0.71077 -0.29022 254 254 254
0.75027 -0.71780 -0.28391 254 254 254
0.75346 -0.72482 -0.27761 254 254 254
0.75663 -0.73184 -0.27132 254 254 254
0.75981 -0.73884 -0.26503 254 254 254
0.76298 -0.74584 -0.25875 254 254 254
0.76615 -0.75283 -0.25248 254 254 254
0.76931 -0.75982 -0.24622 254 254 254
0.77248 -0.76679 -0.23996 254 254 254
0.77563 -0.77376 -0.23371 254 254 254
0.77879 -0.78072 -0.22746 254 254 254
0.78194 -0.78768 -0.22123 254 254 254
0.78509 -0.79462 -0.21500 254 254 254
0.78823 -0.80156 -0.20877 254 254 254
0.79137 -0.80849 -0.20256 254 254 254
0.79451 -0.81541 -0.19635 254 254 254
0.79764 -0.82233 -0.19014 254 254 254
0.80077 -0.82924 -0.18394 254 254 254
0.80390 -0.83614 -0.17775 254 254 254
0.80702 -0.84303 -0.17157 254 254 254
0.81014 -0.84992 -0.16539 253 253 253
0.81326 -0.85679 -0.15922 253 253 253
0.81637 -0.86367 -0.15306 253 253 253
0.81948 -0.87053 -0.14690 253 253 253
0.82259 -0.87739 -0.14075 253 253 253
0.82569 -0.88423 -0.13461 252 252 252
0.82879 -0.89107 -0.12847 252 252 252
0.83189 -0.89791 -0.12234 252 252 252
0.83498 -0.90474 -0.11622 252 252 252
0.65460 -0.54090 -0.44483 254 254 254
0.65787 -0.54809 -0.43838 254 254 254
0.66113 -0.55527 -0.43193 254 254 254
0.66439 -0.56244 -0.42550 254 254 254
0.66764 -0.56961 -0.41907 254 254 254
0.67090 -0.57677 -0.41264 254 254 254
0.67415 -0.58392 -0.40623 254 254 254
0.67739 -0.59106 -0.39982 254 254 254
0.68063 -0.59820 -0.39342 254 254 254
0.68387 -0.60533 -0.38702 254 254 254
0.68711 -0.61245 -0.38063 254 254 254
0.69034 -0.61956 -0.37425 254 254 254
0.69357 -0.62666 -0.36788 254 254 254
0.69679 -0.63376 -0.36151 254 254 254
0.70001 -0.64085 -0.35515 254 254 254
0.70323 -0.64793 -0.34880 254 254 254
0.70644 -0.65500 -0.34245 254 254 254
0.70965 -0.66207 -0.33611 254 254 254
0.71286 -0.66912 -0.32978 254 254 254
0.71606 -0.67617 -0.32346 254 254 254
0.71926 -0.68321 -0.31714 254 254 254
0.72245 -0.69025 -0.31083 254 254 254
0.72565 -0.69728 -0.30452 254 254 254
0.72884 -0.70429 -0.29822 254 254 254
0.73202 -0.71131 -0.29193 254 254 254
0.73520 -0.71831 -0.28565 254 254 254
0.73838 -0.72531 -0.27937 254 254 254
0.74156 -0.73229 -0.27310 254 254 254
0.74473 -0.73927 -0.26684 254 254 254
0.74790 -0.74625 -0.26058 254 254 254
0.75106 -0.75321 -0.25433 254 254 254
0.75422 -0.76017 -0.24809 254 254 254
0.75738 -0.76712 -0.24185 254 254 254
0.76054 -0.77407 -0.23562 254 254 254
0.76369 -0.78100 -0.22940 254 254 254
0.76683 -0.78793 -0.22318 254 254 254
0.76998 -0.79485 -0.21697 254 254 254
0.77312 -0.80176 -0.21077 254 254 254
0.77626 -0.80867 -0.20458 254 254 254
0.77939 -0.81557 -0.19839 254 254 254
0.78252 -0.82246 -0.19220 254 254 254
0.78565 -0.82934 -0.18603 254 254 254
0.78877 -0.83622 -0.17986 254 254 254
0.79189 -0.84308 -0.17370 254 254 254
0.79501 -0.84994 -0.16754 254 254 254
0.79812 -0.85680 -0.16139 253 253 253
0.80124 -0.86364 -0.15525 253 253 253
0.80434 -0.87048 -0.14911 253 253 253
0.80745 -0.87731 -0.14298 253 253 253
0.81055 -0.88414 -0.13686 253 253 253
0.81364 -0.89096 -0.13074 252 252 252
0.81674 -0.89777 -0.12463 252 252 252
0.64299 -0.54922 -0.43957 254 254 254
0.64625 -0.55638 -0.43315 254 254 254
0.64951 -0.56353 -0.42673 254 254 254
0.65276 -0.57067 -0.42032 254 254 254
0.65601 -0.57780 -0.41392 254 254 254
0.65925 -0.58492 -0.40753 254 254 254
0.66249 -0.59204 -0.40114 254 254 254
0.66573 -0.59915 -0.39477 254 254 254
0.66897 -0.60625 -0.38839 254 254 254
0.67220 -0.61334 -0.38203 254 254 254
0.67542 -0.62043 -0.37567 254 254 254
0.67865 -0.62750 -0.36932 254 254 254
0.68187 -0.63457 -0.36297 254 254 254
0.68509 -0.64164 -0.35664 254 254 254
0.68830 -0.64869 -0.35030 254 254 254
0.69151 -0.65574 -0.34398 254 254 254
0.69472 -0.66278 -0.33766 254 254 254
0.69792 -0.66981 -0.33135 254 254 254
0.70112 -0.67683 -0.32505 254 254 254
0.70431 -0.68385 -0.31875 254 254 254
0.70751 -0.69086 -0.31247 254 254 254
0.71070 -0.69786 -0.30618 254 254 254
0.71388 -0.70485 -0.29991 254 254 254
0.71706 -0.71184 -0.29364 254 254 254
0.72024 -0.71881 -0.28738 254 254 254
0.72342 -0.72578 -0.28112 254 254 254
0.72659 -0.73275 -0.27487 254 254 254
0.72976 -0.73970 -0.26863 254 254 254
0.73292 -0.74665 -0.26239 254 254 254
0.73608 -0.75359 -0.25617 254 254 254
0.73924 -0.76052 -0.24995 254 254 254
0.74240 -0.76745 -0.24373 254 254 254
0.74555 -0.77437 -0.23752 254 254 254
0.74870 -0.78128 -0.23132 254 254 254
0.75184 -0.78818 -0.22513 254 254 254
0.75498 -0.79508 -0.21894 254 254 254
0.75812 -0.80196 -0.21276 254 254 254
0.76125 -0.80884 -0.20658 254 254 254
0.76438 -0.81572 -0.20041 254 254 254
0.76751 -0.82258 -0.19425 254 254 254
0.77064 -0.82944 -0.18810 254 254 254
0.77376 -0.83629 -0.18195 254 254 254
0.77687 -0.84314 -0.17581 254 254 254
0.77999 -0.84997 -0.16967 254 254 254
0.78310 -0.85680 -0.16354 254 254 254
0.78621 -0.86362 -0.15742 253 253 253
0.78931 -0.87044 -0.15131 253 253 253
0.79241 -0.87725 -0.14520 253 253 253
0.79551 -0.88405 -0.13910 253 253 253
0.79860 -0.89084 -0.13300 253 253 253
0.63148 -0.55748 -0.43435 254 254 254
0.63473 -0.56460 -0.42796 254 254 254
0.63798 -0.57171 -0.42157 254 254 254
0.64122 -0.57882 -0.41520 254 254 254
0.64447 -0.58592 -0.40883 254 254 254
0.64770 -0.59301 -0.40246 254 254 254
0.65094 -0.60009 -0.39611 254 254 254
0.65417 -0.60716 -0.38976 254 254 254
0.65740 -0.61423 -0.38341 254 254 254
0.66062 -0.62129 -0.37708 254 254 254
0.66384 -0.62834 -0.37075 254 254 254
0.66706 -0.63538 -0.36442 254 254 254
0.67027 -0.64242 -0.35811 254 254 254
0.67348 -0.64945 -0.35180 254 254 254
0.67669 -0.65647 -0.34550 254 254 254
0.67989 -0.66348 -0.33920 254 254 254
0.68309 -0.67049 -0.33292 254 254 254
0.68629 -0.67749 -0.32663 254 254 254
0.68948 -0.68448 -0.32036 254 254 254
0.69267 -0.69146 -0.31409 254 254 254
0.69585 -0.69843 -0.30783 254 254 254
0.69903 -0.70540 -0.30158 254 254 254
0.70221 -0.71236 -0.29533 254 254 254
0.70539 -0.71931 -0.28909 254 254 254
0.70856 -0.72626 -0.28286 254 254 254
0.71173 -0.73320 -0.27663 254 254 254
0.71489 -0.74013 -0.27041 254 254 254
0.71806 -0.74705 -0.26420 254 254 254
0.72121 -0.75397 -0.25799 254 254 254
0.72437 -0.76087 -0.25179 254 254 254
0.72752 -0.76777 -0.24559 254 254 254
0.73067 -0.77467 -0.23941 254 254 254
0.73381 -0.78155 -0.23323 254 254 254
0.73695 -0.78843 -0.22705 254 254 254
0.74009 -0.79530 -0.22089 254 254 254
0.74323 -0.80216 -0.21473 254 254 254
0.74636 -0.80902 -0.20857 254 254 254
0.74948 -0.81587 -0.20243 254 254 254
0.75261 -0.82271 -0.19629 254 254 254
0.75573 -0.82954 -0.19015 254 254 254
0.75885 -0.83637 -0.18402 254 254 254
0.76196 -0.84319 -0.17790 254 254 254
0.76507 -0.85000 -0.17179 254 254 254
0.76818 -0.85681 -0.16568 254 254 254
0.77128 -0.86360 -0.15958 254 254 254
0.77439 -0.87039 -0.15349 253 253 253
0.77748 -0.87718 -0.14740 253 253 253
0.78058 -0.88395 -0.14132 253 253 253
0.62006 -0.56566 -0.42918 254 254 254
0.62331 -0.57275 -0.42281 254 254 254
0.62655 -0.57983 -0.41646 254 254 254
0.62979 -0.58690 -0.41011 254 254 254
0.63302 -0.59397 -0.40377 254 254 254
0.63625 -0.60102 -0.39744 254 254 254
0.63948 -0.60807 -0.39111 254 254 254
0.64270 -0.61511 -0.38479 254 254 254
0.64592 -0.62214 -0.37847 254 254 254
0.64914 -0.62917 -0.37217 254 254 254
0.65235 -0.63619 -0.36587 254 254 254
0.65556 -0.64320 -0.35957 254 254 254
0.65877 -0.65020 -0.35329 254 254 254
0.66197 -0.65719 -0.34701 254 254 254
0.66517 -0.66418 -0.34073 254 254 254
0.66837 -0.67116 -0.33447 254 254 254
0.67156 -0.67813 -0.32821 254 254 254
0.67475 -0.68510 -0.32195 254 254 254
0.67793 -0.69206 -0.31571 254 254 254
0.68112 -0.69901 -0.30947 254 254 254
0.68429 -0.70595 -0.30324 254 254 254
0.68747 -0.71288 -0.29701 254 254 254
0.69064 -0.71981 -0.29079 254 254 254
0.69381 -0.72673 -0.28458 254 254 254
0.69697 -0.73364 -0.27837 254 254 254
0.70014 -0.74055 -0.27218 254 254 254
0.70329 -0.74745 -0.26598 254 254 254
0.70645 -0.75434 -0.25980 254 254 254
0.70960 -0.76122 -0.25362 254 254 254
0.71275 -0.76810 -0.24745 254 254 254
0.71589 -0.77496 -0.24128 254 254 254
0.71903 -0.78182 -0.23512 254 254 254
0.72217 -0.78868 -0.22897 254 254 254
0.72531 -0.79552 -0.22282 254 254 254
0.72844 -0.80236 -0.21668 254 254 254
0.73157 -0.80919 -0.21055 254 254 254
0.73469 -0.81602 -0.20442 254 254 254
0.73781 -0.82283 -0.19830 254 254 254
0.74093 -0.82964 -0.19219 254 254 254
0.74404 -0.83645 -0.18608 254 254 254
0.74715 -0.84324 -0.17998 254 254 254
0.75026 -0.85003 -0.17389 254 254 254
0.75337 -0.85681 -0.16780 254 254 254
0.75647 -0.86358 -0.16172 254 254 254
0.75957 -0.87035 -0.15565 254 254 254
0.76266 -0.87711 -0.14958 253 253 253
0.60874 -0.57378 -0.42405 254 254 254
0.61198 -0.58083 -0.41771 254 254 254
0.61522 -0.58788 -0.41139 254 254 254
0.61845 -0.59492 -0.40507 254 254 254
0.62167 -0.60195 -0.39876 254 254 254
0.62490 -0.60897 -0.39245 254 254 254
0.62812 -0.61599 -0.38615 254 254 254
0.63133 -0.62299 -0.37986 254 254 254
0.63455 -0.62999 -0.37357 254 254 254
0.63775 -0.63698 -0.36730 254 254 254
0.64096 -0.64397 -0.36102 254 254 254
0.64416 -0.65095 -0.35476 254 254 254
0.64736 -0.65792 -0.34850 254 254 254
0.65056 -0.66488 -0.34225 254 254 254
0.65375 -0.67183 -0.33601 254 254 254
0.65694 -0.67878 -0.32977 254 254 254
0.66012 -0.68572 -0.32354 254 254 254
0.66331 -0.69265 -0.31731 254 254 254
0.66648 -0.69958 -0.31110 254 254 254
0.66966 -0.70649 -0.30488 254 254 254
0.67283 -0.71340 -0.29868 254 254 254
0.67600 -0.72031 -0.29248 254 254 254
0.67916 -0.72720 -0.28629 254 254 254
0.68233 -0.73409 -0.28011 254 254 254
0.68548 -0.74097 -0.27393 254 254 254
0.68864 -0.74784 -0.26776 254 254 254
0.69179 -0.75471 -0.26159 254 254 254
0.69494 -0.76156 -0.25544 254 254 254
0.69808 -0.76842 -0.24928 254 254 254
0.70122 -0.77526 -0.24314 254 254 254
0.70436 -0.78209 -0.23700 254 254 254
0.70750 -0.78892 -0.23087 254 254 254
0.71063 -0.79575 -0.22474 254 254 254
0.71376 -0.80256 -0.21863 254 254 254
0.71688 -0.80937 -0.21251 254 254 254
0.72000 -0.81617 -0.20641 254 254 254
0.72312 -0.82296 -0.20031 254 254 254
0.72623 -0.82974 -0.19422 254 254 254
0.72935 -0.83652 -0.18813 254 254 254
0.73245 -0.84329 -0.18205 254 254 254
0.73556 -0.85006 -0.17598 254 254 254
0.73866 -0.85681 -0.16991 254 254 254
0.74176 -0.86356 -0.16385 254 254 254
0.74485 -0.87030 -0.15780 254 254 254
0.74794 -0.87704 -0.15175 254 254 254
0.59752 -0.58183 -0.41896 254 254 254
0.60075 -0.58885 -0.41265 254 254 254
0.60397 -0.59586 -0.40636 254 254 254
0.60720 -0.60287 -0.40007 254 254 254
0.61042 -0.60987 -0.39378 254 254 254
0.61363 -0.61685 -0.38751 254 254 254
0.61685 -0.62384 -0.38124 254 254 254
0.62006 -0.63081 -0.37497 254 254 254
0.62326 -0.63778 -0.36872 254 254 254
0.62646 -0.64474 -0.36247 254 254 254
0.62966 -0.65169 -0.35622 254 254 254
0.63286 -0.65863 -0.34999 254 254 254
0.63605 -0.66557 -0.34376 254 254 254
0.63924 -0.67250 -0.33753 254 254 254
0.64242 -0.67942 -0.33132 254 254 254
0.64561 -0.68633 -0.32511 254 254 254
0.64878 -0.69324 -0.31891 254 254 254
0.65196 -0.70014 -0.31271 254 254 254
0.65513 -0.70703 -0.30652 254 254 254
0.65830 -0.71392 -0.30034 254 254 254
0.66146 -0.72080 -0.29416 254 254 254
0.66462 -0.72767 -0.28799 254 254 254
0.66778 -0.73453 -0.28183 254 254 254
0.67094 -0.74138 -0.27567 254 254 254
0.67409 -0.74823 -0.26952 254 254 254
0.67724 -0.75507 -0.26338 254 254 254
0.68038 -0.76191 -0.25724 254 254 254
0.68352 -0.76873 -0.25111 254 254 254
0.68666 -0.77555 -0.24499 254 254 254
0.68979 -0.78236 -0.23887 254 254 254
0.69293 -0.78917 -0.23276 254 254 254
0.69605 -0.79597 -0.22665 254 254 254
0.69918 -0.80276 -0.22055 254 254 254
0.70230 -0.80954 -0.21446 254 254 254
0.70542 -0.81631 -0.20838 254 254 254
0.70853 -0.82308 -0.20230 254 254 254
0.71164 -0.82984 -0.19623 254 254 254
0.71475 -0.83660 -0.19016 254 254 254
0.71786 -0.84334 -0.18410 254 254 254
0.72096 -0.85008 -0.17805 254 254 254
0.72405 -0.85682 -0.17200 254 254 254
0.72715 -0.86354 -0.16596 254 254 254
0.58638 -0.58982 -0.41391 254 254 254
0.58961 -0.59680 -0.40764 254 254 254
0.59283 -0.60378 -0.40137 254 254 254
0.59604 -0.61075 -0.39511 254 254 254
0.59925 -0.61772 -0.38885 254 254 254
0.60246 -0.62467 -0.38260 254 254 254
0.60567 -0.63162 -0.37636 254 254 254
0.60887 -0.63856 -0.37013 254 254 254
0.61207 -0.64550 -0.36390 254 254 254
0.61526 -0.65242 -0.35768 254 254 254
0.61846 -0.65934 -0.35146 254 254 254
0.62164 -0.66625 -0.34525 254 254 254
0.62483 -0.67316 -0.33905 254 254 254
0.62801 -0.68006 -0.33286 254 254 254
0.63119 -0.68694 -0.32667 254 254 254
0.63436 -0.69383 -0.32049 254 254 254
0.63754 -0.70070 -0.31431 254 254 254
0.64070 -0.70757 -0.30814 254 254 254
0.64387 -0.71443 -0.30198 254 254 254
0.64703 -0.72128 -0.29583 254 254 254
0.65019 -0.72813 -0.28968 254 254 254
0.65334 -0.73497 -0.28353 254 254 254
0.65649 -0.74180 -0.27740 254 254 254
0.65964 -0.74862 -0.27127 254 254 254
0.66278 -0.75544 -0.26515 254 254 254
0.66593 -0.76225 -0.25903 254 254 254
0.66906 -0.76905 -0.25292 254 254 254
0.67220 -0.77584 -0.24682 254 254 254
0.67533 -0.78263 -0.24072 254 254 254
0.67846 -0.78941 -0.23463 254 254 254
0.68158 -0.79618 -0.22855 254 254 254
0.68470 -0.80295 -0.22247 254 254 254
0.68782 -0.80971 -0.21640 254 254 254
0.69093 -0.81646 -0.21033 254 254 254
0.69405 -0.82320 -0.20428 254 254 254
0.69715 -0.82994 -0.19822 254 254 254
0.70026 -0.83667 -0.19218 254 254 254
0.70336 -0.84340 -0.18614 254 254 254
0.70646 -0.85011 -0.18011 254 254 254
0.70955 -0.85682 -0.17408 254 254 254
0.71264 -0.86352 -0.16806 254 254 254
0.57534 -0.59774 -0.40891 254 254 254
0.57856 -0.60469 -0.40266 254 254 254
0.58177 -0.61164 -0.39642 252 254 254
0.58498 -0.61857 -0.39019 251 253 254
0.58818 -0.62550 -0.38396 251 253 254
0.59138 -0.63243 -0.37774 253 254 254
0.59458 -0.63934 -0.37153 254 254 254
0.59778 -0.64625 -0.36532 254 254 254
0.60097 -0.65315 -0.35912 254 254 254
0.60416 -0.66005 -0.35293 254 254 254
0.60734 -0.66694 -0.34674 254 254 254
0.61052 -0.67381 -0.34056 254 254 254
0.61370 -0.68069 -0.33439 254 254 254
0.61688 -0.68755 -0.32822 254 254 254
0.62005 -0.69441 -0.32206 254 254 254
0.62321 -0.70126 -0.31590 254 254 254
0.62638 -0.70810 -0.30976 254 254 254
0.62954 -0.71494 -0.30361 254 254 254
0.63270 -0.72177 -0.29748 254 254 254
0.63585 -0.72859 -0.29135 254 254 254
0.63900 -0.73540 -0.28523 254 254 254
0.64215 -0.74221 -0.27912 254 254 254
0.64529 -0.74901 -0.27301 254 254 254
0.64844 -0.75580 -0.26691 254 254 254
0.65157 -0.76258 -0.26081 254 254 254
0.65471 -0.76936 -0.25472 254 254 254
0.65784 -0.77613 -0.24864 254 254 254
0.66097 -0.78289 -0.24256 254 254 254
0.66409 -0.78965 -0.23649 254 254 254
0.66721 -0.79640 -0.23043 254 254 254
0.67033 -0.80314 -0.22437 254 254 254
0.67344 -0.80988 -0.21832 254 254 254
0.67655 -0.81661 -0.21228 254 254 254
0.67966 -0.82333 -0.20624 254 254 254
0.68277 -0.83004 -0.20021 254 254 254
0.68587 -0.83675 -0.19418 254 254 254
0.68897 -0.84345 -0.18816 254 254 254
0.69206 -0.85014 -0.18215 254 254 254
0.69515 -0.85682 -0.17614 254 254 254
0.56439 -0.60559 -0.40394 254 254 254
0.56760 -0.61251 -0.39773 254 254 254
0.57080 -0.61942 -0.39151 247 249 253
0.57400 -0.62633 -0.38531 240 246 250
0.57720 -0.63323 -0.37911 242 246 253
0.58040 -0.64012 -0.37292 251 253 254
0.58359 -0.64700 -0.36673 254 254 254
0.58678 -0.65388 -0.36055 254 254 254
0.58996 -0.66075 -0.35438 254 254 254
0.59314 -0.66761 -0.34821 254 254 254
0.59632 -0.67447 -0.34206 254 254 254
0.59949 -0.68131 -0.33590 254 254 254
0.60266 -0.68815 -0.32976 254 254 254
0.60583 -0.69499 -0.32362 254 254 254
0.60899 -0.70181 -0.31748 254 254 254
0.61216 -0.70863 -0.31136 254 254 254
0.61531 -0.71544 -0.30524 254 254 254
0.61847 -0.72224 -0.29912 254 254 254
0.62162 -0.72904 -0.29302 254 254 254
0.62476 -0.73583 -0.28691 254 254 254
0.62791 -0.74261 -0.28082 254 254 254
0.63105 -0.74939 -0.27473 254 254 254
0.63419 -0.75616 -0.26865 254 254 254
0.63732 -0.76292 -0.26258 254 254 254
0.64045 -0.76967 -0.25651 254 254 254
0.64358 -0.77642 -0.25045 254 254 254
0.64670 -0.78316 -0.24439 254 254 254
0.64982 -0.78989 -0.23834 254 254 254
0.65294 -0.79662 -0.23230 254 254 254
0.65606 -0.80333 -0.22626 254 254 254
0.65917 -0.81005 -0.22023 254 254 254
0.66227 -0.81675 -0.21421 254 254 254
0.66538 -0.82345 -0.20819 254 254 254
0.66848 -0.83014 -0.20218 254 254 254
0.67158 -0.83682 -0.19617 254 254 254
0.67467 -0.84350 -0.19017 254 254 254
0.67777 -0.85016 -0.18418 254 254 254
0.55032 -0.60648 -0.40522 254 254 254
0.55353 -0.61338 -0.39902 254 254 254
0.55673 -0.62027 -0.39283 254 253 254
0.55993 -0.62715 -0.38665 246 245 251
0.56312 -0.63402 -0.38047 239 242 246
0.56631 -0.64089 -0.37430 241 243 251
0.56950 -0.64775 -0.36813 251 252 254
0.57268 -0.65460 -0.36198 254 254 254
0.57586 -0.66145 -0.35582 254 254 254
0.57904 -0.66828 -0.34968 254 254 254
0.58221 -0.67511 -0.34354 254 254 254
0.58538 -0.68194 -0.33741 254 254 254
0.58855 -0.68875 -0.33128 254 254 254
0.59171 -0.69556 -0.32516 254 254 254
0.59487 -0.70236 -0.31905 254 254 254
0.59803 -0.70915 -0.31295 254 254 254
0.60119 -0.71594 -0.30685 254 254 254
0.60434 -0.72272 -0.30075 254 254 254
0.60748 -0.72949 -0.29467 254 254 254
0.61063 -0.73626 -0.28859 254 254 254
0.61377 -0.74302 -0.28251 254 254 254
0.61690 -0.74977 -0.27645 254 254 254
0.62004 -0.75651 -0.27038 254 254 254
0.62317 -0.76325 -0.26433 254 254 254
0.62630 -0.76998 -0.25828 254 254 254
0.62942 -0.77670 -0.25224 254 254 254
0.63254 -0.78342 -0.24620 254 254 254
0.63566 -0.79013 -0.24017 254 254 254
0.63877 -0.79683 -0.23415 254 254 254
0.64188 -0.80352 -0.22813 254 254 254
0.64499 -0.81021 -0.22212 254 254 254
0.64809 -0.81689 -0.21612 254 254 254
0.65120 -0.82357 -0.21012 254 254 254
0.65429 -0.83023 -0.20413 254 254 254
0.65739 -0.83689 -0.19815 254 254 254
0.66048 -0.84355 -0.19217 254 254 254
0.53636 -0.60737 -0.40648 254 254 254
0.53956 -0.61424 -0.40031 254 254 254
0.54275 -0.62111 -0.39414 254 254 254
0.54595 -0.62796 -0.38797 254 254 254
0.54914 -0.63481 -0.38182 254 253 253
0.55232 -0.64165 -0.37567 254 254 252
0.55551 -0.64849 -0.36952 254 254 253
0.55869 -0.65532 -0.36339 254 254 254
0.56186 -0.66214 -0.35726 254 254 254
0.56504 -0.66895 -0.35113 254 254 254
0.56821 -0.67575 -0.34502 254 254 254
0.57137 -0.68255 -0.33890 254 254 254
0.57454 -0.68934 -0.33280 254 254 254
0.57770 -0.69613 -0.32670 254 254 254
0.58085 -0.70291 -0.32061 254 254 254
0.58401 -0.70968 -0.31452 254 254 254
0.58716 -0.71644 -0.30845 254 254 254
0.59030 -0.72319 -0.30237 254 254 254
0.59345 -0.72994 -0.29631 254 254 254
0.59659 -0.73668 -0.29025 254 254 254
0.59972 -0.74342 -0.28419 254 254 254
0.60286 -0.75015 -0.27815 254 254 254
0.60599 -0.75687 -0.27211 254 254 254
0.60912 -0.76358 -0.26607 254 254 254
0.61224 -0.77029 -0.26004 254 254 254
0.61536 -0.77699 -0.25402 254 254 254
0.61848 -0.78368 -0.24801 254 254 254
0.62159 -0.79036 -0.24200 254 254 254
0.62470 -0.79704 -0.23599 254 254 254
0.62781 -0.80371 -0.23000 254 254 254
0.63091 -0.81038 -0.22401 254 254 254
0.63401 -0.81703 -0.21802 254 254 254
0.63711 -0.82369 -0.21204 254 254 254
0.64021 -0.83033 -0.20607 254 254 254
0.64330 -0.83697 -0.20011 254 254 254
0.52249 -0.60825 -0.40774 254 254 254
0.52568 -0.61510 -0.40158 254 254 254
0.52888 -0.62194 -0.39544 254 254 254
0.53207 -0.62877 -0.38929 254 254 254
0.53525 -0.63560 -0.38316 254 254 254
0.53844 -0.64241 -0.37703 254 254 254
0.54161 -0.64922 -0.37091 254 254 254
0.54479 -0.65603 -0.36479 254 254 254
0.54796 -0.66282 -0.35868 254 254 254
0.55113 -0.66961 -0.35258 254 254 254
0.55430 -0.67639 -0.34648 254 254 254
0.55746 -0.68317 -0.34039 254 254 254
0.56062 -0.68993 -0.33431 254 254 254
0.56378 -0.69669 -0.32823 254 254 254
0.56693 -0.70345 -0.32216 254 254 254
0.57008 -0.71019 -0.31609 254 254 254
0.57323 -0.71693 -0.31003 254 254 254
0.57637 -0.72366 -0.30398 254 254 254
0.57951 -0.73039 -0.29794 254 254 254
0.58265 -0.73711 -0.29190 254 254 254
0.58578 -0.74382 -0.28586 254 254 254
0.58891 -0.75052 -0.27984 254 254 254
0.59204 -0.75722 -0.27382 254 254 254
0.59516 -0.76391 -0.26780 254 254 254
0.59828 -0.77059 -0.26179 254 254 254
0.60140 -0.77727 -0.25579 254 254 254
0.60451 -0.78394 -0.24980 254 254 254
0.60762 -0.79060 -0.24381 254 254 254
0.61073 -0.79725 -0.23782 254 254 254
0.61383 -0.80390 -0.23185 254 254 254
0.61693 -0.81054 -0.22588 254 254 254
0.62003 -0.81718 -0.21991 254 254 254
0.62312 -0.82380 -0.21395 254 254 254
0.62621 -0.83042 -0.20800 254 254 254
0.50871 -0.60913 -0.40899 254 254 254
0.51191 -0.61595 -0.40285 254 254 254
0.51510 -0.62277 -0.39672 253 253 254
0.51828 -0.62957 -0.39060 254 254 254
0.52146 -0.63637 -0.38449 254 254 254
0.52464 -0.64317 -0.37838 254 254 254
0.52782 -0.64995 -0.37228 254 254 254
0.53099 -0.65673 -0.36618 254 254 254
0.53416 -0.66350 -0.36009 254 254 254
0.53733 -0.67027 -0.35401 254 254 254
0.54049 -0.67703 -0.34794 254 254 254
0.54365 -0.68378 -0.34187 254 254 254
0.54680 -0.69052 -0.33580 254 254 254
0.54996 -0.69726 -0.32974 254 254 254
0.55311 -0.70398 -0.32369 254 254 254
0.55625 -0.71071 -0.31765 254 254 254
0.55939 -0.71742 -0.31161 254 254 254
0.56253 -0.72413 -0.30558 254 254 254
0.56567 -0.73083 -0.29955 254 254 254
0.56880 -0.73753 -0.29353 254 254 254
0.57193 -0.74421 -0.28752 254 254 254
0.57506 -0.75089 -0.28151 254 254 254
0.57818 -0.75757 -0.27551 254 254 254
0.58130 -0.76423 -0.26952 254 254 254
0.58442 -0.77089 -0.26353 254 254 254
0.58753 -0.77755 -0.25755 254 254 254
0.59064 -0.78419 -0.25157 254 254 254
0.59375 -0.79083 -0.24560 254 254 254
0.59685 -0.79746 -0.23964 254 254 254
0.59995 -0.80409 -0.23368 254 254 254
0.60305 -0.81071 -0.22773 254 254 254
0.60614 -0.81732 -0.22179 254 254 254
0.60923 -0.82392 -0.21585 254 254 254
0.61232 -0.83052 -0.20992 254 254 254
0.49504 -0.61000 -0.41023 254 254 254
0.49823 -0.61680 -0.40411 254 254 254
0.50141 -0.62359 -0.39800 254 253 253
0.50459 -0.63037 -0.39190 250 249 251
0.50777 -0.63715 -0.38581 253 254 252
0.51095 -0.64392 -0.37972 254 254 254
0.51412 -0.65068 -0.37364 254 254 254
0.51729 -0.65743 -0.36757 254 254 254
0.52045 -0.66418 -0.36150 254 254 254
0.52362 -0.67092 -0.35544 254 254 254
0.52677 -0.67765 -0.34938 254 254 254
0.52993 -0.68438 -0.34333 254 254 254
0.53308 -0.69110 -0.33729 254 254 254
0.53623 -0.69781 -0.33125 254 254 254
0.53938 -0.70452 -0.32522 254 254 254
0.54252 -0.71122 -0.31919 254 254 254
0.54566 -0.71791 -0.31318 254 254 254
0.54879 -0.72459 -0.30716 254 254 254
0.55192 -0.73127 -0.30116 254 254 254
0.55505 -0.73794 -0.29516 254 254 254
0.55818 -0.74461 -0.28917 254 254 254
0.56130 -0.75126 -0.28318 254 254 254
0.56442 -0.75791 -0.27720 254 254 254
0.56754 -0.76456 -0.27122 254 254 254
0.57065 -0.77119 -0.26526 254 254 254
0.57376 -0.77782 -0.25929 254 254 254
0.57687 -0.78445 -0.25334 254 254 254
0.57997 -0.79106 -0.24739 254 254 254
0.58307 -0.79767 -0.24144 254 254 254
0.58617 -0.80427 -0.23551 254 254 254
0.58926 -0.81087 -0.22957 254 254 254
0.59235 -0.81746 -0.22365 254 254 254
0.59544 -0.82404 -0.21773 254 254 254
0.48146 -0.61086 -0.41146 254 254 254
0.48464 -0.61764 -0.40536 254 254 254
0.48782 -0.62440 -0.39928 254 254 254
0.49100 -0.63116 -0.39320 253 252 252
0.49418 -0.63791 -0.38712 246 243 246
0.49735 -0.64466 -0.38106 252 253 249
0.50052 -0.65140 -0.37499 254 254 254
0.50368 -0.65813 -0.36894 254 254 254
0.50684 -0.66485 -0.36289 254 254 254
0.51000 -0.67157 -0.35685 254 254 254
0.51315 -0.67828 -0.35081 254 254 254
0.51631 -0.68498 -0.34478 254 254 254
0.51945 -0.69168 -0.33876 254 254 254
0.52260 -0.69837 -0.33274 254 254 254
0.52574 -0.70505 -0.32673 254 254 254
0.52888 -0.71172 -0.32073 254 254 254
0.53201 -0.71839 -0.31473 254 254 254
0.53515 -0.72505 -0.30874 254 254 254
0.53827 -0.73171 -0.30275 254 254 254
0.54140 -0.73836 -0.29677 254 254 254
0.54452 -0.74500 -0.29080 254 254 254
0.54764 -0.75163 -0.28483 254 254 254
0.55076 -0.75826 -0.27887 254 254 254
0.55387 -0.76488 -0.27292 254 254 254
0.55698 -0.77149 -0.26697 254 254 254
0.56008 -0.77810 -0.26103 254 254 254
0.56319 -0.78470 -0.25509 254 254 254
0.56629 -0.79129 -0.24916 254 254 254
0.56938 -0.79788 -0.24324 254 254 254
0.57248 -0.80446 -0.23732 254 254 254
0.57557 -0.81103 -0.23141 254 254 254
0.57865 -0.81759 -0.22550 254 254 254
0.47115 -0.61847 -0.40660 254 254 254
0.47433 -0.62521 -0.40054 254 254 254
0.47750 -0.63195 -0.39448 254 254 254
0.48068 -0.63868 -0.38843 254 253 253
0.48384 -0.64540 -0.38238 250 248 252
0.48701 -0.65211 -0.37634 253 254 253
0.49017 -0.65882 -0.37030 254 254 254
0.49332 -0.66552 -0.36428 254 254 254
0.49648 -0.67221 -0.35825 254 254 254
0.49963 -0.67890 -0.35224 254 254 254
0.50278 -0.68558 -0.34623 254 254 254
0.50592 -0.69225 -0.34023 254 254 254
0.50906 -0.69892 -0.33423 254 254 254
0.51220 -0.70558 -0.32824 254 254 254
0.51533 -0.71223 -0.32225 254 254 254
0.51847 -0.71887 -0.31628 254 254 254
0.52159 -0.72551 -0.31030 254 254 254
0.52472 -0.73214 -0.30434 254 254 254
0.52784 -0.73877 -0.29838 254 254 254
0.53096 -0.74538 -0.29242 254 254 254
0.53407 -0.75200 -0.28648 254 254 254
0.53719 -0.75860 -0.28054 254 254 254
0.54029 -0.76520 -0.27460 254 254 254
0.54340 -0.77179 -0.26867 254 254 254
0.54650 -0.77837 -0.26275 254 254 254
0.54960 -0.78495 -0.25683 254 254 254
0.55270 -0.79152 -0.25092 254 254 254
0.55579 -0.79808 -0.24502 254 254 254
0.55888 -0.80464 -0.23912 254 254 254
0.56197 -0.81119 -0.23322 254 254 254
0.45776 -0.61930 -0.40784 254 254 254
0.46093 -0.62602 -0.40179 254 254 254
0.46410 -0.63273 -0.39575 254 254 254
0.46727 -0.63943 -0.38972 254 254 254
0.47043 -0.64613 -0.38369 254 254 254
0.47359 -0.65282 -0.37767 254 254 254
0.47675 -0.65950 -0.37166 254 254 254
0.47990 -0.66618 -0.36565 254 254 254
0.48305 -0.67285 -0.35965 254 254 254
0.48620 -0.67951 -0.35365 254 254 254
0.48934 -0.68617 -0.34766 254 254 254
0.49248 -0.69282 -0.34168 254 254 254
0.49562 -0.69946 -0.33570 254 254 254
0.49875 -0.70610 -0.32973 254 254 254
0.50188 -0.71273 -0.32377 254 254 254
0.50501 -0.71935 -0.31781 254 254 254
0.50813 -0.72596 -0.31186 254 254 254
0.51126 -0.73257 -0.30591 254 254 254
0.51437 -0.73917 -0.29997 254 254 254
0.51749 -0.74577 -0.29404 254 254 254
0.52060 -0.75236 -0.28811 254 254 254
0.52371 -0.75894 -0.28219 254 254 254
0.52681 -0.76551 -0.27627 254 254 254
0.52991 -0.77208 -0.27036 254 254 254
0.53301 -0.77864 -0.26446 254 254 254
0.53611 -0.78520 -0.25856 254 254 254
0.53920 -0.79174 -0.25267 254 254 254
0.54229 -0.79829 -0.24678 254 254 254
0.54538 -0.80482 -0.24090 254 254 254
0.44128 -0.61342 -0.41509 245 251 254
0.44762 -0.62681 -0.40304 254 254 254
0.45079 -0.63350 -0.39702 254 254 254
0.45395 -0.64018 -0.39101 254 254 254
0.45711 -0.64686 -0.38500 254 254 254
0.46027 -0.65353 -0.37900 254 254 254
0.46342 -0.66019 -0.37300 254 254 254
0.46657 -0.66684 -0.36702 254 254 254
0.46971 -0.67349 -0.36103 254 254 254
0.47286 -0.68013 -0.35506 254 254 254
0.47600 -0.68676 -0.34909 254 254 254
0.47913 -0.69339 -0.34313 254 254 254
0.48227 -0.70001 -0.33717 254 254 254
0.48540 -0.70662 -0.33122 254 254 254
0.48852 -0.71322 -0.32527 254 254 254
0.49165 -0.71982 -0.31933 254 254 254
0.49477 -0.72642 -0.31340 254 254 254
0.49788 -0.73300 -0.30747 254 254 254
0.50100 -0.73958 -0.30155 254 254 254
0.50411 -0.74615 -0.29564 254 254 254
0.50722 -0.75272 -0.28973 254 254 254
0.51032 -0.75928 -0.28383 254 254 254
0.51342 -0.76583 -0.27793 254 254 254
0.51652 -0.77237 -0.27204 254 254 254
0.51962 -0.77891 -0.26616 254 254 254
0.52271 -0.78544 -0.26028 254 254 254
0.52580 -0.79197 -0.25440 254 254 254
0.52888 -0.79849 -0.24854 254 254 254
0.53196 -0.80500 -0.24268 254 254 254
0.43124 -0.62094 -0.41028 246 252 254
0.43757 -0.63427 -0.39827 254 254 254
0.44073 -0.64093 -0.39228 254 254 254
0.44388 -0.64758 -0.38630 254 254 254
0.44703 -0.65423 -0.38031 254 254 254
0.45018 -0.66086 -0.37434 254 254 254
0.45333 -0.66749 -0.36837 254 254 254
0.45647 -0.67412 -0.36241 254 254 254
0.45961 -0.68073 -0.35645 254 254 254
0.46274 -0.68734 -0.35050 254 254 254
0.46588 -0.69395 -0.34456 254 254 254
0.46901 -0.70054 -0.33862 254 254 254
0.48460 -0.73343 -0.30903 254 254 254
0.48771 -0.73998 -0.30312 254 254 254
0.49082 -0.74653 -0.29723 254 254 254
0.49393 -0.75307 -0.29134 254 254 254
0.49703 -0.75961 -0.28546 254 254 254
0.50012 -0.76614 -0.27958 254 254 254
0.50322 -0.77266 -0.27371 254 254 254
0.50631 -0.77918 -0.26784 254 254 254
0.50940 -0.78569 -0.26198 254 254 254
0.51248 -0.79219 -0.25613 254 254 254
0.51556 -0.79869 -0.25028 254 254 254
0.42128 -0.62839 -0.40550 249 253 254
0.42444 -0.63504 -0.39952 254 254 254
0.42759 -0.64167 -0.39355 254 254 254
0.43074 -0.64830 -0.38758 254 254 254
0.43389 -0.65492 -0.38162 254 254 254
0.43703 -0.66153 -0.37567 254 254 254
0.44018 -0.66814 -0.36972 254 254 254
0.44331 -0.67474 -0.36378 254 254 254
0.44645 -0.68134 -0.35784 254 254 254
0.44958 -0.68792 -0.35191 254 254 254
0.45271 -0.69451 -0.34599 254 254 254
0.45584 -0.70108 -0.34007 254 254 254
0.47762 -0.74691 -0.29881 254 254 254
0.48072 -0.75343 -0.29294 254 254 254
0.48382 -0.75994 -0.28707 254 254 254
0.48692 -0.76645 -0.28122 254 254 254
0.49001 -0.77295 -0.27536 254 254 254
0.49309 -0.77945 -0.26952 254 254 254
0.49618 -0.78593 -0.26368 254 254 254
0.49926 -0.79241 -0.25784 254 254 254
0.41140 -0.63580 -0.40076 252 254 254
0.41455 -0.64241 -0.39481 254 254 254
0.41769 -0.64901 -0.38886 254 254 254
0.42084 -0.65561 -0.38292 254 254 254
0.42398 -0.66220 -0.37699 254 254 254
0.42711 -0.66879 -0.37106 254 254 254
0.43025 -0.67536 -0.36513 254 254 254
0.43338 -0.68194 -0.35922 254 254 254
0.43651 -0.68850 -0.35331 254 254 254
0.43963 -0.69506 -0.34740 254 254 254
0.44275 -0.70161 -0.34150 254 254 254
0.46761 -0.75378 -0.29453 254 254 254
0.47071 -0.76027 -0.28868 254 254 254
0.47380 -0.76676 -0.28284 254 254 254
0.47688 -0.77324 -0.27701 254 254 254
0.47997 -0.77971 -0.27118 254 254 254
0.48305 -0.78618 -0.26536 254 254 254
0.48612 -0.79263 -0.25954 254 254 254
0.40159 -0.64314 -0.39606 254 254 254
0.40473 -0.64972 -0.39013 254 254 254
0.40787 -0.65630 -0.38421 254 254 254
0.41101 -0.66286 -0.37829 254 254 254
0.41414 -0.66943 -0.37238 254 254 254
0.41727 -0.67598 -0.36648 254 254 254
0.42040 -0.68253 -0.36058 254 254 254
0.42352 -0.68907 -0.35469 254 254 254
0.42664 -0.69561 -0.34881 254 254 254
0.42976 -0.70214 -0.34293 254 254 254
0.43288 -0.70866 -0.33705 254 254 254
0.45768 -0.76060 -0.29028 254 254 254
0.46076 -0.76707 -0.28446 254 254 254
0.46385 -0.77352 -0.27864 254 254 254
0.46693 -0.77997 -0.27283 254 254 254
0.47000 -0.78642 -0.26703 254 254 254
0.39186 -0.65042 -0.39139 254 254 254
0.39499 -0.65698 -0.38549 254 254 254
0.39813 -0.66352 -0.37959 254 254 254
0.40126 -0.67006 -0.37370 254 254 254
0.40438 -0.67660 -0.36782 254 254 254
0.40751 -0.68312 -0.36194 254 254 254
0.41063 -0.68964 -0.35607 254 254 254
0.41374 -0.69616 -0.35020 254 254 254
0.41686 -0.70266 -0.34434 254 254 254
0.41997 -0.70916 -0.33849 254 254 254
0.42307 -0.71566 -0.33264 254 254 254
0.44474 -0.76093 -0.29186 254 254 254
0.44782 -0.76737 -0.28606 254 254 254
0.45090 -0.77380 -0.28026 254 254 254
0.45398 -0.78023 -0.27447 254 254 254
0.38220 -0.65765 -0.38676 254 254 254
0.38533 -0.66418 -0.38089 254 254 254
0.38846 -0.67069 -0.37502 254 254 254
0.39158 -0.67721 -0.36915 254 254 254
0.39470 -0.68371 -0.36329 254 254 254
0.39782 -0.69021 -0.35744 254 254 254
0.40093 -0.69670 -0.35159 254 254 254
0.40404 -0.70318 -0.34575 254 254 254
0.40714 -0.70966 -0.33991 254 254 254
0.41025 -0.71613 -0.33408 254 254 254
0.41335 -0.72260 -0.32826 254 254 254
0.41644 -0.72906 -0.32244 254 254 254
0.42880 -0.75483 -0.29923 254 254 254
0.43188 -0.76125 -0.29344 254 254 254
0.43496 -0.76767 -0.28765 254 254 254
0.43804 -0.77408 -0.28188 254 254 254
0.37262 -0.66483 -0.38217 254 254 254
0.37575 -0.67132 -0.37632 254 254 254
0.37886 -0.67781 -0.37047 254 254 254
0.38198 -0.68429 -0.36463 254 254 254
0.38509 -0.69077 -0.35880 254 254 254
0.38820 -0.69724 -0.35297 254 254 254
0.39130 -0.70370 -0.34714 254 254 254
0.39441 -0.71016 -0.34133 254 254 254
0.39751 -0.71661 -0.33552 254 254 254
0.40060 -0.72305 -0.32971 254 254 254
0.40370 -0.72949 -0.32391 254 254 254
0.40679 -0.73592 -0.31812 254 254 254
0.40987 -0.74234 -0.31233 254 254 254
0.41296 -0.74876 -0.30655 254 254 254
0.41604 -0.75517 -0.30077 254 254 254
0.41912 -0.76157 -0.29500 254 254 254
0.42219 -0.76797 -0.28924 254 254 254
0.36312 -0.67195 -0.37761 254 254 254
0.36623 -0.67841 -0.37178 254 254 254
0.36934 -0.68487 -0.36596 254 254 254
0.37245 -0.69133 -0.36015 254 254 254
0.37556 -0.69777 -0.35434 254 254 254
0.37866 -0.70421 -0.34853 254 254 254
0.38176 -0.71065 -0.34273 254 254 254
0.38485 -0.71708 -0.33694 254 254 254
0.38794 -0.72350 -0.33115 254 254 254
0.39103 -0.72991 -0.32537 254 254 254
0.39412 -0.73632 -0.31960 254 254 254
0.39720 -0.74272 -0.31383 254 254 254
0.40028 -0.74912 -0.30807 254 254 254
0.40336 -0.75551 -0.30231 254 254 254
0.40643 -0.76189 -0.29656 254 254 254
0.40950 -0.76827 -0.29081 254 254 254
0.35368 -0.67901 -0.37309 254 254 254
0.35679 -0.68545 -0.36728 254 254 254
0.35989 -0.69188 -0.36149 254 254 254
0.36300 -0.69831 -0.35570 254 254 254
0.36609 -0.70472 -0.34991 254 254 254
0.36919 -0.71114 -0.34413 254 254 254
0.37228 -0.71754 -0.33836 254 254 254
0.37537 -0.72394 -0.33259 254 254 254
0.37845 -0.73034 -0.32683 254 254 254
0.38153 -0.73672 -0.32107 254 254 254
0.38461 -0.74311 -0.31532 254 254 254
0.38769 -0.74948 -0.30957 254 254 254
0.39076 -0.75585 -0.30383 254 254 254
0.39383 -0.76221 -0.29810 254 254 254
0.34432 -0.68602 -0.36860 254 254 254
0.34742 -0.69243 -0.36282 254 254 254
0.35052 -0.69883 -0.35705 254 254 254
0.35361 -0.70523 -0.35128 254 254 254
0.35670 -0.71162 -0.34552 254 254 254
0.35979 -0.71801 -0.33976 254 254 254
0.36287 -0.72439 -0.33401 254 254 254
0.36595 -0.73076 -0.32827 254 254 254
0.36903 -0.73712 -0.32253 254 254 254
0.37211 -0.74348 -0.31680 254 254 254
0.37518 -0.74984 -0.31107 254 254 254
0.37825 -0.75618 -0.30535 254 254 254
0.33503 -0.69298 -0.36414 254 254 254
0.33812 -0.69936 -0.35839 254 254 254
0.34121 -0.70574 -0.35264 254 254 254
0.34430 -0.71210 -0.34690 254 254 254
0.34738 -0.71847 -0.34116 254 254 254
0.35046 -0.72483 -0.33543 254 254 254
0.35354 -0.73118 -0.32970 254 254 254
0.35661 -0.73752 -0.32398 254 254 254
0.35969 -0.74386 -0.31827 254 254 254
0.36275 -0.75019 -0.31256 254 254 254
0.32581 -0.69988 -0.35972 254 254 254
0.32890 -0.70624 -0.35399 254 254 254
0.33198 -0.71258 -0.34826 254 254 254
0.33506 -0.71893 -0.34255 254 254 254
0.33813 -0.72526 -0.33683 254 254 254
0.34121 -0.73159 -0.33112 254 254 254
0.34428 -0.73792 -0.32542 254 254 254
0.34734 -0.74423 -0.31973 254 254 254
0.31666 -0.70673 -0.35533 252 253 254
0.31974 -0.71306 -0.34962 254 254 254
0.32281 -0.71938 -0.34392 254 254 254
0.32589 -0.72570 -0.33823 254 254 254
0.32896 -0.73201 -0.33254 254 254 254
0.33202 -0.73831 -0.32685 254 254 254
0.30758 -0.71353 -0.35098 252 254 254
0.31065 -0.71983 -0.34529 254 254 254
0.31372 -0.72613 -0.33962 254 254 254
0.31678 -0.73242 -0.33394 254 254 254
0.29856 -0.72028 -0.34665 253 254 254
0.30163 -0.72656 -0.34099 254 254 254
0.28962 -0.72698 -0.34236 253 254 254
0.28074 -0.73363 -0.33810 254 254 254
0.28379 -0.73985 -0.33249 252 254 254
0.61085 -0.39501 -0.56109 254 254 254
0.61441 -0.40229 -0.55486 254 254 254
0.59247 -0.38944 -0.56818 254 254 254
0.59602 -0.39670 -0.56196 254 254 254
0.59956 -0.40395 -0.55575 254 254 254
0.60311 -0.41120 -0.54955 254 254 254
0.57420 -0.38390 -0.57522 254 254 254
0.57775 -0.39114 -0.56902 254 254 254
