ply
format ascii 1.0
element face 0
property list uchar int vertex_indices
element vertex 1384
property float x
property float y
property float z
property uchar diffuse_red
property uchar diffuse_green
property uchar diffuse_blue
end_header
2.29739 -1.82575 -0.28327 88 74 71
2.32172 -1.83802 -0.28937 87 74 69
2.34632 -1.85043 -0.29554 85 75 67
2.37121 -1.86298 -0.30178 87 75 63
2.39638 -1.87567 -0.30810 85 73 65
2.42185 -1.88852 -0.31448 84 70 66
2.44762 -1.90151 -0.32095 82 69 64
2.47368 -1.91466 -0.32748 82 69 68
2.50006 -1.92796 -0.33410 81 68 69
2.52675 -1.94142 -0.34079 80 66 70
2.55376 -1.95505 -0.34757 79 65 64
2.58109 -1.96883 -0.35442 76 62 61
2.60876 -1.98279 -0.36136 75 59 61
2.63676 -1.99691 -0.36838 73 57 61
2.66511 -2.01121 -0.37549 70 56 57
1.94354 -1.65585 -0.20996 94 82 77
1.96406 -1.66624 -0.21519 93 83 79
1.98480 -1.67675 -0.22047 94 83 78
2.00575 -1.68736 -0.22581 95 82 80
2.02693 -1.69809 -0.23120 95 81 80
2.04834 -1.70893 -0.23665 93 81 76
2.06997 -1.71989 -0.24217 90 79 72
2.09184 -1.73096 -0.24774 87 78 69
2.11394 -1.74216 -0.25337 85 76 68
2.13629 -1.75348 -0.25906 86 74 66
2.15888 -1.76492 -0.26481 86 74 66
2.18172 -1.77649 -0.27063 86 74 56
2.20481 -1.78819 -0.27651 88 76 52
2.22816 -1.80001 -0.28246 85 77 62
2.25177 -1.81197 -0.28847 86 77 68
2.27564 -1.82407 -0.29456 87 76 72
2.29979 -1.83630 -0.30071 87 74 71
2.32421 -1.84867 -0.30693 87 75 70
2.34891 -1.86118 -0.31322 86 76 66
2.37390 -1.87384 -0.31959 86 75 62
2.39918 -1.88664 -0.32602 84 73 65
2.42475 -1.89959 -0.33254 83 70 66
2.45062 -1.91270 -0.33913 82 69 62
2.47680 -1.92595 -0.34580 82 68 63
2.50328 -1.93937 -0.35254 80 65 67
2.53009 -1.95295 -0.35937 79 63 68
2.55721 -1.96669 -0.36628 77 61 60
2.58466 -1.98059 -0.37327 75 59 61
2.61245 -1.99467 -0.38035 73 58 61
2.64057 -2.00891 -0.38751 71 56 58
1.94466 -1.66503 -0.22577 95 83 72
1.96526 -1.67550 -0.23110 95 83 75
1.98606 -1.68609 -0.23648 95 83 77
2.00709 -1.69679 -0.24192 94 82 79
2.02834 -1.70760 -0.24742 92 80 78
2.04982 -1.71853 -0.25298 88 78 69
2.07153 -1.72957 -0.25859 88 75 66
2.09348 -1.74073 -0.26427 87 75 69
2.11566 -1.75202 -0.27001 86 74 70
2.13809 -1.76343 -0.27581 87 73 71
2.16076 -1.77496 -0.28167 86 74 70
2.18368 -1.78662 -0.28760 87 76 61
2.20686 -1.79841 -0.29360 89 77 61
2.23030 -1.81034 -0.29966 87 78 66
2.25400 -1.82239 -0.30579 88 78 69
2.27797 -1.83459 -0.31199 88 77 67
2.30221 -1.84692 -0.31826 89 76 70
2.32673 -1.85939 -0.32460 88 76 72
2.35153 -1.87201 -0.33102 87 76 69
2.37661 -1.88477 -0.33751 85 74 65
2.40199 -1.89768 -0.34407 84 71 66
2.42767 -1.91074 -0.35072 81 70 65
2.45364 -1.92396 -0.35744 81 69 62
2.47993 -1.93733 -0.36423 81 67 63
2.50653 -1.95086 -0.37112 80 65 64
2.53344 -1.96455 -0.37808 79 63 62
2.56068 -1.97841 -0.38512 77 61 55
2.58826 -1.99243 -0.39226 74 59 59
2.61616 -2.00663 -0.39948 72 57 60
1.94580 -1.67427 -0.24168 94 83 73
1.96646 -1.68483 -0.24711 94 83 77
1.98734 -1.69549 -0.25260 92 81 75
2.00844 -1.70627 -0.25814 89 78 70
2.02976 -1.71717 -0.26374 86 76 69
2.05132 -1.72818 -0.26940 83 74 63
2.07310 -1.73931 -0.27512 86 74 61
2.09513 -1.75056 -0.28091 87 75 68
2.11739 -1.76194 -0.28675 87 75 71
2.13990 -1.77344 -0.29267 89 75 70
2.16266 -1.78507 -0.29864 87 76 64
2.18566 -1.79682 -0.30469 88 78 65
2.20893 -1.80871 -0.31080 89 77 69
2.23246 -1.82073 -0.31698 89 79 69
2.25625 -1.83288 -0.32322 90 78 71
2.28031 -1.84518 -0.32954 89 78 65
2.30464 -1.85761 -0.33594 89 78 66
2.32926 -1.87019 -0.34240 87 77 72
2.35416 -1.88291 -0.34894 86 75 70
2.37934 -1.89578 -0.35556 84 72 67
2.40482 -1.90879 -0.36225 83 70 68
2.43060 -1.92197 -0.36902 82 69 69
2.45669 -1.93529 -0.37587 81 68 70
2.48308 -1.94878 -0.38280 80 67 67
2.50979 -1.96243 -0.38982 79 65 63
2.53683 -1.97624 -0.39692 78 63 63
2.56418 -1.99021 -0.40410 76 63 57
2.59188 -2.00436 -0.41138 74 61 55
2.61991 -2.01868 -0.41874 70 58 57
1.94694 -1.68357 -0.25769 92 82 68
1.96767 -1.69420 -0.26322 89 79 69
1.98862 -1.70495 -0.26881 86 76 67
2.00979 -1.71582 -0.27445 84 74 65
2.03119 -1.72680 -0.28016 84 74 63
2.05282 -1.73790 -0.28593 85 74 62
2.07469 -1.74912 -0.29176 87 75 66
2.09679 -1.76046 -0.29765 87 77 70
2.11913 -1.77193 -0.30361 88 77 69
2.14172 -1.78352 -0.30963 88 77 68
2.16456 -1.79524 -0.31572 88 78 63
2.18766 -1.80709 -0.32188 89 79 68
2.21101 -1.81907 -0.32811 91 78 73
2.23463 -1.83119 -0.33440 91 78 70
2.25851 -1.84344 -0.34077 91 76 70
2.28266 -1.85584 -0.34721 90 77 66
2.30709 -1.86837 -0.35373 88 77 63
2.33180 -1.88105 -0.36032 86 76 73
2.35680 -1.89388 -0.36698 86 75 69
2.38209 -1.90686 -0.37372 85 71 67
2.40768 -1.91999 -0.38055 84 70 67
2.43356 -1.93327 -0.38745 83 68 72
2.45976 -1.94671 -0.39443 81 68 74
2.48626 -1.96031 -0.40150 79 67 64
2.51309 -1.97407 -0.40865 78 66 57
2.54023 -1.98800 -0.41589 78 64 65
2.56771 -2.00210 -0.42322 77 63 61
2.59552 -2.01638 -0.43063 74 63 56
2.62367 -2.03082 -0.43814 69 59 60
1.94808 -1.69292 -0.27380 88 74 58
1.96889 -1.70364 -0.27943 84 70 60
1.98991 -1.71447 -0.28512 83 71 62
2.01115 -1.72542 -0.29087 83 74 64
2.03263 -1.73649 -0.29668 84 75 59
2.05434 -1.74768 -0.30256 85 76 62
2.07628 -1.75899 -0.30850 86 76 74
2.09846 -1.77042 -0.31450 87 78 73
2.12089 -1.78197 -0.32057 88 78 64
2.14356 -1.79366 -0.32671 88 78 62
2.16648 -1.80547 -0.33291 88 77 63
2.18966 -1.81742 -0.33919 90 78 66
2.21311 -1.82950 -0.34553 91 76 68
2.23681 -1.84172 -0.35195 91 77 69
2.26079 -1.85407 -0.35844 90 76 72
2.28503 -1.86657 -0.36500 91 76 72
2.30956 -1.87921 -0.37164 87 76 67
2.33437 -1.89200 -0.37835 88 76 70
2.35947 -1.90493 -0.38515 87 76 68
2.38486 -1.91802 -0.39202 86 73 67
2.41055 -1.93126 -0.39897 85 71 64
2.43654 -1.94465 -0.40601 84 69 67
2.46284 -1.95821 -0.41313 81 69 67
2.48946 -1.97192 -0.42033 79 68 59
2.51640 -1.98581 -0.42762 78 66 54
2.54366 -1.99986 -0.43500 78 64 63
2.57126 -2.01408 -0.44247 76 64 62
2.59919 -2.02847 -0.45003 73 62 57
2.62747 -2.04305 -0.45768 68 58 56
1.97011 -1.71313 -0.29574 82 70 65
1.99120 -1.72405 -0.30154 83 73 68
2.01253 -1.73509 -0.30739 84 75 70
2.03408 -1.74624 -0.31331 85 77 65
2.05586 -1.75752 -0.31930 86 77 64
2.07788 -1.76892 -0.32535 87 76 72
2.10014 -1.78044 -0.33146 88 77 71
2.12265 -1.79209 -0.33765 89 78 66
2.14541 -1.80387 -0.34390 89 77 69
2.16842 -1.81578 -0.35022 88 77 66
2.19168 -1.82782 -0.35661 89 78 64
2.21521 -1.84000 -0.36307 89 78 64
2.23901 -1.85232 -0.36961 90 76 68
2.26308 -1.86477 -0.37622 90 75 73
2.28742 -1.87737 -0.38291 91 76 73
2.31204 -1.89012 -0.38967 86 76 68
2.33695 -1.90301 -0.39651 88 77 71
2.36215 -1.91606 -0.40344 86 77 69
2.38765 -1.92925 -0.41044 86 74 68
2.41344 -1.94260 -0.41752 86 71 63
2.43954 -1.95611 -0.42469 84 71 62
2.46595 -1.96978 -0.43195 81 70 62
2.49268 -1.98362 -0.43929 79 68 57
2.51974 -1.99762 -0.44672 78 67 51
2.54712 -2.01179 -0.45425 78 66 64
2.57483 -2.02614 -0.46186 74 65 64
2.60289 -2.04066 -0.46957 70 62 59
2.63129 -2.05536 -0.47737 66 58 54
1.97134 -1.72269 -0.31216 83 72 65
1.99251 -1.73369 -0.31806 84 75 71
2.01391 -1.74482 -0.32402 86 77 74
2.03553 -1.75606 -0.33005 86 77 66
2.05739 -1.76742 -0.33614 87 77 57
2.07949 -1.77891 -0.34230 88 77 64
2.10184 -1.79053 -0.34853 88 78 63
2.12443 -1.80227 -0.35483 89 78 62
2.14727 -1.81414 -0.36120 90 78 70
2.17036 -1.82615 -0.36764 88 78 65
2.19372 -1.83829 -0.37415 88 79 65
2.21734 -1.85057 -0.38073 89 78 62
2.24122 -1.86299 -0.38739 90 75 63
2.26539 -1.87555 -0.39412 90 74 73
2.28982 -1.88825 -0.40094 89 75 74
2.31454 -1.90110 -0.40783 88 77 70
2.33955 -1.91410 -0.41480 87 76 76
2.36485 -1.92726 -0.42185 87 76 69
2.39045 -1.94056 -0.42899 86 75 69
2.41635 -1.95403 -0.43621 85 73 67
2.44256 -1.96765 -0.44351 84 70 64
2.46909 -1.98144 -0.45091 82 68 62
2.49593 -1.99540 -0.45839 79 67 59
2.52310 -2.00952 -0.46596 78 67 57
2.55060 -2.02382 -0.47363 78 66 63
2.57843 -2.03829 -0.48139 73 65 61
2.60661 -2.05294 -0.48924 68 62 55
1.97258 -1.73230 -0.32867 84 75 64
1.99382 -1.74339 -0.33468 85 77 70
2.01529 -1.75460 -0.34075 87 78 73
2.03700 -1.76593 -0.34689 85 79 68
2.05894 -1.77739 -0.35310 86 78 61
2.08112 -1.78897 -0.35937 86 79 62
2.10354 -1.80068 -0.36571 86 80 63
2.12621 -1.81252 -0.37213 87 80 63
2.14914 -1.82449 -0.37861 90 79 67
2.17232 -1.83659 -0.38517 88 79 63
2.19576 -1.84883 -0.39180 88 77 70
2.21947 -1.86121 -0.39850 90 77 70
2.24345 -1.87373 -0.40529 88 77 66
2.26771 -1.88639 -0.41215 90 77 73
2.29224 -1.89920 -0.41909 89 77 78
2.31706 -1.91216 -0.42611 88 78 72
2.34217 -1.92527 -0.43321 88 75 71
2.36757 -1.93854 -0.44039 89 74 63
2.39328 -1.95196 -0.44766 88 74 67
2.41929 -1.96553 -0.45502 86 73 65
2.44560 -1.97928 -0.46246 84 70 63
2.47224 -1.99318 -0.47000 82 68 58
2.49920 -2.00726 -0.47762 79 69 59
2.52648 -2.02150 -0.48534 78 68 59
2.55410 -2.03592 -0.49315 77 64 63
2.58206 -2.05052 -0.50106 74 62 57
1.97383 -1.74198 -0.34529 84 73 69
1.99515 -1.75316 -0.35141 85 75 72
2.01669 -1.76445 -0.35759 85 76 72
2.03847 -1.77587 -0.36384 86 77 70
2.06049 -1.78742 -0.37016 86 78 63
2.08275 -1.79909 -0.37655 86 79 65
2.10525 -1.81090 -0.38301 87 79 65
2.12801 -1.82283 -0.38953 89 78 63
2.15102 -1.83490 -0.39614 90 79 67
2.17429 -1.84710 -0.40282 89 78 67
2.19782 -1.85944 -0.40957 89 77 69
2.22163 -1.87192 -0.41640 90 76 69
2.24570 -1.88454 -0.42330 89 76 70
2.27005 -1.89731 -0.43029 91 75 74
2.29468 -1.91023 -0.43736 90 77 76
2.31960 -1.92330 -0.44451 87 77 72
2.34481 -1.93652 -0.45174 86 77 70
2.37031 -1.94989 -0.45906 84 76 66
2.39612 -1.96343 -0.46647 86 73 67
2.42224 -1.97712 -0.47396 85 72 58
2.44867 -1.99098 -0.48155 84 72 59
2.47542 -2.00501 -0.48922 81 70 57
2.50249 -2.01920 -0.49699 77 69 62
2.52989 -2.03357 -0.50485 76 67 59
2.55763 -2.04812 -0.51281 76 62 56
2.58571 -2.06285 -0.52087 72 57 51
2.61415 -2.07776 -0.52903 66 55 48
1.97509 -1.75171 -0.36202 85 73 66
1.99648 -1.76298 -0.36824 85 74 63
2.01810 -1.77437 -0.37454 84 76 60
2.03996 -1.78588 -0.38090 86 77 61
2.06205 -1.79752 -0.38733 87 77 57
2.08439 -1.80928 -0.39383 87 78 65
2.10698 -1.82118 -0.40041 88 78 68
2.12982 -1.83321 -0.40706 89 78 66
2.15292 -1.84538 -0.41378 90 78 66
2.17628 -1.85768 -0.42058 89 76 67
2.19990 -1.87012 -0.42746 89 75 64
2.22379 -1.88270 -0.43441 91 76 61
2.24796 -1.89543 -0.44144 88 75 70
2.27240 -1.90831 -0.44856 89 76 69
2.29713 -1.92133 -0.45576 90 76 69
2.32215 -1.93451 -0.46304 88 77 64
2.34746 -1.94784 -0.47041 88 78 70
2.37307 -1.96133 -0.47786 87 74 68
2.39899 -1.97498 -0.48541 88 73 73
2.42521 -1.98879 -0.49304 86 74 64
2.45175 -2.00277 -0.50077 82 71 62
2.47861 -2.01692 -0.50858 80 69 57
2.50580 -2.03124 -0.51650 78 66 59
2.53333 -2.04573 -0.52451 75 63 59
2.56119 -2.06041 -0.53262 72 60 54
2.58939 -2.07526 -0.54083 69 56 50
2.61795 -2.09030 -0.54914 65 53 52
1.97635 -1.76151 -0.37885 85 72 63
1.99782 -1.77287 -0.38519 86 74 63
2.01951 -1.78434 -0.39159 86 76 66
2.04145 -1.79595 -0.39807 88 77 66
2.06363 -1.80768 -0.40462 88 78 60
2.08605 -1.81954 -0.41123 87 78 69
2.10872 -1.83153 -0.41793 87 77 75
2.13164 -1.84366 -0.42470 88 76 70
2.15483 -1.85592 -0.43154 89 77 67
2.17827 -1.86833 -0.43846 90 77 64
2.20199 -1.88087 -0.44546 89 77 65
2.22597 -1.89356 -0.45254 90 77 67
2.25023 -1.90639 -0.45971 89 78 74
2.27477 -1.91937 -0.46695 89 78 62
2.29960 -1.93251 -0.47428 90 78 68
2.32472 -1.94579 -0.48170 87 78 70
2.35013 -1.95924 -0.48920 87 77 78
2.37585 -1.97284 -0.49679 87 75 70
2.40187 -1.98661 -0.50448 86 73 69
2.42821 -2.00054 -0.51225 83 72 64
2.45486 -2.01464 -0.52012 81 69 65
2.48184 -2.02891 -0.52808 79 66 59
2.50914 -2.04335 -0.53615 76 64 58
2.53678 -2.05798 -0.54431 73 60 57
2.56477 -2.07278 -0.55257 70 58 54
2.59310 -2.08777 -0.56093 66 56 49
2.62179 -2.10294 -0.56940 63 53 49
1.97762 -1.77137 -0.39579 83 73 64
1.99916 -1.78282 -0.40224 84 74 66
2.02094 -1.79438 -0.40876 87 74 68
2.04295 -1.80608 -0.41535 89 75 68
2.06521 -1.81791 -0.42201 89 76 67
2.08771 -1.82986 -0.42875 88 77 67
2.11047 -1.84195 -0.43556 88 76 68
2.13348 -1.85418 -0.44245 88 76 74
2.15675 -1.86654 -0.44942 89 76 76
2.18028 -1.87905 -0.45647 89 77 69
2.20409 -1.89169 -0.46359 89 77 68
2.22817 -1.90449 -0.47080 90 77 70
2.25252 -1.91743 -0.47809 89 77 73
2.27716 -1.93052 -0.48547 87 77 72
2.30209 -1.94376 -0.49293 87 78 78
2.32731 -1.95716 -0.50049 87 78 69
2.35282 -1.97072 -0.50813 87 77 75
2.37865 -1.98444 -0.51586 86 74 68
2.40478 -1.99832 -0.52368 83 71 62
2.43122 -2.01237 -0.53160 83 70 54
2.45799 -2.02659 -0.53961 82 68 61
2.48508 -2.04099 -0.54772 79 66 61
2.51251 -2.05556 -0.55594 76 63 60
2.54027 -2.07031 -0.56425 72 58 60
2.56838 -2.08524 -0.57266 69 56 57
2.59683 -2.10036 -0.58118 65 54 50
2.62565 -2.11567 -0.58981 60 52 47
1.97890 -1.78129 -0.41283 83 73 66
2.00052 -1.79283 -0.41940 84 74 67
2.02237 -1.80449 -0.42603 85 75 64
2.04446 -1.81628 -0.43274 87 75 67
2.06680 -1.82820 -0.43952 87 75 70
2.08939 -1.84025 -0.44638 87 77 67
2.11223 -1.85244 -0.45331 88 78 66
2.13532 -1.86477 -0.46032 88 78 70
2.15868 -1.87723 -0.46742 89 77 74
2.18231 -1.88984 -0.47459 90 77 73
2.20620 -1.90259 -0.48184 88 78 69
2.23038 -1.91549 -0.48918 85 79 71
2.25483 -1.92854 -0.49661 85 77 72
2.27956 -1.94174 -0.50412 84 77 74
2.30459 -1.95509 -0.51171 86 78 74
2.32991 -1.96860 -0.51940 87 77 69
2.35553 -1.98228 -0.52718 85 75 71
2.38146 -1.99611 -0.53505 85 75 66
2.40770 -2.01012 -0.54302 85 71 61
2.43426 -2.02429 -0.55108 82 70 59
2.46114 -2.03863 -0.55924 79 68 61
2.48835 -2.05315 -0.56751 77 64 59
2.51589 -2.06785 -0.57587 74 61 56
2.54378 -2.08273 -0.58433 71 57 56
2.57201 -2.09780 -0.59291 68 55 53
2.60060 -2.11305 -0.60158 63 53 50
1.98019 -1.79128 -0.42999 82 72 63
2.00188 -1.80291 -0.43666 83 73 66
2.02381 -1.81466 -0.44342 84 75 67
2.04599 -1.82654 -0.45024 87 76 73
2.06841 -1.83856 -0.45714 87 77 77
2.09108 -1.85071 -0.46412 87 78 75
2.11400 -1.86300 -0.47118 87 78 73
2.13718 -1.87542 -0.47831 86 79 68
2.16063 -1.88799 -0.48553 87 78 68
2.18435 -1.90070 -0.49283 87 76 69
2.20833 -1.91356 -0.50022 88 78 66
2.23260 -1.92657 -0.50769 88 79 67
2.25715 -1.93972 -0.51524 86 78 70
2.28198 -1.95303 -0.52289 85 76 69
2.30711 -1.96650 -0.53062 86 76 69
2.33254 -1.98013 -0.53845 85 74 69
2.35826 -1.99392 -0.54637 84 73 68
2.38430 -2.00787 -0.55439 84 72 61
2.41065 -2.02200 -0.56250 85 69 51
2.43732 -2.03629 -0.57071 80 66 58
2.46431 -2.05076 -0.57902 76 63 56
2.49164 -2.06541 -0.58743 76 60 52
2.51930 -2.08023 -0.59594 73 58 48
2.54731 -2.09525 -0.60457 71 56 48
2.57567 -2.11044 -0.61330 66 55 47
1.98149 -1.80133 -0.44725 80 72 61
2.00326 -1.81305 -0.45405 83 73 66
2.02527 -1.82490 -0.46091 84 75 68
2.04752 -1.83688 -0.46786 85 77 71
2.07002 -1.84899 -0.47488 86 77 74
2.09277 -1.86124 -0.48198 86 77 74
2.11578 -1.87363 -0.48916 87 77 73
2.13905 -1.88615 -0.49643 86 77 71
2.16259 -1.89882 -0.50377 87 77 69
2.18640 -1.91164 -0.51120 85 78 63
2.21048 -1.92460 -0.51872 90 79 56
2.23484 -1.93772 -0.52632 88 78 61
2.25949 -1.95099 -0.53401 86 77 62
2.28442 -1.96441 -0.54179 85 76 67
2.30965 -1.97799 -0.54966 87 74 65
2.33518 -1.99173 -0.55763 86 72 62
2.36101 -2.00564 -0.56569 83 72 59
2.38716 -2.01972 -0.57385 81 70 55
2.41362 -2.03396 -0.58211 80 67 54
2.44040 -2.04838 -0.59047 78 63 58
2.46751 -2.06297 -0.59893 75 60 57
2.49496 -2.07775 -0.60750 72 60 54
2.52274 -2.09271 -0.61617 72 58 51
2.55087 -2.10785 -0.62495 69 56 48
1.98279 -1.81144 -0.46463 77 71 61
2.00464 -1.82326 -0.47154 82 74 62
2.02673 -1.83520 -0.47853 84 76 63
2.04906 -1.84728 -0.48559 85 77 64
2.07165 -1.85949 -0.49274 86 77 64
2.09448 -1.87184 -0.49996 87 77 67
2.11758 -1.88432 -0.50727 87 76 71
2.14094 -1.89695 -0.51466 85 76 70
2.16456 -1.90973 -0.52213 86 77 72
2.18846 -1.92265 -0.52969 87 78 68
2.21264 -1.93572 -0.53734 87 78 62
2.23709 -1.94895 -0.54508 86 78 66
2.26184 -1.96233 -0.55290 84 75 66
2.28687 -1.97586 -0.56082 83 73 71
2.31220 -1.98956 -0.56884 84 72 70
2.33784 -2.00342 -0.57695 84 70 61
2.36378 -2.01745 -0.58515 81 68 57
2.39003 -2.03164 -0.59346 79 67 57
2.41661 -2.04601 -0.60187 77 64 58
2.44350 -2.06055 -0.61038 75 63 60
2.47073 -2.07528 -0.61899 72 62 61
2.49830 -2.09018 -0.62771 69 62 54
2.52620 -2.10527 -0.63654 70 60 50
2.55446 -2.12055 -0.64548 68 58 46
1.98411 -1.82162 -0.48211 76 71 57
2.00603 -1.83353 -0.48914 82 74 58
2.02820 -1.84557 -0.49625 83 76 56
2.05062 -1.85774 -0.50344 84 76 58
2.07328 -1.87005 -0.51071 85 76 66
2.09620 -1.88250 -0.51806 86 77 68
2.11939 -1.89509 -0.52549 86 77 69
2.14284 -1.90783 -0.53301 85 78 69
2.16655 -1.92071 -0.54062 86 78 67
2.19054 -1.93374 -0.54831 87 78 68
2.21481 -1.94692 -0.55609 86 77 70
2.23937 -1.96025 -0.56396 85 78 75
2.26421 -1.97374 -0.57193 81 76 68
2.28934 -1.98740 -0.57999 82 74 67
2.31478 -2.00121 -0.58815 82 71 66
2.34052 -2.01519 -0.59640 83 70 58
2.36657 -2.02933 -0.60475 79 66 54
2.39293 -2.04365 -0.61321 77 63 58
2.41962 -2.05815 -0.62176 76 62 60
2.44663 -2.07282 -0.63042 75 62 58
2.47397 -2.08767 -0.63919 73 63 57
2.50166 -2.10270 -0.64807 71 62 51
2.52969 -2.11793 -0.65706 71 59 53
2.55807 -2.13334 -0.66616 65 58 45
2.00743 -1.84387 -0.50687 84 73 62
2.02968 -1.85601 -0.51410 85 74 62
2.05218 -1.86828 -0.52141 85 74 68
2.07493 -1.88069 -0.52880 85 75 74
2.09794 -1.89324 -0.53628 86 77 71
2.12121 -1.90593 -0.54384 87 77 72
2.14474 -1.91877 -0.55149 86 77 72
2.16855 -1.93176 -0.55923 86 77 69
2.19264 -1.94490 -0.56705 87 78 69
2.21700 -1.95819 -0.57497 83 76 70
2.24165 -1.97164 -0.58298 83 75 72
2.26659 -1.98524 -0.59109 84 74 66
2.29183 -1.99901 -0.59929 81 74 66
2.31737 -2.01294 -0.60759 80 73 65
2.34321 -2.02704 -0.61599 81 71 56
2.36937 -2.04131 -0.62449 79 66 49
2.39585 -2.05575 -0.63309 77 61 54
2.42265 -2.07037 -0.64180 76 62 66
2.44978 -2.08517 -0.65062 76 62 53
2.47724 -2.10015 -0.65954 73 61 55
2.50505 -2.11532 -0.66858 70 59 52
2.53320 -2.13068 -0.67773 66 57 54
2.00884 -1.85428 -0.52470 81 72 69
2.03117 -1.86651 -0.53206 85 74 68
2.05375 -1.87889 -0.53949 85 74 67
2.07659 -1.89140 -0.54701 85 76 74
2.09968 -1.90405 -0.55462 86 78 74
2.12304 -1.91685 -0.56231 85 77 75
2.14667 -1.92979 -0.57009 85 76 73
2.17057 -1.94289 -0.57796 86 76 71
2.19474 -1.95614 -0.58593 85 76 69
2.21921 -1.96954 -0.59398 84 75 65
2.24395 -1.98310 -0.60213 83 74 65
2.26900 -1.99682 -0.61038 84 72 62
2.29434 -2.01070 -0.61872 80 72 63
2.31998 -2.02475 -0.62717 79 71 60
2.34593 -2.03897 -0.63572 79 67 55
2.37220 -2.05336 -0.64437 77 64 55
2.39879 -2.06793 -0.65312 77 61 54
2.42570 -2.08268 -0.66199 76 60 64
2.45295 -2.09761 -0.67096 74 60 58
2.48053 -2.11272 -0.68004 71 59 60
2.50846 -2.12802 -0.68924 67 57 54
2.53674 -2.14352 -0.69856 63 54 54
2.01026 -1.86476 -0.54266 78 73 67
2.03267 -1.87709 -0.55013 84 75 68
2.05533 -1.88956 -0.55770 86 75 65
2.07825 -1.90218 -0.56535 86 76 69
2.10144 -1.91493 -0.57308 86 76 71
2.12488 -1.92784 -0.58091 85 74 72
2.14860 -1.94089 -0.58882 84 74 71
2.17259 -1.95409 -0.59683 86 74 71
2.19687 -1.96745 -0.60493 84 74 70
2.22142 -1.98097 -0.61312 84 72 62
2.24627 -1.99464 -0.62141 82 72 61
2.27141 -2.00848 -0.62980 82 71 58
2.29686 -2.02248 -0.63829 80 69 59
2.32261 -2.03665 -0.64689 79 68 54
2.34867 -2.05099 -0.65558 78 66 54
2.37505 -2.06551 -0.66439 75 63 57
2.40175 -2.08020 -0.67330 75 63 56
2.42878 -2.09508 -0.68232 74 60 59
2.45614 -2.11014 -0.69145 72 59 57
2.48385 -2.12539 -0.70069 70 57 58
2.51190 -2.14082 -0.71005 67 55 51
2.54031 -2.15646 -0.71953 62 52 50
2.03418 -1.88774 -0.56833 83 76 68
2.05693 -1.90031 -0.57602 85 76 69
2.07993 -1.91303 -0.58380 85 76 68
2.10320 -1.92589 -0.59167 85 74 71
2.12674 -1.93890 -0.59963 84 73 73
2.15055 -1.95206 -0.60768 83 71 69
2.17464 -1.96537 -0.61582 83 71 67
2.19900 -1.97884 -0.62406 83 71 66
2.22366 -1.99247 -0.63239 83 69 61
2.24861 -2.00626 -0.64083 81 70 57
2.27385 -2.02022 -0.64937 80 68 54
2.29940 -2.03434 -0.65800 79 67 56
2.32525 -2.04863 -0.66674 78 68 55
2.35142 -2.06310 -0.67559 77 65 55
2.37791 -2.07774 -0.68455 79 63 60
2.40473 -2.09256 -0.69361 76 62 58
2.43187 -2.10757 -0.70279 72 62 55
2.45936 -2.12276 -0.71209 70 59 57
2.48718 -2.13814 -0.72149 68 55 61
2.51536 -2.15372 -0.73102 65 53 54
2.54390 -2.16949 -0.74067 60 53 50
2.03570 -1.89845 -0.58665 82 76 64
2.05853 -1.91113 -0.59447 86 76 66
2.08163 -1.92395 -0.60238 85 76 65
2.10498 -1.93692 -0.61038 84 74 67
2.12861 -1.95004 -0.61847 83 73 68
2.15251 -1.96331 -0.62666 82 71 63
2.17669 -1.97673 -0.63494 83 71 60
2.20116 -1.99032 -0.64332 82 70 63
2.22591 -2.00406 -0.65180 82 68 62
2.25096 -2.01797 -0.66038 81 66 58
2.27630 -2.03204 -0.66906 78 65 57
2.30196 -2.04628 -0.67785 79 65 63
2.32792 -2.06070 -0.68674 77 67 57
2.35420 -2.07529 -0.69575 76 66 61
2.38080 -2.09006 -0.70486 78 64 70
2.40773 -2.10501 -0.71408 75 62 59
2.43499 -2.12015 -0.72342 71 61 56
2.46260 -2.13548 -0.73287 71 58 57
2.49055 -2.15099 -0.74245 67 54 58
2.51885 -2.16671 -0.75214 62 52 54
2.54752 -2.18262 -0.76196 58 51 51
2.03723 -1.90924 -0.60509 79 73 59
2.06015 -1.92202 -0.61304 83 73 61
2.08333 -1.93495 -0.62108 83 73 60
2.10677 -1.94802 -0.62922 83 72 61
2.13049 -1.96125 -0.63745 82 72 64
2.15449 -1.97463 -0.64578 82 71 63
2.17876 -1.98817 -0.65420 83 71 61
2.20332 -2.00187 -0.66272 81 71 65
2.22817 -2.01573 -0.67134 81 69 67
2.25332 -2.02975 -0.68007 80 65 64
2.27878 -2.04395 -0.68890 79 62 57
2.30453 -2.05831 -0.69784 78 65 63
2.33061 -2.07285 -0.70689 75 66 57
2.35700 -2.08757 -0.71604 75 65 62
2.38371 -2.10247 -0.72531 77 66 67
2.41076 -2.11755 -0.73470 73 62 57
2.43814 -2.13282 -0.74420 70 58 57
2.46586 -2.14828 -0.75382 67 58 56
2.49394 -2.16394 -0.76356 64 55 55
2.52237 -2.17980 -0.77342 59 53 52
2.06178 -1.93298 -0.63174 80 69 58
2.08504 -1.94602 -0.63992 81 69 56
2.10858 -1.95920 -0.64819 82 69 58
2.13239 -1.97254 -0.65656 81 70 63
2.15647 -1.98603 -0.66502 80 70 65
2.18084 -1.99968 -0.67359 80 69 61
2.20550 -2.01350 -0.68225 79 69 65
2.23046 -2.02748 -0.69102 78 68 66
2.25571 -2.04162 -0.69990 79 65 66
2.28126 -2.05594 -0.70888 78 64 58
2.30713 -2.07043 -0.71797 77 65 60
2.33331 -2.08509 -0.72717 75 66 57
2.35981 -2.09994 -0.73649 74 65 59
2.38664 -2.11497 -0.74591 75 65 58
2.41380 -2.13018 -0.75546 72 61 52
2.44130 -2.14559 -0.76513 70 59 52
2.46915 -2.16119 -0.77491 65 59 53
2.49735 -2.17698 -0.78483 61 57 58
2.08677 -1.95716 -0.65887 78 64 56
2.11039 -1.97046 -0.66728 80 66 56
2.13429 -1.98391 -0.67579 79 68 62
2.15848 -1.99751 -0.68440 78 69 65
2.18294 -2.01128 -0.69311 79 69 62
2.20770 -2.02521 -0.70192 77 68 65
2.23275 -2.03931 -0.71084 77 66 59
2.25811 -2.05357 -0.71987 80 65 63
2.28377 -2.06801 -0.72900 79 65 58
2.30974 -2.08263 -0.73824 77 66 59
2.33603 -2.09742 -0.74760 76 66 65
2.36265 -2.11239 -0.75708 74 64 60
2.38959 -2.12756 -0.76667 73 63 53
2.41687 -2.14291 -0.77638 73 62 52
2.44449 -2.15845 -0.78621 70 60 55
2.11222 -1.98179 -0.68651 77 64 59
2.13622 -1.99535 -0.69516 78 66 65
2.16049 -2.00907 -0.70391 78 68 64
2.18506 -2.02296 -0.71277 79 69 60
2.20991 -2.03700 -0.72173 77 68 63
2.23507 -2.05122 -0.73080 77 66 56
2.26053 -2.06561 -0.73997 79 65 60
2.28629 -2.08017 -0.74926 79 65 58
2.31237 -2.09491 -0.75866 77 66 59
2.33878 -2.10984 -0.76818 73 67 67
2.36550 -2.12494 -0.77782 74 63 61
2.39256 -2.14024 -0.78757 73 61 53
2.41996 -2.15572 -0.79745 72 61 52
2.13815 -2.00688 -0.71466 77 65 64
2.16252 -2.02071 -0.72356 77 67 63
2.18718 -2.03471 -0.73256 79 67 61
2.21214 -2.04888 -0.74167 78 67 65
2.23740 -2.06322 -0.75089 78 66 60
2.26296 -2.07773 -0.76023 78 65 64
2.28883 -2.09242 -0.76967 78 65 58
2.31502 -2.10729 -0.77923 76 65 58
2.34154 -2.12234 -0.78891 70 66 61
2.36838 -2.13758 -0.79871 71 64 60
2.39556 -2.15301 -0.80863 71 61 54
2.16457 -2.03243 -0.74334 71 66 56
2.18933 -2.04655 -0.75250 75 65 61
2.21438 -2.06084 -0.76176 77 66 62
2.23974 -2.07530 -0.77113 77 66 58
2.26541 -2.08994 -0.78062 77 66 62
2.29139 -2.10476 -0.79023 77 64 54
2.31769 -2.11976 -0.79995 76 64 55
2.34432 -2.13494 -0.80979 71 65 58
2.37128 -2.15031 -0.81975 70 65 58
2.19148 -2.05848 -0.77257 68 64 57
2.21664 -2.07289 -0.78199 74 66 56
2.24211 -2.08747 -0.79152 75 67 54
2.26788 -2.10224 -0.80116 75 66 57
2.29397 -2.11718 -0.81093 74 65 52
2.32038 -2.13231 -0.82081 73 65 54
2.34712 -2.14763 -0.83082 71 67 55
2.21892 -2.08502 -0.80236 69 66 60
2.24449 -2.09973 -0.81205 73 67 61
2.27037 -2.11462 -0.82185 74 66 57
2.29657 -2.12970 -0.83178 70 66 57
2.24688 -2.11207 -0.83272 71 66 63
2.27287 -2.12710 -0.84269 72 66 56
1.64564 -1.25134 0.15508 13 13 25
1.63503 -1.26180 0.16984 14 13 20
1.62450 -1.27219 0.18450 13 14 21
1.66573 -1.24574 0.12149 14 12 19
1.65495 -1.25632 0.13651 15 12 19
1.64425 -1.26681 0.15142 14 12 18
1.63362 -1.27724 0.16622 13 12 21
1.62308 -1.28758 0.18092 15 16 25
1.69723 -1.22927 0.07189 13 12 16
1.68619 -1.24004 0.08728 14 11 19
1.67524 -1.25073 0.10256 13 11 27
1.66437 -1.26134 0.11773 12 12 22
1.65357 -1.27188 0.13279 12 11 22
1.64286 -1.28234 0.14774 12 12 26
1.63222 -1.29273 0.16258 14 13 28
1.71825 -1.22334 0.03677 12 11 17
1.70704 -1.23423 0.05243 14 11 15
1.69591 -1.24504 0.06798 15 10 21
1.68486 -1.25577 0.08342 13 11 23
1.67389 -1.26643 0.09874 14 12 19
1.66300 -1.27700 0.11395 13 12 18
1.65219 -1.28750 0.12905 13 12 20
1.64146 -1.29793 0.14404 13 12 20
1.73967 -1.21729 0.00098 13 12 17
1.72827 -1.22831 0.01693 12 11 12
1.71696 -1.23924 0.03275 11 11 16
1.70573 -1.25010 0.04846 11 11 23
1.69458 -1.26087 0.06406 12 12 22
1.68351 -1.27157 0.07954 14 12 18
1.67253 -1.28218 0.09490 13 10 13
1.66162 -1.29272 0.11016 12 11 17
1.65080 -1.30319 0.12530 13 11 18
1.78494 -1.18859 -0.06832 14 10 11
1.77318 -1.19990 -0.05184 14 12 11
1.76150 -1.21113 -0.03548 12 13 10
1.74991 -1.22227 -0.01925 12 13 15
1.73841 -1.23334 -0.00314 13 12 13
1.72699 -1.24431 0.01285 12 13 14
1.71566 -1.25521 0.02872 11 12 20
1.70441 -1.26603 0.04448 12 13 22
1.69325 -1.27676 0.06012 12 12 20
1.68217 -1.28742 0.07564 11 11 17
1.67117 -1.29800 0.09105 13 11 20
1.66024 -1.30850 0.10635 12 11 17
1.64940 -1.31893 0.12154 11 13 16
1.80759 -1.18204 -0.10609 11 11 11
1.79562 -1.19349 -0.08931 12 13 11
1.78375 -1.20485 -0.07265 11 14 15
1.77196 -1.21613 -0.05612 12 13 14
1.76027 -1.22732 -0.03972 13 11 23
1.74866 -1.23842 -0.02344 13 11 16
1.73714 -1.24944 -0.00728 13 12 11
1.72571 -1.26038 0.00876 12 12 14
1.71436 -1.27124 0.02468 13 12 15
1.70309 -1.28202 0.04048 13 12 19
1.69191 -1.29272 0.05616 11 12 17
1.68081 -1.30334 0.07173 15 13 17
1.66980 -1.31388 0.08719 13 13 11
1.65886 -1.32435 0.10253 11 13 12
1.84294 -1.16369 -0.16183 11 12 10
1.83068 -1.17537 -0.14460 11 12 11
1.81851 -1.18695 -0.12750 13 13 7
1.80643 -1.19845 -0.11054 10 14 10
1.79444 -1.20986 -0.09371 9 15 11
1.78255 -1.22118 -0.07700 10 12 10
1.77075 -1.23242 -0.06042 13 10 18
1.75903 -1.24357 -0.04397 13 10 15
1.74741 -1.25463 -0.02764 13 11 7
1.73587 -1.26562 -0.01143 11 11 7
1.72442 -1.27652 0.00465 11 11 7
1.71305 -1.28734 0.02062 11 12 13
1.70177 -1.29808 0.03647 11 13 15
1.69057 -1.30874 0.05220 14 12 16
1.67946 -1.31932 0.06781 13 12 9
1.66842 -1.32982 0.08331 10 12 11
1.86670 -1.15674 -0.20142 13 12 11
1.85422 -1.16856 -0.18387 10 12 11
1.84184 -1.18029 -0.16645 11 12 10
1.82955 -1.19192 -0.14917 11 14 12
1.81736 -1.20347 -0.13202 9 13 15
1.80526 -1.21493 -0.11501 10 12 10
1.79326 -1.22629 -0.09812 10 11 9
1.78135 -1.23758 -0.08137 13 10 14
1.76952 -1.24877 -0.06474 13 10 12
1.75779 -1.25988 -0.04823 15 10 8
1.74615 -1.27091 -0.03186 12 10 10
1.73459 -1.28185 -0.01560 12 10 10
1.72312 -1.29271 0.00053 13 10 12
1.71174 -1.30349 0.01654 13 10 18
1.70044 -1.31420 0.03244 14 10 24
1.68922 -1.32482 0.04821 12 11 13
1.67809 -1.33536 0.06387 10 12 10
1.66704 -1.34582 0.07941 10 11 14
1.90374 -1.13760 -0.25984 10 10 9
1.89094 -1.14966 -0.24181 12 11 13
1.87824 -1.16162 -0.22393 11 11 20
1.86564 -1.17349 -0.20618 10 9 15
1.85314 -1.18527 -0.18857 13 10 12
1.84073 -1.19695 -0.17110 10 12 17
1.82843 -1.20855 -0.15376 8 11 21
1.81621 -1.22005 -0.13656 10 11 10
1.80410 -1.23147 -0.11949 10 11 16
1.79207 -1.24280 -0.10256 11 10 22
1.78014 -1.25404 -0.08575 11 10 16
1.76830 -1.26519 -0.06907 13 9 16
1.75655 -1.27626 -0.05252 11 9 15
1.74488 -1.28725 -0.03609 10 10 16
1.73331 -1.29815 -0.01979 13 10 13
1.72182 -1.30898 -0.00361 13 9 14
1.71042 -1.31972 0.01245 11 9 18
1.69911 -1.33038 0.02839 11 9 13
1.68787 -1.34096 0.04421 9 10 9
1.67672 -1.35146 0.05992 10 9 11
1.66566 -1.36189 0.07550 14 13 20
1.92869 -1.13022 -0.30140 11 12 15
1.91566 -1.14243 -0.28302 12 13 5
1.90274 -1.15454 -0.26479 11 11 14
1.88991 -1.16656 -0.24670 11 10 25
1.87719 -1.17848 -0.22875 10 9 17
1.86457 -1.19031 -0.21095 12 10 15
1.85205 -1.20204 -0.19329 9 10 12
1.83962 -1.21369 -0.17576 9 9 18
1.82729 -1.22524 -0.15837 10 9 14
1.81506 -1.23670 -0.14112 10 9 15
1.80292 -1.24808 -0.12400 10 10 13
1.79088 -1.25936 -0.10701 10 11 10
1.77893 -1.27056 -0.09015 10 8 14
1.76707 -1.28168 -0.07342 11 8 13
1.75530 -1.29271 -0.05682 11 9 12
1.74362 -1.30366 -0.04034 11 10 12
1.73202 -1.31452 -0.02399 10 10 16
1.72052 -1.32530 -0.00776 10 9 14
1.70910 -1.33600 0.00834 11 8 9
1.69777 -1.34662 0.02433 10 9 7
1.68652 -1.35716 0.04020 10 9 10
1.67535 -1.36763 0.05594 13 11 19
1.95416 -1.12268 -0.34381 13 10 24
1.94089 -1.13505 -0.32507 13 12 24
1.92774 -1.14732 -0.30648 10 14 8
1.91468 -1.15948 -0.28804 11 12 9
1.90173 -1.17156 -0.26975 11 10 15
1.88888 -1.18353 -0.25160 10 9 19
1.87614 -1.19541 -0.23360 12 9 23
1.86350 -1.20720 -0.21574 10 10 16
1.85095 -1.21889 -0.19802 8 10 12
1.83850 -1.23049 -0.18044 11 8 12
1.82616 -1.24200 -0.16300 13 10 14
1.81390 -1.25342 -0.14569 11 12 8
1.80174 -1.26476 -0.12852 10 11 8
1.78968 -1.27600 -0.11148 9 9 14
1.77771 -1.28716 -0.09457 10 10 15
1.76583 -1.29823 -0.07779 10 9 13
1.75404 -1.30922 -0.06114 9 10 11
1.74234 -1.32013 -0.04461 9 11 21
1.73073 -1.33095 -0.02821 11 9 13
1.71921 -1.34169 -0.01194 10 9 7
1.70777 -1.35235 0.00422 9 10 8
1.69642 -1.36293 0.02025 8 10 12
1.68515 -1.37343 0.03616 10 11 20
1.99378 -1.10236 -0.40636 13 10 21
1.98016 -1.11499 -0.38710 9 13 18
1.96665 -1.12752 -0.36799 12 12 19
1.95325 -1.13994 -0.34903 12 12 22
1.93996 -1.15226 -0.33023 9 13 9
1.92677 -1.16449 -0.31158 10 11 11
1.91369 -1.17661 -0.29309 11 8 14
1.90072 -1.18864 -0.27473 10 8 15
1.88785 -1.20057 -0.25653 10 9 16
1.87508 -1.21241 -0.23847 11 10 12
1.86242 -1.22415 -0.22056 10 10 8
1.84985 -1.23580 -0.20278 10 10 6
1.83738 -1.24736 -0.18515 11 11 8
1.82501 -1.25883 -0.16765 10 10 7
1.81274 -1.27021 -0.15029 11 10 10
1.80056 -1.28150 -0.13306 9 11 15
1.78848 -1.29270 -0.11597 9 9 17
1.77649 -1.30382 -0.09901 10 9 18
1.76459 -1.31485 -0.08218 11 10 15
1.75278 -1.32580 -0.06547 10 11 16
1.74106 -1.33666 -0.04890 10 10 9
1.72943 -1.34745 -0.03245 10 9 6
1.71789 -1.35815 -0.01613 8 9 9
1.70644 -1.36877 0.00008 7 10 13
1.69507 -1.37931 0.01616 7 11 16
1.68379 -1.38977 0.03212 10 13 18
2.03457 -1.08145 -0.47077 10 11 16
2.02057 -1.09435 -0.45095 11 8 14
2.00670 -1.10714 -0.43129 15 9 16
1.99294 -1.11983 -0.41180 14 10 11
1.97929 -1.13241 -0.39247 12 11 15
1.96575 -1.14490 -0.37330 11 10 25
1.95233 -1.15728 -0.35428 13 10 15
1.93901 -1.16955 -0.33542 11 9 18
1.92581 -1.18173 -0.31671 11 8 13
1.91270 -1.19381 -0.29815 12 9 10
1.89971 -1.20580 -0.27974 11 10 7
1.88681 -1.21769 -0.26148 11 11 6
1.87402 -1.22948 -0.24336 10 10 7
1.86134 -1.24118 -0.22539 9 9 8
1.84875 -1.25279 -0.20756 11 10 11
1.83626 -1.26430 -0.18987 12 9 12
1.82387 -1.27573 -0.17231 14 8 9
1.81157 -1.28707 -0.15490 10 9 12
1.79937 -1.29831 -0.13762 9 9 15
1.78727 -1.30948 -0.12048 10 9 12
1.77526 -1.32055 -0.10346 14 10 11
1.76334 -1.33154 -0.08658 12 12 11
1.75151 -1.34245 -0.06983 8 11 9
1.73978 -1.35327 -0.05320 9 10 6
1.72813 -1.36401 -0.03670 9 9 10
1.71657 -1.37467 -0.02033 9 9 13
1.70510 -1.38525 -0.00408 8 10 12
1.69371 -1.39574 0.01205 10 10 15
2.07657 -1.05990 -0.53710 13 10 13
2.06220 -1.07309 -0.51670 13 10 16
2.04794 -1.08616 -0.49648 10 11 15
2.03380 -1.09912 -0.47642 8 10 16
2.01978 -1.11198 -0.45654 11 9 14
2.00588 -1.12473 -0.43682 13 8 13
1.99209 -1.13737 -0.41726 12 10 12
1.97842 -1.14991 -0.39786 10 11 17
1.96486 -1.16235 -0.37863 10 9 10
1.95141 -1.17468 -0.35955 11 8 9
1.93807 -1.18692 -0.34062 10 9 10
1.92483 -1.19905 -0.32185 9 9 8
1.91171 -1.21109 -0.30324 9 10 6
1.89869 -1.22303 -0.28477 7 11 7
1.88577 -1.23487 -0.26645 9 10 9
1.87296 -1.24662 -0.24827 9 9 12
1.86025 -1.25828 -0.23024 10 9 16
1.84764 -1.26984 -0.21235 10 8 19
1.83513 -1.28132 -0.19461 13 9 9
1.82272 -1.29270 -0.17700 9 9 15
1.81040 -1.30399 -0.15953 8 8 20
1.79818 -1.31520 -0.14220 10 9 12
1.78606 -1.32632 -0.12500 17 10 9
1.77403 -1.33735 -0.10794 15 12 11
1.76209 -1.34830 -0.09100 11 11 10
1.75024 -1.35916 -0.07420 9 9 5
1.73849 -1.36994 -0.05752 10 9 7
1.72682 -1.38064 -0.04098 9 9 13
1.71524 -1.39125 -0.02455 8 9 14
1.70375 -1.40179 -0.00826 9 9 18
2.10508 -1.05118 -0.58445 13 10 18
2.09042 -1.06455 -0.56363 15 9 19
2.07589 -1.07780 -0.54299 13 10 22
2.06149 -1.09094 -0.52252 12 9 6
2.04720 -1.10396 -0.50223 10 9 12
2.03304 -1.11688 -0.48211 13 7 16
2.01899 -1.12969 -0.46215 12 8 18
2.00506 -1.14239 -0.44237 9 11 11
1.99124 -1.15499 -0.42274 10 9 11
1.97754 -1.16749 -0.40328 12 9 9
1.96396 -1.17988 -0.38398 13 8 11
1.95048 -1.19217 -0.36484 13 7 17
1.93712 -1.20436 -0.34585 10 9 12
1.92386 -1.21645 -0.32702 10 10 12
1.91071 -1.22844 -0.30834 10 10 16
1.89767 -1.24033 -0.28981 10 10 9
1.88473 -1.25213 -0.27143 10 10 8
1.87189 -1.26384 -0.25320 10 10 12
1.85916 -1.27545 -0.23511 9 10 15
1.84653 -1.28697 -0.21717 10 10 10
1.83399 -1.29840 -0.19937 11 9 12
1.82156 -1.30974 -0.18171 10 8 15
1.80922 -1.32099 -0.16418 10 10 11
1.79698 -1.33215 -0.14680 12 10 12
1.78484 -1.34323 -0.12955 13 12 17
1.77279 -1.35421 -0.11243 11 11 14
1.76083 -1.36512 -0.09544 10 11 7
1.74897 -1.37594 -0.07859 11 10 6
1.73719 -1.38668 -0.06186 9 9 12
1.72551 -1.39733 -0.04526 8 9 11
1.71391 -1.40791 -0.02879 9 9 13
2.14928 -1.02860 -0.65427 12 11 15
2.13421 -1.04227 -0.63283 11 11 10
2.11927 -1.05582 -0.61158 14 9 16
2.10445 -1.06925 -0.59051 16 9 19
2.08977 -1.08257 -0.56962 16 8 16
2.07521 -1.09577 -0.54891 15 9 6
2.06077 -1.10886 -0.52837 13 9 10
2.04646 -1.12185 -0.50801 16 8 11
2.03226 -1.13472 -0.48782 11 10 11
2.01819 -1.14748 -0.46780 11 10 15
2.00423 -1.16014 -0.44794 13 9 15
1.99039 -1.17269 -0.42825 13 9 13
1.97667 -1.18514 -0.40873 13 8 11
1.96305 -1.19748 -0.38936 14 8 13
1.94955 -1.20973 -0.37016 13 7 11
1.93616 -1.22187 -0.35111 12 8 9
1.92288 -1.23391 -0.33221 11 10 7
1.90971 -1.24586 -0.31347 11 10 7
1.89664 -1.25771 -0.29488 10 11 8
1.88368 -1.26947 -0.27644 8 11 8
1.87082 -1.28113 -0.25815 9 10 13
1.85806 -1.29269 -0.24001 10 10 13
1.84541 -1.30417 -0.22201 12 9 11
1.83285 -1.31555 -0.20415 11 7 13
1.82040 -1.32685 -0.18643 10 9 9
1.80804 -1.33805 -0.16885 12 10 9
1.79578 -1.34917 -0.15141 10 12 10
1.78362 -1.36020 -0.13411 10 11 16
1.77155 -1.37115 -0.11694 10 11 12
1.75957 -1.38201 -0.09990 9 10 8
1.74769 -1.39279 -0.08299 7 10 9
1.73589 -1.40348 -0.06622 6 11 7
1.72419 -1.41410 -0.04957 8 10 7
1.71258 -1.42463 -0.03305 11 9 13
1.70105 -1.43508 -0.01665 14 13 19
2.17935 -1.01930 -0.70419 12 11 16
2.16398 -1.03316 -0.68229 14 10 11
2.14875 -1.04690 -0.66059 13 11 9
2.13364 -1.06052 -0.63907 12 10 13
2.11867 -1.07402 -0.61774 12 10 19
2.10383 -1.08740 -0.59660 14 9 18
2.08911 -1.10067 -0.57564 14 7 8
2.07452 -1.11383 -0.55485 13 9 11
2.06006 -1.12687 -0.53424 18 8 17
2.04571 -1.13981 -0.51381 10 10 23
2.03149 -1.15263 -0.49355 9 10 20
2.01739 -1.16535 -0.47346 15 10 17
2.00340 -1.17796 -0.45354 12 10 7
1.98954 -1.19046 -0.43378 11 11 7
1.97578 -1.20286 -0.41419 13 9 11
1.96214 -1.21516 -0.39476 13 8 14
1.94862 -1.22736 -0.37549 12 7 11
1.93520 -1.23946 -0.35638 10 10 5
1.92190 -1.25146 -0.33743 12 9 7
1.90870 -1.26336 -0.31862 10 9 11
1.89561 -1.27516 -0.29997 9 9 15
1.88262 -1.28687 -0.28148 9 9 24
1.86974 -1.29849 -0.26313 10 9 12
1.85696 -1.31001 -0.24492 11 9 13
1.84429 -1.32144 -0.22686 9 8 13
1.83171 -1.33278 -0.20895 9 8 13
1.81923 -1.34403 -0.19118 11 8 15
1.80686 -1.35519 -0.17354 10 10 12
1.79457 -1.36626 -0.15605 9 12 19
1.78239 -1.37725 -0.13869 9 11 16
1.77030 -1.38815 -0.12147 7 11 16
1.75830 -1.39897 -0.10438 7 10 10
1.74640 -1.40971 -0.08742 8 11 8
1.73459 -1.42036 -0.07059 9 9 7
1.72287 -1.43093 -0.05389 9 9 14
1.71123 -1.44142 -0.03732 11 11 22
2.22592 -0.99561 -0.77780 13 13 22
2.21010 -1.00979 -0.75523 9 12 16
2.19442 -1.02385 -0.73286 11 11 12
2.17888 -1.03778 -0.71069 14 10 8
2.16348 -1.05159 -0.68872 17 11 4
2.14821 -1.06528 -0.66693 15 11 6
2.13308 -1.07885 -0.64534 12 9 12
2.11807 -1.09230 -0.62394 14 7 15
2.10320 -1.10564 -0.60272 13 6 9
2.08845 -1.11886 -0.58168 11 8 11
2.07383 -1.13197 -0.56082 13 6 15
2.05934 -1.14496 -0.54014 11 8 18
2.04496 -1.15785 -0.51964 11 10 15
2.03071 -1.17063 -0.49931 11 10 11
2.01658 -1.18329 -0.47915 12 9 4
2.00257 -1.19586 -0.45916 11 11 5
1.98868 -1.20831 -0.43934 12 7 13
1.97490 -1.22067 -0.41968 13 6 19
1.96123 -1.23292 -0.40019 11 8 13
1.94768 -1.24507 -0.38085 8 11 9
1.93424 -1.25712 -0.36168 7 11 12
1.92091 -1.26907 -0.34266 9 11 17
1.90769 -1.28093 -0.32380 7 9 14
1.89457 -1.29269 -0.30509 9 9 20
1.88156 -1.30435 -0.28653 10 10 11
1.86866 -1.31592 -0.26812 13 8 11
1.85586 -1.32740 -0.24986 11 8 8
1.84316 -1.33878 -0.23174 9 8 7
1.83056 -1.35008 -0.21377 11 8 6
1.81806 -1.36128 -0.19594 11 9 6
1.80566 -1.37240 -0.17825 11 10 9
1.79336 -1.38343 -0.16070 10 9 13
1.78116 -1.39437 -0.14329 8 10 12
1.76905 -1.40523 -0.12601 9 10 11
1.75703 -1.41600 -0.10887 9 9 9
1.74511 -1.42669 -0.09186 9 8 7
1.73328 -1.43730 -0.07498 9 8 10
1.72154 -1.44782 -0.05823 12 10 18
2.25769 -0.98568 -0.83049 13 10 19
2.24155 -1.00007 -0.80743 12 12 15
2.22555 -1.01433 -0.78458 11 11 14
2.20970 -1.02846 -0.76193 14 10 11
2.19399 -1.04246 -0.73948 13 10 11
2.17841 -1.05635 -0.71723 13 13 5
2.16298 -1.07011 -0.69517 11 13 8
2.14767 -1.08375 -0.67331 12 10 17
2.13251 -1.09727 -0.65164 13 7 24
2.11747 -1.11067 -0.63016 12 6 13
2.10257 -1.12396 -0.60886 13 8 13
2.08779 -1.13713 -0.58775 13 7 14
2.07314 -1.15019 -0.56682 10 8 13
2.05861 -1.16314 -0.54607 8 10 20
2.04421 -1.17597 -0.52550 10 10 16
2.02993 -1.18870 -0.50510 12 10 8
2.01577 -1.20132 -0.48487 11 10 9
2.00174 -1.21384 -0.46481 12 7 13
1.98781 -1.22625 -0.44492 13 6 11
1.97401 -1.23855 -0.42520 11 8 12
1.96032 -1.25076 -0.40564 7 9 16
1.94674 -1.26286 -0.38624 9 9 10
1.93327 -1.27486 -0.36700 7 9 12
1.91992 -1.28677 -0.34792 6 9 11
1.90667 -1.29858 -0.32899 8 10 13
1.89353 -1.31029 -0.31022 10 9 7
1.88050 -1.32191 -0.29160 14 7 15
1.86757 -1.33343 -0.27313 13 7 9
1.85475 -1.34486 -0.25481 10 8 9
1.84203 -1.35620 -0.23664 8 9 10
1.82941 -1.36745 -0.21861 9 9 8
1.81689 -1.37861 -0.20072 9 9 8
1.80447 -1.38968 -0.18298 7 10 10
1.79214 -1.40066 -0.16538 8 8 11
1.77992 -1.41156 -0.14791 9 8 18
1.76779 -1.42237 -0.13058 8 9 12
1.75575 -1.43310 -0.11338 7 8 7
1.74381 -1.44375 -0.09632 9 9 7
1.73196 -1.45431 -0.07939 12 8 13
2.29020 -0.97551 -0.88441 14 12 20
2.27373 -0.99012 -0.86084 12 11 16
2.25740 -1.00458 -0.83748 10 12 13
2.24122 -1.01892 -0.81433 12 12 14
2.22519 -1.03313 -0.79139 14 10 15
2.20930 -1.04721 -0.76865 12 11 12
2.19355 -1.06117 -0.74612 11 13 5
2.17794 -1.07500 -0.72379 10 13 8
2.16247 -1.08871 -0.70166 11 13 12
2.14714 -1.10230 -0.67972 12 11 17
2.13193 -1.11577 -0.65797 13 8 12
2.11687 -1.12912 -0.63641 12 9 11
2.10193 -1.14236 -0.61504 11 9 15
2.08712 -1.15548 -0.59385 10 8 17
2.07244 -1.16849 -0.57285 8 9 24
2.05789 -1.18139 -0.55203 10 10 11
2.04346 -1.19418 -0.53138 10 11 6
2.02915 -1.20686 -0.51091 10 10 10
2.01496 -1.21943 -0.49061 16 9 9
2.00089 -1.23189 -0.47048 14 8 4
1.98695 -1.24426 -0.45053 12 9 7
1.97311 -1.25651 -0.43074 9 10 9
1.95940 -1.26867 -0.41111 12 7 9
1.94579 -1.28073 -0.39165 11 7 10
1.93230 -1.29268 -0.37234 10 7 13
1.91892 -1.30454 -0.35320 12 8 12
1.90565 -1.31630 -0.33421 10 7 7
1.89249 -1.32796 -0.31538 11 9 11
1.87943 -1.33953 -0.29670 10 9 10
1.86648 -1.35101 -0.27817 9 9 13
1.85363 -1.36240 -0.25979 7 9 11
1.84089 -1.37369 -0.24156 8 9 10
1.82825 -1.38489 -0.22347 10 8 12
1.81571 -1.39600 -0.20553 9 9 8
1.80327 -1.40703 -0.18773 7 7 8
1.79092 -1.41797 -0.17007 8 8 15
1.77868 -1.42882 -0.15255 9 9 11
1.76653 -1.43959 -0.13516 9 9 10
1.75447 -1.45027 -0.11791 9 8 12
1.74251 -1.46087 -0.10080 11 9 13
1.73064 -1.47139 -0.08382 12 11 13
2.32347 -0.96511 -0.93959 13 12 20
2.30665 -0.97993 -0.91549 13 12 25
2.28998 -0.99462 -0.89160 12 11 19
2.27347 -1.00916 -0.86794 12 12 6
2.25711 -1.02358 -0.84449 13 11 11
2.24089 -1.03787 -0.82126 12 11 15
2.22482 -1.05202 -0.79823 12 12 15
2.20889 -1.06605 -0.77541 10 15 11
2.19311 -1.07996 -0.75280 11 15 11
2.17747 -1.09374 -0.73039 13 12 12
2.16196 -1.10740 -0.70817 11 11 17
2.14659 -1.12094 -0.68615 13 10 17
2.13136 -1.13436 -0.66432 12 8 13
2.11626 -1.14766 -0.64269 12 8 11
2.10129 -1.16084 -0.62124 11 9 14
2.08645 -1.17392 -0.59998 11 9 19
2.07174 -1.18688 -0.57890 11 10 13
2.05716 -1.19972 -0.55801 11 10 9
2.04270 -1.21246 -0.53729 10 8 14
2.02836 -1.22509 -0.51675 11 9 21
2.01415 -1.23762 -0.49638 9 8 23
2.00005 -1.25003 -0.47618 10 10 8
1.98607 -1.26235 -0.45616 7 10 6
1.97221 -1.27455 -0.43630 9 8 10
1.95847 -1.28666 -0.41661 10 8 14
1.90462 -1.33410 -0.33945 10 8 13
1.89144 -1.34572 -0.32056 9 8 14
1.87836 -1.35724 -0.30182 9 9 18
1.86538 -1.36867 -0.28323 10 8 13
1.85251 -1.38001 -0.26479 9 9 10
1.83975 -1.39125 -0.24650 11 7 13
1.82708 -1.40241 -0.22835 8 7 12
1.81452 -1.41348 -0.21035 9 7 10
1.80206 -1.42445 -0.19250 9 7 16
1.78969 -1.43535 -0.17478 8 8 14
1.77743 -1.44615 -0.15720 8 8 14
1.76526 -1.45687 -0.13977 8 7 18
1.75318 -1.46751 -0.12246 9 7 19
1.74120 -1.47807 -0.10530 10 9 9
2.34035 -0.96951 -0.97142 13 11 19
2.32333 -0.98441 -0.94700 13 12 22
2.30647 -0.99918 -0.92281 12 12 18
2.28977 -1.01381 -0.89884 12 12 11
2.27321 -1.02831 -0.87508 15 10 11
2.25681 -1.04267 -0.85155 12 9 15
2.24056 -1.05690 -0.82822 11 11 18
2.22445 -1.07101 -0.80511 11 14 15
2.20849 -1.08498 -0.78221 11 13 14
2.19267 -1.09884 -0.75951 13 9 7
2.17699 -1.11257 -0.73701 9 10 14
2.16145 -1.12617 -0.71472 9 11 15
2.14605 -1.13966 -0.69262 8 10 14
2.13078 -1.15303 -0.67071 9 9 20
2.11565 -1.16628 -0.64900 10 10 24
2.10065 -1.17942 -0.62747 11 10 20
2.08578 -1.19244 -0.60614 13 10 18
2.07104 -1.20535 -0.58498 11 9 17
2.05642 -1.21814 -0.56401 10 8 9
2.04193 -1.23083 -0.54322 12 9 20
2.02757 -1.24341 -0.52261 9 8 22
2.01333 -1.25588 -0.50217 11 9 16
1.99920 -1.26825 -0.48191 7 10 20
1.98520 -1.28052 -0.46181 8 9 11
1.87728 -1.37502 -0.30696 13 8 11
1.86428 -1.38640 -0.28831 10 9 9
1.85139 -1.39769 -0.26981 10 8 12
1.83860 -1.40889 -0.25146 8 8 17
1.82592 -1.42000 -0.23326 8 10 12
1.81333 -1.43102 -0.21520 9 9 15
1.80085 -1.44195 -0.19728 7 8 14
1.78846 -1.45280 -0.17951 8 7 16
1.77617 -1.46356 -0.16188 9 6 20
1.76398 -1.47423 -0.14439 9 7 19
1.75189 -1.48482 -0.12703 9 8 14
2.35747 -0.97397 -1.00372 15 12 19
2.34025 -0.98896 -0.97897 14 12 20
2.32319 -1.00381 -0.95445 12 12 17
2.30629 -1.01852 -0.93016 10 12 12
2.28954 -1.03310 -0.90610 8 12 11
2.27295 -1.04754 -0.88226 10 11 14
2.25651 -1.06185 -0.85863 12 11 14
2.24022 -1.07603 -0.83522 14 11 8
2.22408 -1.09008 -0.81202 12 12 12
2.20808 -1.10401 -0.78903 14 10 7
2.19222 -1.11781 -0.76625 11 10 12
2.17651 -1.13148 -0.74367 10 11 13
2.16094 -1.14504 -0.72129 7 10 15
2.14550 -1.15847 -0.69911 9 8 16
2.13020 -1.17179 -0.67713 8 9 17
2.11504 -1.18499 -0.65533 10 8 20
2.10001 -1.19807 -0.63373 10 10 16
2.08510 -1.21104 -0.61232 8 10 16
2.07033 -1.22390 -0.59109 9 11 9
2.05569 -1.23665 -0.57005 10 9 14
2.04117 -1.24928 -0.54918 7 8 18
2.02677 -1.26181 -0.52850 8 9 12
2.01250 -1.27424 -0.50799 7 10 13
1.99835 -1.28655 -0.48766 9 8 14
1.86318 -1.40421 -0.29341 10 7 13
1.85026 -1.41545 -0.27485 11 6 12
1.83745 -1.42660 -0.25644 8 8 9
1.82474 -1.43766 -0.23818 9 9 16
1.81214 -1.44864 -0.22006 9 8 11
1.79963 -1.45952 -0.20209 9 6 15
1.78722 -1.47032 -0.18426 11 6 21
1.77492 -1.48103 -0.16658 9 8 15
1.76270 -1.49166 -0.14903 9 8 11
1.75059 -1.50221 -0.13162 11 10 12
2.35742 -0.99357 -1.01140 14 12 25
2.34015 -1.00850 -0.98655 13 12 23
2.32305 -1.02330 -0.96194 11 12 13
2.30611 -1.03796 -0.93756 7 14 12
2.28932 -1.05248 -0.91340 9 13 18
2.27269 -1.06687 -0.88947 11 12 21
2.25621 -1.08112 -0.86575 12 11 10
2.23988 -1.09525 -0.84225 10 12 12
2.22370 -1.10925 -0.81897 11 11 12
2.20767 -1.12312 -0.79589 12 11 12
2.19178 -1.13686 -0.77302 9 10 21
2.17603 -1.15049 -0.75036 8 11 15
2.16042 -1.16399 -0.72790 10 8 14
2.14495 -1.17737 -0.70564 10 10 13
2.12962 -1.19064 -0.68357 8 9 17
2.11442 -1.20378 -0.66170 9 11 18
2.09936 -1.21681 -0.64002 8 11 21
2.08443 -1.22973 -0.61853 7 10 16
2.06962 -1.24254 -0.59723 9 9 18
2.05495 -1.25523 -0.57611 9 8 15
2.04040 -1.26782 -0.55517 9 8 12
2.02598 -1.28030 -0.53442 9 8 10
2.01168 -1.29267 -0.51384 8 9 15
1.83629 -1.44439 -0.26144 8 9 13
1.82356 -1.45540 -0.24312 9 9 11
1.81094 -1.46633 -0.22495 9 6 17
1.79841 -1.47717 -0.20692 10 6 16
1.78598 -1.48792 -0.18904 10 8 10
1.77365 -1.49858 -0.17129 9 9 8
1.76142 -1.50916 -0.15369 11 9 6
2.35736 -1.01327 -1.01911 13 11 16
2.34005 -1.02814 -0.99417 11 13 16
2.32291 -1.04288 -0.96947 10 12 17
2.30593 -1.05749 -0.94499 10 11 15
2.28910 -1.07195 -0.92074 13 12 12
2.27243 -1.08629 -0.89671 15 11 8
2.25591 -1.10049 -0.87290 10 11 10
2.23954 -1.11456 -0.84932 11 10 14
2.22333 -1.12850 -0.82594 13 9 13
2.20725 -1.14232 -0.80278 11 11 13
2.19133 -1.15601 -0.77983 10 9 7
2.17555 -1.16958 -0.75708 13 8 10
2.15990 -1.18303 -0.73454 11 9 8
2.14440 -1.19636 -0.71219 10 10 12
2.12903 -1.20957 -0.69005 11 10 11
2.11380 -1.22266 -0.66810 9 10 11
2.09871 -1.23564 -0.64634 9 8 20
2.08374 -1.24851 -0.62477 11 8 18
2.06891 -1.26126 -0.60339 7 8 9
2.05421 -1.27391 -0.58220 9 9 14
2.03963 -1.28644 -0.56119 9 9 12
2.02517 -1.29887 -0.54036 6 11 11
1.83513 -1.46226 -0.26647 8 7 10
1.82238 -1.47322 -0.24809 7 6 22
1.80973 -1.48410 -0.22985 7 6 18
1.79718 -1.49489 -0.21177 9 7 14
1.78473 -1.50559 -0.19383 8 8 15
1.77238 -1.51621 -0.17603 10 8 9
2.37481 -1.01810 -1.05215 13 10 16
2.35730 -1.03306 -1.02687 11 12 17
2.33995 -1.04788 -1.00183 10 12 18
2.32277 -1.06257 -0.97703 10 11 15
2.30574 -1.07711 -0.95245 12 10 13
2.28888 -1.09152 -0.92811 13 10 13
2.27216 -1.10580 -0.90399 12 12 16
2.25561 -1.11995 -0.88009 11 11 25
2.23920 -1.13396 -0.85641 10 9 19
2.22295 -1.14785 -0.83295 10 11 17
2.20684 -1.16161 -0.80970 10 10 13
2.19088 -1.17525 -0.78666 12 8 14
2.17506 -1.18877 -0.76383 9 11 16
2.15938 -1.20216 -0.74120 8 11 21
2.14385 -1.21544 -0.71878 10 10 14
2.12845 -1.22859 -0.69655 9 10 12
2.11318 -1.24163 -0.67452 9 8 23
2.09806 -1.25456 -0.65269 12 8 24
2.08306 -1.26737 -0.63104 10 8 13
2.06820 -1.28007 -0.60959 11 7 16
2.05346 -1.29266 -0.58832 10 8 17
2.03885 -1.30514 -0.56723 9 8 9
1.83397 -1.48020 -0.27151 6 9 15
1.82119 -1.49111 -0.25307 5 7 15
1.80852 -1.50194 -0.23478 8 8 14
1.79595 -1.51268 -0.21664 9 9 11
1.78348 -1.52333 -0.19864 8 9 9
1.77111 -1.53390 -0.18079 8 10 13
2.37480 -1.03805 -1.06005 12 10 23
2.35724 -1.05295 -1.03467 12 11 23
2.33985 -1.06772 -1.00953 12 10 16
2.32262 -1.08235 -0.98463 13 9 16
2.30556 -1.09684 -0.95996 12 10 16
2.28865 -1.11119 -0.93552 13 11 18
2.27190 -1.12541 -0.91131 12 11 19
2.25530 -1.13950 -0.88732 11 11 12
2.23886 -1.15346 -0.86355 9 11 15
2.22257 -1.16729 -0.84000 10 10 16
2.20642 -1.18100 -0.81666 9 10 15
2.19042 -1.19458 -0.79353 9 11 12
2.17457 -1.20804 -0.77062 8 10 19
2.15886 -1.22138 -0.74790 10 10 17
2.14329 -1.23460 -0.72540 8 9 17
2.12786 -1.24771 -0.70309 7 9 14
2.11256 -1.26069 -0.68098 10 9 15
2.09740 -1.27356 -0.65906 10 8 15
2.08237 -1.28632 -0.63734 9 7 17
2.06748 -1.29897 -0.61581 10 8 10
2.05271 -1.31151 -0.59446 11 6 4
2.03807 -1.32393 -0.57330 10 7 10
1.83280 -1.49821 -0.27658 7 8 7
1.82000 -1.50908 -0.25808 7 7 9
1.80730 -1.51986 -0.23973 6 9 9
1.79471 -1.53055 -0.22153 5 9 9
1.78222 -1.54115 -0.20347 5 10 8
1.76983 -1.55167 -0.18556 8 15 13
2.39255 -1.04311 -1.09371 13 11 17
2.37478 -1.05810 -1.06798 12 12 15
2.35718 -1.07295 -1.04250 12 11 11
2.33975 -1.08766 -1.01726 13 9 13
2.32248 -1.10222 -0.99226 14 10 14
2.30537 -1.11666 -0.96750 14 12 16
2.28842 -1.13095 -0.94296 10 12 17
2.27163 -1.14512 -0.91866 11 10 13
2.25500 -1.15915 -0.89457 10 10 14
2.23852 -1.17305 -0.87071 10 8 19
2.22219 -1.18683 -0.84707 8 10 23
2.20601 -1.20048 -0.82365 11 8 12
2.18997 -1.21401 -0.80044 12 8 12
2.17408 -1.22741 -0.77743 12 9 13
2.15833 -1.24070 -0.75464 9 9 12
2.14273 -1.25386 -0.73205 8 10 8
2.12726 -1.26691 -0.70966 12 10 8
2.11193 -1.27984 -0.68747 10 8 13
2.09674 -1.29266 -0.66547 9 9 19
