ply
format ascii 1.0
element face 0
property list uchar int vertex_indices
element vertex 1447
property float x
property float y
property float z
property uchar diffuse_red
property uchar diffuse_green
property uchar diffuse_blue
end_header
-0.80186 -0.97547 1.86803 0 0 0
-0.81135 -0.97279 1.86209 255 255 255
-0.82801 -0.96462 1.84197 255 255 255
-0.83515 -0.95879 1.83099 255 255 255
-0.84604 -0.95304 1.82071 255 255 255
-0.85311 -0.94533 1.80919 255 255 255
-0.86119 -0.93755 1.79931 255 255 255
-0.87017 -0.92948 1.79002 255 255 255
-0.87943 -0.91961 1.78068 0 0 0
-0.89003 -0.90807 1.76927 0 0 0
-0.90104 -0.89753 1.76213 0 0 0
-0.91457 -0.88616 1.75178 0 0 0
-0.92731 -0.87210 1.73719 0 0 0
-0.93638 -0.85787 1.72557 0 0 0
-0.94993 -0.84499 1.71641 0 0 0
-0.96636 -0.83255 1.70326 0 0 0
-0.97425 -0.81664 1.68850 0 0 0
-0.98413 -0.80105 1.67320 0 0 0
-0.99309 -0.78446 1.65528 0 0 0
-0.99858 -0.76872 1.64162 0 0 0
-1.00985 -0.75544 1.62907 0 0 0
-1.01952 -0.74242 1.61730 0 0 0
-1.02534 -0.72808 1.60246 0 0 0
-1.03167 -0.71357 1.59012 0 0 0
-1.03954 -0.70336 1.58032 255 255 255
-1.04515 -0.69082 1.56694 255 255 255
-1.04897 -0.67548 1.55261 255 255 255
-1.05442 -0.66351 1.54206 255 255 255
-1.06119 -0.65426 1.53367 255 255 255
-1.06451 -0.64203 1.51834 0 0 0
-1.06581 -0.62813 1.50321 0 0 0
-1.07391 -0.62281 1.49940 0 0 0
-1.07687 -0.61297 1.48424 0 0 0
-1.07799 -0.60144 1.46992 0 0 0
-1.08387 -0.59541 1.46529 0 0 0
-1.08612 -0.58539 1.45318 0 0 0
-1.08726 -0.57467 1.43876 0 0 0
-1.09195 -0.56802 1.43083 0 0 0
-1.09345 -0.55868 1.41927 0 0 0
-1.09325 -0.54683 1.40389 0 0 0
-1.09807 -0.54050 1.39758 0 0 0
-1.09888 -0.53093 1.38651 0 0 0
-1.09556 -0.51683 1.37002 0 0 0
-1.09967 -0.50963 1.36342 0 0 0
-1.10228 -0.50377 1.35570 0 0 0
-1.10114 -0.49426 1.34156 0 0 0
-1.10004 -0.48363 1.32898 0 0 0
-1.10399 -0.47710 1.32428 0 0 0
-1.10292 -0.46827 1.30854 0 0 0
-1.10187 -0.45880 1.29874 0 0 0
-1.10631 -0.45340 1.29659 0 0 0
-1.10782 -0.44700 1.29039 255 255 255
-1.10670 -0.43290 1.26619 255 255 255
-1.10771 -0.42644 1.25555 255 255 255
-1.10687 -0.41961 1.23988 255 255 255
-1.10612 -0.41343 1.22702 255 255 255
-1.10601 -0.40768 1.21986 255 255 255
-1.10460 -0.40114 1.20868 255 255 255
-1.10426 -0.39503 1.19827 255 255 255
-1.10382 -0.38878 1.19267 0 0 0
-1.10199 -0.38095 1.18552 0 0 0
-1.10090 -0.37338 1.17507 0 0 0
-1.09865 -0.36531 1.16200 0 0 0
-1.09782 -0.35717 1.15442 0 0 0
-1.09843 -0.35100 1.14823 0 0 0
-1.09358 -0.33437 1.12408 0 0 0
-1.09289 -0.32811 1.11509 0 0 0
-1.09155 -0.31687 1.10560 0 0 0
-1.09136 -0.31227 1.09892 0 0 0
-1.09256 -0.30858 1.09425 0 0 0
-1.09099 -0.30359 1.08813 0 0 0
-1.08873 -0.29920 1.07881 0 0 0
-1.08580 -0.29606 1.06824 0 0 0
-1.08463 -0.29253 1.05926 0 0 0
-1.08492 -0.29177 1.05586 0 0 0
-1.08652 -0.29274 1.05553 0 0 0
-1.08779 -0.29363 1.05592 0 0 0
-1.09127 -0.29587 1.06007 0 0 0
-1.09434 -0.29949 1.06238 0 0 0
-1.09971 -0.30465 1.06932 0 0 0
-1.10526 -0.31000 1.07768 0 0 0
-1.10972 -0.31607 1.08397 0 0 0
-1.11413 -0.32250 1.09105 0 0 0
-1.12157 -0.33098 1.10361 0 0 0
-1.12495 -0.33928 1.10814 0 0 0
-1.13034 -0.34890 1.11860 0 0 0
-1.13546 -0.35843 1.12940 0 0 0
-1.13898 -0.36807 1.13780 0 0 0
-1.14387 -0.37892 1.15042 0 0 0
-1.14790 -0.39023 1.16103 0 0 0
-1.15151 -0.40158 1.17023 0 0 0
-1.15544 -0.41402 1.18245 0 0 0
-1.15911 -0.42629 1.19420 0 0 0
-1.16164 -0.43852 1.20300 0 0 0
-1.16453 -0.45134 1.21279 0 0 0
-1.16845 -0.46473 1.22515 0 0 0
-1.17144 -0.47741 1.23527 0 0 0
-1.17463 -0.48971 1.24455 0 0 0
-1.17843 -0.50202 1.25551 0 0 0
-1.18103 -0.51343 1.26154 0 0 0
-1.18281 -0.52437 1.26720 0 0 0
-1.18695 -0.53654 1.27935 0 0 0
-1.19071 -0.54800 1.29144 0 0 0
-1.19310 -0.55904 1.30133 0 0 0
-1.20051 -0.58235 1.32687 0 0 0
-1.20348 -0.59432 1.33611 0 0 0
-1.20646 -0.60579 1.34498 0 0 0
-1.21100 -0.61896 1.35803 0 0 0
-1.21289 -0.62989 1.36571 0 0 0
-1.22242 -0.65592 1.39753 0 0 0
-1.22584 -0.66425 1.40741 0 0 0
-1.23008 -0.67363 1.42037 0 0 0
-1.23587 -0.68650 1.43642 0 0 0
-1.24410 -0.71202 1.46315 0 0 0
-1.24751 -0.72596 1.47732 0 0 0
-1.25167 -0.74117 1.49371 0 0 0
-1.25507 -0.75545 1.50616 0 0 0
-1.25840 -0.76948 1.51863 0 0 0
-1.26170 -0.78511 1.53093 255 255 255
-1.26794 -0.81498 1.56142 255 255 255
-1.26873 -0.82901 1.57368 255 255 255
-1.27216 -0.84510 1.58964 255 255 255
-1.27489 -0.86100 1.60202 255 255 255
-1.27734 -0.87669 1.61678 0 0 0
-1.27955 -0.89279 1.62904 0 0 0
-1.28054 -0.90176 1.63788 0 0 0
-1.28323 -0.91678 1.65219 0 0 0
-1.28545 -0.93014 1.66659 0 0 0
-1.28781 -0.94348 1.68006 0 0 0
-1.28886 -0.95563 1.68829 0 0 0
-1.28862 -0.96704 1.69963 0 0 0
-1.28847 -0.97757 1.71520 0 0 0
-1.28743 -0.98871 1.72581 0 0 0
-1.28517 -0.99849 1.73288 0 0 0
-1.28343 -1.00964 1.74207 0 0 0
-1.27918 -1.01952 1.74789 0 0 0
-1.27474 -1.03111 1.76009 0 0 0
-1.26907 -1.04169 1.77112 0 0 0
-1.26263 -1.05101 1.77843 0 0 0
-1.24656 -1.07009 1.79520 0 0 0
-1.23798 -1.07596 1.78586 0 0 0
-1.22768 -1.07761 1.78072 0 0 0
-1.21150 -1.09637 1.80153 0 0 0
-1.20258 -1.10151 1.80966 0 0 0
-1.19355 -1.10932 1.82260 0 0 0
-1.18338 -1.11425 1.82751 255 255 255
-1.16214 -1.12493 1.83562 255 255 255
-1.14976 -1.12887 1.84056 255 255 255
-1.13784 -1.13466 1.84680 255 255 255
-1.12474 -1.13620 1.84536 255 255 255
-1.11299 -1.14029 1.85125 255 255 255
-1.10204 -1.14663 1.85980 255 255 255
-1.09054 -1.15020 1.86211 255 255 255
-1.08091 -1.15550 1.86924 0 0 0
-1.07196 -1.15976 1.87666 0 0 0
-1.06350 -1.16443 1.88861 0 0 0
-1.05730 -1.17205 1.90438 0 0 0
-1.05121 -1.18028 1.91695 0 0 0
-1.04645 -1.18617 1.92086 0 0 0
-1.04113 -1.19448 1.93134 0 0 0
-1.03568 -1.20541 1.94366 0 0 0
-1.03149 -1.21594 1.95098 0 0 0
-1.02676 -1.22510 1.95698 0 0 0
-1.02155 -1.23515 1.96496 0 0 0
-1.01738 -1.24663 1.97364 0 0 0
-1.01354 -1.25747 1.98530 0 0 0
-1.00938 -1.26903 2.00411 0 0 0
-1.00728 -1.28073 2.02032 0 0 0
-1.00675 -1.29258 2.03470 0 0 0
-1.00607 -1.30655 2.05329 0 0 0
-1.00568 -1.31814 2.06543 0 0 0
-1.00561 -1.32984 2.07608 0 0 0
-1.00451 -1.34234 2.09264 0 0 0
-1.00420 -1.35495 2.11227 0 0 0
-1.00406 -1.36995 2.13202 0 0 0
-1.00435 -1.37992 2.14400 0 0 0
-1.00601 -1.39413 2.16095 0 0 0
-1.00797 -1.40688 2.17918 255 255 255
-1.01414 -1.43651 2.21599 255 255 255
-1.01659 -1.45146 2.22795 255 255 255
-1.01779 -1.46589 2.24298 255 255 255
-1.02014 -1.48055 2.25928 255 255 255
-1.02161 -1.49417 2.27148 255 255 255
-1.02326 -1.50768 2.28531 255 255 255
-1.02360 -1.52238 2.30081 0 0 0
-1.02328 -1.53489 2.31432 0 0 0
-1.02416 -1.54581 2.33016 0 0 0
-1.02777 -1.56031 2.34508 0 0 0
-1.02901 -1.57397 2.35531 0 0 0
-1.02931 -1.58618 2.36630 0 0 0
-1.02879 -1.59727 2.37764 0 0 0
-1.02984 -1.60817 2.39034 0 0 0
-1.02936 -1.62022 2.40271 0 0 0
-1.02885 -1.62981 2.41393 0 0 0
-1.03167 -1.64050 2.42543 0 0 0
-1.03294 -1.65182 2.43497 0 0 0
-1.03349 -1.66166 2.44599 0 0 0
-1.03607 -1.67383 2.45855 0 0 0
-1.03798 -1.68479 2.47270 0 0 0
-1.04019 -1.69175 2.48023 0 0 0
-1.04153 -1.69791 2.48809 0 0 0
-1.03760 -1.70049 2.49422 0 0 0
-1.04018 -1.70956 2.50465 0 0 0
-1.04298 -1.72030 2.51325 0 0 0
-1.04369 -1.72709 2.52311 0 0 0
-1.04774 -1.73805 2.53562 0 0 0
-1.04865 -1.74552 2.54292 0 0 0
-1.04924 -1.75319 2.55256 0 0 0
-1.04916 -1.75919 2.55787 0 0 0
-1.05146 -1.76762 2.56414 0 0 0
-1.05173 -1.77475 2.57216 0 0 0
-1.05002 -1.78343 2.58124 255 255 255
-1.04963 -1.79133 2.59101 255 255 255
-1.05466 -1.80017 2.60004 255 255 255
-1.05028 -1.80914 2.60788 255 255 255
-1.05078 -1.81546 2.61659 255 255 255
-1.05924 -1.82334 2.62601 255 255 255
-1.05176 -1.83165 2.63283 255 255 255
-1.04821 -1.83883 2.63930 255 255 255
-1.04636 -1.84427 2.64500 255 255 255
-1.03836 -1.85150 2.65054 255 255 255
-1.04027 -1.85637 2.65733 0 0 0
-1.04771 -1.86227 2.66402 0 0 0
-1.04517 -1.86797 2.66955 0 0 0
-1.04330 -1.87334 2.67523 0 0 0
-1.04520 -1.87854 2.68174 0 0 0
-1.04529 -1.88307 2.68755 0 0 0
-1.04289 -1.88785 2.69237 0 0 0
-1.04485 -1.89246 2.69733 0 0 0
-1.04679 -1.89525 2.70116 0 0 0
-1.04530 -1.89870 2.70385 0 0 0
-1.04697 -1.90046 2.70576 0 0 0
-1.05938 -1.90015 2.70791 0 0 0
-1.06183 -1.90303 2.70813 0 0 0
-1.05556 -1.90487 2.70683 0 0 0
-1.06055 -1.90494 2.70649 0 0 0
-1.06820 -1.90362 2.70373 0 0 0
-1.06882 -1.90320 2.69867 0 0 0
-1.07355 -1.89983 2.69365 0 0 0
-1.09174 -1.89408 2.68860 0 0 0
-1.09756 -1.89104 2.67873 0 0 0
-1.09611 -1.88386 2.66736 0 0 0
-1.10900 -1.87475 2.65751 0 0 0
-1.11373 -1.86834 2.64484 0 0 0
-1.11619 -1.85796 2.63150 0 0 0
-1.12504 -1.84629 2.61751 0 0 0
-1.13942 -1.83364 2.60399 0 0 0
-1.14870 -1.81867 2.58946 0 0 0
-1.14868 -1.80458 2.57139 0 0 0
-1.15866 -1.78788 2.55348 0 0 0
-1.17332 -1.76851 2.53407 0 0 0
-1.18670 -1.74878 2.51342 0 0 0
-1.19293 -1.72879 2.49262 0 0 0
-1.20907 -1.70703 2.47147 0 0 0
-1.22313 -1.68586 2.45065 0 0 0
-1.25325 -1.64321 2.41069 0 0 0
-1.26106 -1.62336 2.39037 0 0 0
-1.27031 -1.60115 2.37099 0 0 0
-1.28423 -1.58108 2.35085 0 0 0
-1.30184 -1.56206 2.33164 0 0 0
-1.31809 -1.54474 2.31356 0 0 0
-1.33103 -1.52845 2.29596 0 0 0
-1.33896 -1.51296 2.27763 0 0 0
-1.34741 -1.49653 2.26049 0 0 0
-1.35761 -1.48238 2.24411 255 255 255
-1.36429 -1.46597 2.22756 255 255 255
-1.37821 -1.45168 2.21115 255 255 255
-1.38194 -1.43855 2.19684 255 255 255
-1.38480 -1.42487 2.18393 255 255 255
-1.39451 -1.41121 2.17147 255 255 255
-1.40878 -1.39469 2.15748 0 0 0
-1.40254 -1.38584 2.14746 0 0 0
-1.40233 -1.37457 2.13798 0 0 0
-1.41004 -1.35971 2.12521 0 0 0
-1.40579 -1.34996 2.11428 0 0 0
-1.39483 -1.34322 2.10694 0 0 0
-1.39523 -1.33053 2.09456 0 0 0
-1.39481 -1.31764 2.08139 0 0 0
-1.38582 -1.30953 2.07175 0 0 0
-1.38013 -1.29728 2.05940 0 0 0
-1.37517 -1.28550 2.04460 0 0 0
-1.36016 -1.27660 2.03275 0 0 0
-1.34986 -1.26597 2.01885 0 0 0
-1.34086 -1.25433 2.00290 0 0 0
-1.32894 -1.24247 1.98742 0 0 0
-1.31767 -1.23041 1.97100 0 0 0
-1.31400 -1.21423 1.95214 0 0 0
-1.29913 -1.20172 1.93715 0 0 0
-1.28127 -1.18685 1.92298 0 0 0
-1.27070 -1.16919 1.90716 0 0 0
-1.26020 -1.15073 1.89173 0 0 0
-1.24735 -1.13470 1.87803 0 0 0
-1.23688 -1.11546 1.86425 0 0 0
-1.22998 -1.09750 1.85048 0 0 0
-1.22613 -1.07990 1.83851 255 255 255
-1.22117 -1.06338 1.82367 255 255 255
-1.20394 -1.05053 1.81639 255 255 255
-1.19703 -1.03483 1.80588 255 255 255
-1.18866 -1.02212 1.79598 255 255 255
-1.17794 -1.00851 1.78611 255 255 255
-1.17135 -0.99414 1.77680 0 0 0
-1.17224 -0.98106 1.76537 0 0 0
-1.17016 -0.96790 1.75366 0 0 0
-1.16899 -0.95699 1.74357 0 0 0
-1.16927 -0.94452 1.73179 0 0 0
-1.16426 -0.93401 1.72324 0 0 0
-1.15719 -0.92604 1.71722 0 0 0
-1.14730 -0.91884 1.71246 0 0 0
-1.14436 -0.90856 1.70462 0 0 0
-1.14106 -0.89728 1.69555 0 0 0
-1.13420 -0.88804 1.68756 0 0 0
-1.12958 -0.87677 1.67804 0 0 0
-1.12776 -0.86480 1.66803 0 0 0
-1.12498 -0.85228 1.65724 0 0 0
-1.12146 -0.84064 1.64682 0 0 0
-1.11672 -0.82859 1.63770 0 0 0
-1.11790 -0.81300 1.62474 0 0 0
-1.11626 -0.79905 1.61233 0 0 0
-1.11570 -0.78338 1.59766 0 0 0
-1.11799 -0.76645 1.58057 0 0 0
-1.11495 -0.75070 1.56807 0 0 0
-1.11303 -0.73392 1.55665 0 0 0
-1.10909 -0.71802 1.54603 0 0 0
-1.10695 -0.70164 1.53587 0 0 0
-1.11424 -0.67815 1.51773 0 0 0
-1.11188 -0.66010 1.50159 0 0 0
-1.10480 -0.64388 1.49321 0 0 0
-1.10832 -0.62227 1.47706 0 0 0
-1.10220 -0.60545 1.46187 0 0 0
-1.09534 -0.58742 1.44621 255 255 255
-1.08112 -0.53349 1.39360 255 255 255
-1.07254 -0.51523 1.37810 255 255 255
-1.07556 -0.49714 1.36094 255 255 255
-1.06645 -0.48298 1.34755 255 255 255
-1.05355 -0.46759 1.33367 0 0 0
-1.05128 -0.45359 1.32196 0 0 0
-1.04373 -0.44235 1.31183 0 0 0
-1.02916 -0.43267 1.30230 0 0 0
-1.00848 -0.41065 1.27893 0 0 0
-0.99341 -0.40095 1.26717 0 0 0
-0.95894 -0.38384 1.24801 0 0 0
-0.90450 -0.36001 1.22756 0 0 0
-0.87900 -0.35314 1.22176 0 0 0
-0.83632 -0.34057 1.21061 0 0 0
-0.81227 -0.33323 1.20635 0 0 0
-0.79025 -0.32687 1.20360 0 0 0
-0.76451 -0.32054 1.20150 0 0 0
-0.71424 -0.30851 1.20191 0 0 0
-0.69186 -0.30141 1.20025 0 0 0
-0.66782 -0.29528 1.19899 0 0 0
-0.65021 -0.29288 1.19529 0 0 0
-0.62949 -0.29003 1.19434 255 255 255
-0.58827 -0.28451 1.19216 255 255 255
-0.56003 -0.28032 1.18641 255 255 255
-0.53626 -0.27716 1.18448 255 255 255
-0.51793 -0.27430 1.18378 255 255 255
-0.49553 -0.27091 1.17915 255 255 255
-0.47658 -0.26680 1.17929 0 0 0
-0.46528 -0.26256 1.18070 0 0 0
-0.45451 -0.25742 1.18115 0 0 0
-0.44128 -0.25278 1.18062 0 0 0
-0.42548 -0.24738 1.17985 0 0 0
-0.40951 -0.24170 1.17794 0 0 0
-0.39032 -0.23604 1.17588 0 0 0
-0.37486 -0.23069 1.17509 0 0 0
-0.36253 -0.22617 1.17396 0 0 0
-0.34865 -0.22119 1.17391 0 0 0
-0.32425 -0.21008 1.17013 0 0 0
-0.30810 -0.20459 1.16722 0 0 0
-0.29608 -0.19815 1.16469 0 0 0
-0.28125 -0.19110 1.16050 0 0 0
-0.25577 -0.17431 1.15590 0 0 0
-0.24324 -0.16552 1.15388 0 0 0
-0.23022 -0.15684 1.15225 0 0 0
-0.21552 -0.14640 1.14836 0 0 0
-0.20018 -0.13666 1.14522 0 0 0
-0.18712 -0.12761 1.14253 0 0 0
-0.17867 -0.11976 1.13892 0 0 0
-0.15717 -0.10425 1.13142 0 0 0
-0.14529 -0.09640 1.12652 0 0 0
-0.13277 -0.08984 1.12105 0 0 0
-0.12279 -0.08198 1.11757 0 0 0
-0.11240 -0.07464 1.11190 0 0 0
-0.10485 -0.06732 1.10967 255 255 255
-0.07944 -0.04891 1.09920 255 255 255
-0.07397 -0.04217 1.09695 255 255 255
-0.06891 -0.03658 1.09437 255 255 255
-0.06575 -0.03130 1.09391 255 255 255
-0.06277 -0.02649 1.09163 255 255 255
-0.06088 -0.02235 1.08904 255 255 255
-0.06033 -0.01894 1.08826 255 255 255
-0.06241 -0.01634 1.08843 255 255 255
-0.06497 -0.01458 1.08703 255 255 255
-0.06835 -0.01279 1.08759 255 255 255
-0.07477 -0.01031 1.08846 255 255 255
-0.07874 -0.00780 1.08734 255 255 255
-0.08229 -0.00646 1.08561 0 0 0
-0.08927 -0.00413 1.08452 0 0 0
-0.09762 -0.00326 1.08457 0 0 0
-0.10590 -0.00191 1.08358 0 0 0
-0.11338 -0.00342 1.08135 0 0 0
-0.12238 -0.00530 1.07929 0 0 0
-0.13412 -0.00705 1.08179 0 0 0
-0.14600 -0.01132 1.08239 0 0 0
-0.15730 -0.01689 1.08035 0 0 0
-0.17197 -0.02323 1.08221 0 0 0
-0.18645 -0.02983 1.08439 0 0 0
-0.21622 -0.04374 1.09220 0 0 0
-0.22931 -0.05161 1.09480 0 0 0
-0.24299 -0.05906 1.09631 0 0 0
-0.25844 -0.06509 1.10135 0 0 0
-0.27695 -0.07070 1.11023 0 0 0
-0.28949 -0.07717 1.11101 0 0 0
-0.30413 -0.08260 1.11456 0 0 0
-0.31970 -0.08778 1.12056 0 0 0
-0.33175 -0.09255 1.12151 0 0 0
-0.34474 -0.09754 1.12424 0 0 0
-0.35835 -0.10251 1.12783 0 0 0
-0.38317 -0.11163 1.12971 0 0 0
-0.39739 -0.11556 1.13390 0 0 0
-0.40917 -0.11916 1.13345 0 0 0
-0.42156 -0.12293 1.13517 0 0 0
-0.43317 -0.12702 1.13716 0 0 0
-0.44595 -0.13120 1.13862 0 0 0
-0.45836 -0.13584 1.13962 0 0 0
-0.48580 -0.14534 1.14462 0 0 0
-0.49685 -0.14968 1.14272 0 0 0
-0.51113 -0.15388 1.14509 0 0 0
-0.52346 -0.15736 1.14551 0 0 0
-0.53588 -0.16022 1.14676 0 0 0
-0.54872 -0.16289 1.14906 0 0 0
-0.56100 -0.16541 1.14981 0 0 0
-0.58704 -0.16927 1.15427 0 0 0
-0.59847 -0.17061 1.15537 0 0 0
-0.60945 -0.17127 1.15627 0 0 0
-0.62124 -0.17198 1.15742 0 0 0
-0.63278 -0.17250 1.15802 0 0 0
-0.64444 -0.17272 1.15890 255 255 255
-0.67079 -0.17304 1.16293 255 255 255
-0.69586 -0.17225 1.16534 255 255 255
-0.71148 -0.17046 1.16827 255 255 255
-0.72576 -0.16876 1.16971 255 255 255
-0.74148 -0.16658 1.17258 255 255 255
-0.75679 -0.16272 1.17308 255 255 255
-0.77659 -0.15821 1.17649 255 255 255
-0.79686 -0.15365 1.18094 0 0 0
-0.83755 -0.14293 1.18301 0 0 0
-0.85857 -0.13760 1.18581 0 0 0
-0.87941 -0.13194 1.18740 0 0 0
-0.89744 -0.12592 1.18743 0 0 0
-0.93694 -0.11437 1.18781 0 0 0
-0.95829 -0.10898 1.18809 0 0 0
-0.98034 -0.10398 1.18660 0 0 0
-1.02758 -0.09253 1.18860 0 0 0
-1.05040 -0.08616 1.18729 0 0 0
-1.08853 -0.07376 1.19039 0 0 0
-1.10405 -0.06884 1.19177 0 0 0
-1.14548 -0.05180 1.21110 0 0 0
-1.17560 -0.03411 1.23232 0 0 0
-1.19102 -0.02371 1.24797 0 0 0
-1.20487 -0.01636 1.25505 0 0 0
-1.22010 -0.00807 1.26375 0 0 0
-1.23423 -0.00157 1.26427 0 0 0
-1.24669 0.00430 1.27475 0 0 0
-1.26079 0.01007 1.28488 255 255 255
-1.29184 0.01655 1.29871 255 255 255
-1.30657 0.01971 1.30437 255 255 255
-1.32350 0.02190 1.30944 255 255 255
-1.33337 0.02129 1.31713 255 255 255
-1.34713 0.02093 1.32357 255 255 255
-1.36016 0.02060 1.32484 255 255 255
-1.37447 0.01951 1.33408 255 255 255
-1.38692 0.01732 1.34357 0 0 0
-1.39785 0.01343 1.35279 0 0 0
-1.41027 0.00766 1.36097 0 0 0
-1.42790 0.00643 1.36902 0 0 0
-1.44065 0.00022 1.38079 0 0 0
-1.45307 -0.00892 1.38838 0 0 0
-1.46760 -0.01444 1.39815 0 0 0
-1.48060 -0.02128 1.40871 0 0 0
-1.49198 -0.03513 1.41490 0 0 0
-1.50900 -0.03898 1.42344 0 0 0
-1.52678 -0.04333 1.43160 0 0 0
-1.53886 -0.05282 1.43483 0 0 0
-1.55520 -0.05810 1.44156 0 0 0
-1.56984 -0.06323 1.45428 0 0 0
-1.57857 -0.07600 1.46947 0 0 0
-1.59342 -0.08561 1.47961 0 0 0
-1.61318 -0.08252 1.49106 0 0 0
-1.62789 -0.08951 1.49784 0 0 0
-1.64171 -0.09693 1.50510 0 0 0
-1.65524 -0.10262 1.51590 0 0 0
-1.66813 -0.10948 1.52401 0 0 0
-1.68159 -0.11884 1.53032 0 0 0
-1.70085 -0.11613 1.54098 0 0 0
-1.71312 -0.12150 1.55303 0 0 0
-1.72624 -0.12909 1.55755 0 0 0
-1.74181 -0.13208 1.56420 0 0 0
-1.75309 -0.13947 1.56821 255 255 255
-1.78014 -0.15375 1.57748 255 255 255
-1.79401 -0.15984 1.58549 255 255 255
-1.80704 -0.16924 1.58615 255 255 255
-1.82113 -0.17549 1.59135 255 255 255
-1.83552 -0.18072 1.60091 255 255 255
-1.85035 -0.18822 1.60924 255 255 255
-1.86411 -0.19530 1.61415 255 255 255
-1.87874 -0.20096 1.62587 0 0 0
-1.89187 -0.20717 1.63473 0 0 0
-1.90363 -0.21289 1.64029 0 0 0
-1.91821 -0.21852 1.65190 0 0 0
-1.93094 -0.22272 1.66692 0 0 0
-1.94280 -0.22773 1.67393 0 0 0
-1.95801 -0.23350 1.68174 0 0 0
-1.97164 -0.23870 1.68653 0 0 0
-2.00033 -0.24900 1.69788 0 0 0
-2.01376 -0.25439 1.70354 0 0 0
-2.02742 -0.25996 1.71282 0 0 0
-2.03807 -0.25899 1.71815 0 0 0
-2.05035 -0.26380 1.72816 0 0 0
-2.06193 -0.27032 1.73393 0 0 0
-2.07588 -0.27633 1.73833 0 0 0
-2.08910 -0.28036 1.74793 0 0 0
-2.10022 -0.28501 1.75357 0 0 0
-2.11037 -0.29021 1.75541 0 0 0
-2.12233 -0.29430 1.75749 0 0 0
-2.13276 -0.29996 1.77168 0 0 0
-2.14418 -0.30804 1.77860 0 0 0
-2.15330 -0.31322 1.78498 0 0 0
-2.16315 -0.31753 1.78736 0 0 0
-2.17300 -0.32321 1.79374 0 0 0
-2.19112 -0.33317 1.80623 0 0 0
-2.20151 -0.33778 1.80990 0 0 0
-2.20988 -0.34324 1.81751 0 0 0
-2.21799 -0.35021 1.81945 0 0 0
-2.22718 -0.35581 1.82244 255 255 255
-2.24343 -0.36248 1.84034 255 255 255
-2.25212 -0.36815 1.84548 255 255 255
-2.25877 -0.37058 1.85439 255 255 255
-2.26716 -0.37703 1.85568 255 255 255
-2.27381 -0.38013 1.86311 255 255 255
-2.27978 -0.38157 1.87426 255 255 255
-2.28355 -0.38331 1.88734 255 255 255
-2.28805 -0.38795 1.88809 255 255 255
-2.28876 -0.38652 1.89886 255 255 255
-2.28896 -0.38869 1.89921 255 255 255
-2.28959 -0.39022 1.90197 255 255 255
-2.28779 -0.39018 1.90120 255 255 255
-2.28509 -0.38842 1.90388 255 255 255
-2.28307 -0.38639 1.89907 255 255 255
-2.28070 -0.38472 1.89908 255 255 255
-2.27696 -0.38347 1.90355 255 255 255
-2.27568 -0.38635 1.88830 255 255 255
-2.26804 -0.37930 1.89875 255 255 255
-2.25870 -0.37413 1.90014 255 255 255
-2.25183 -0.37281 1.89065 0 0 0
-2.24228 -0.36999 1.88793 0 0 0
-2.22737 -0.36066 1.89401 0 0 0
-2.21465 -0.35543 1.88948 0 0 0
-2.20241 -0.35320 1.87826 0 0 0
-2.18794 -0.34590 1.87927 0 0 0
-2.17140 -0.33853 1.87470 0 0 0
-2.15465 -0.33287 1.86733 0 0 0
-2.13688 -0.32461 1.86832 0 0 0
-2.11820 -0.31847 1.86069 0 0 0
-2.09550 -0.30872 1.86223 0 0 0
-2.07290 -0.30252 1.85330 0 0 0
-2.05071 -0.29601 1.85043 0 0 0
-2.00009 -0.28063 1.84037 0 0 0
-1.97526 -0.27488 1.83056 0 0 0
-1.94717 -0.26470 1.83108 0 0 0
-1.91954 -0.25568 1.82637 0 0 0
-1.86197 -0.23564 1.82241 0 0 0
-1.83410 -0.22668 1.81746 0 0 0
-1.80950 -0.22211 1.80353 0 0 0
-1.78178 -0.21138 1.80278 0 0 0
-1.72964 -0.19222 1.79733 0 0 0
-1.70555 -0.18614 1.78825 0 0 0
-1.68394 -0.18033 1.77676 0 0 0
-1.65809 -0.16691 1.78953 0 0 0
-1.63580 -0.16156 1.78010 0 0 0
-1.61418 -0.15532 1.77603 0 0 0
-1.58989 -0.14550 1.77535 0 0 0
-1.56603 -0.13558 1.77195 0 0 0
-1.54482 -0.12693 1.76921 0 0 0
-1.52414 -0.11669 1.76836 0 0 0
-1.50431 -0.10842 1.76594 0 0 0
-1.48546 -0.10086 1.76312 0 0 0
-1.46977 -0.09439 1.75865 0 0 0
-1.45370 -0.08751 1.76157 0 0 0
-1.43477 -0.08141 1.75732 255 255 255
-1.40197 -0.07189 1.75319 255 255 255
-1.38838 -0.06760 1.75274 255 255 255
-1.37307 -0.06515 1.75106 255 255 255
-1.35565 -0.06442 1.74997 255 255 255
-1.34170 -0.06410 1.75075 255 255 255
-1.32639 -0.06410 1.75119 255 255 255
-1.30990 -0.06402 1.75391 255 255 255
-1.29498 -0.06524 1.75685 255 255 255
-1.27898 -0.06342 1.76715 0 0 0
-1.26180 -0.06542 1.76890 0 0 0
-1.24745 -0.06985 1.77478 0 0 0
-1.23685 -0.07575 1.78173 0 0 0
-1.22485 -0.08194 1.78873 0 0 0
-1.21006 -0.08913 1.79551 0 0 0
-1.19612 -0.09937 1.80124 0 0 0
-1.17987 -0.10990 1.81099 0 0 0
-1.16063 -0.11583 1.82416 0 0 0
-1.14474 -0.12820 1.83129 0 0 0
-1.12760 -0.14143 1.84104 0 0 0
-1.11146 -0.15066 1.85205 0 0 0
-1.09162 -0.16505 1.85976 0 0 0
-1.06047 -0.18477 1.88586 0 0 0
-1.04398 -0.19542 1.89610 0 0 0
-1.03112 -0.20432 1.90846 0 0 0
-1.01849 -0.21214 1.91786 0 0 0
-1.00646 -0.22120 1.92658 0 0 0
-0.99678 -0.22860 1.93622 0 0 0
-0.98644 -0.23596 1.94432 0 0 0
-0.97430 -0.24166 1.95380 0 0 0
-0.96606 -0.24661 1.96646 0 0 0
-0.95793 -0.25541 1.96890 0 0 0
-0.95110 -0.26067 1.97911 0 0 0
-0.94399 -0.26806 1.98367 0 0 0
-0.93495 -0.27548 1.98661 255 255 255
-0.91805 -0.28626 1.99598 255 255 255
-0.90829 -0.29189 1.99704 255 255 255
-0.89943 -0.29645 1.99968 255 255 255
-0.89259 -0.29866 2.00395 255 255 255
-0.88562 -0.30082 2.00559 255 255 255
-0.88174 -0.30202 2.00860 255 255 255
-0.88070 -0.30229 2.01245 255 255 255
-0.87547 -0.30438 2.00757 255 255 255
-0.86757 -0.30476 2.00705 255 255 255
-0.86493 -0.30298 2.01039 255 255 255
-0.85459 -0.30337 2.00324 255 255 255
-0.84342 -0.30031 2.00430 0 0 0
-0.83768 -0.29527 2.01031 0 0 0
-0.82701 -0.29158 2.00623 0 0 0
-0.81671 -0.28895 1.99748 0 0 0
-0.80181 -0.27416 2.00083 0 0 0
-0.78766 -0.26742 1.99409 0 0 0
-0.77590 -0.25971 1.99060 0 0 0
-0.76509 -0.25191 1.98353 0 0 0
-0.75533 -0.24274 1.98075 0 0 0
-0.74452 -0.23160 1.98014 0 0 0
-0.72967 -0.22415 1.96773 0 0 0
-0.71694 -0.21551 1.96193 0 0 0
-0.70705 -0.20495 1.96066 0 0 0
-0.68479 -0.18451 1.94565 0 0 0
-0.67246 -0.17062 1.93524 0 0 0
-0.65796 -0.16103 1.92536 0 0 0
-0.64058 -0.14907 1.91880 0 0 0
-0.60731 -0.12822 1.90071 0 0 0
-0.59101 -0.12100 1.88863 0 0 0
-0.58039 -0.10564 1.88375 0 0 0
-0.56464 -0.09372 1.87278 0 0 0
-0.54858 -0.08176 1.86486 0 0 0
-0.53244 -0.07179 1.85326 0 0 0
-0.51623 -0.06473 1.84367 0 0 0
-0.49897 -0.05476 1.83534 0 0 0
-0.48358 -0.04260 1.83187 0 0 0
-0.47036 -0.03423 1.81775 0 0 0
-0.45131 -0.03137 1.80912 255 255 255
-0.41634 -0.00073 1.78262 255 255 255
-0.40445 0.00928 1.77696 255 255 255
-0.39198 0.01846 1.76840 255 255 255
-0.38200 0.02601 1.75851 255 255 255
-0.37125 0.03413 1.75158 255 255 255
-0.36261 0.04523 1.74571 255 255 255
-0.35453 0.05389 1.73846 255 255 255
-0.34598 0.06209 1.73217 0 0 0
-0.33647 0.06848 1.72530 0 0 0
-0.32818 0.07485 1.71850 0 0 0
-0.32287 0.08211 1.71409 0 0 0
-0.31800 0.08934 1.70926 0 0 0
-0.30816 0.09543 1.70348 0 0 0
-0.30947 0.09997 1.69919 0 0 0
-0.31169 0.10218 1.69532 0 0 0
-0.31686 0.10496 1.69251 0 0 0
-0.32471 0.10883 1.68924 0 0 0
-0.33185 0.10960 1.68624 0 0 0
-0.34163 0.11197 1.68554 0 0 0
-0.35246 0.11208 1.68430 0 0 0
-0.36343 0.11097 1.68347 0 0 0
-0.37862 0.10976 1.68451 0 0 0
-0.39634 0.10917 1.68607 0 0 0
-0.41463 0.10757 1.68588 0 0 0
-0.43496 0.10499 1.68769 0 0 0
-0.45912 0.10479 1.69031 0 0 0
-0.48427 0.10409 1.69335 0 0 0
-0.50973 0.10252 1.69359 0 0 0
-0.53563 0.09950 1.69733 0 0 0
-0.56578 0.09986 1.70289 0 0 0
-0.59566 0.09872 1.70522 0 0 0
-0.62086 0.09194 1.70792 0 0 0
-0.65271 0.08962 1.71056 0 0 0
-0.68360 0.08829 1.71284 0 0 0
-0.71425 0.08668 1.71556 0 0 0
-0.74134 0.08450 1.71697 0 0 0
-0.77272 0.08444 1.71949 0 0 0
-0.80562 0.08398 1.71863 0 0 0
-0.84158 0.08459 1.71819 0 0 0
-0.87359 0.08361 1.71631 0 0 0
-0.90169 0.08080 1.71590 0 0 0
-0.93080 0.08032 1.71714 0 0 0
-0.95376 0.07782 1.71696 0 0 0
-0.97220 0.07927 1.71740 255 255 255
-1.02913 0.08000 1.71429 255 255 255
-1.06078 0.07496 1.71365 255 255 255
-1.08707 0.07255 1.71178 255 255 255
-1.11306 0.07052 1.71022 255 255 255
-1.13659 0.06908 1.70815 255 255 255
-1.16006 0.06708 1.70712 255 255 255
-1.18101 0.06719 1.70596 0 0 0
-1.20165 0.06598 1.70437 0 0 0
-1.21913 0.06481 1.70320 0 0 0
-1.23718 0.06287 1.70061 0 0 0
-1.25206 0.06031 1.69774 0 0 0
-1.26996 0.05994 1.69438 0 0 0
-1.29877 0.05792 1.68612 0 0 0
-1.31272 0.05756 1.68365 0 0 0
-1.32886 0.06149 1.67977 0 0 0
-1.34111 0.06416 1.67525 0 0 0
-1.36642 0.07038 1.66729 0 0 0
-1.37784 0.07558 1.66324 0 0 0
-1.39399 0.08214 1.65827 0 0 0
-1.40175 0.08628 1.65393 0 0 0
-1.41241 0.09283 1.65068 0 0 0
-1.42674 0.10211 1.64646 0 0 0
-1.43991 0.10905 1.64018 0 0 0
-1.47265 0.12833 1.62778 0 0 0
-1.48823 0.13818 1.61975 0 0 0
-1.50206 0.14736 1.61216 0 0 0
-1.51810 0.15850 1.60522 0 0 0
-1.53598 0.17206 1.59889 0 0 0
-1.54783 0.18170 1.59076 0 0 0
-1.56408 0.19225 1.58319 0 0 0
-1.58491 0.20420 1.57251 0 0 0
-1.60043 0.21203 1.56352 0 0 0
-1.61840 0.22133 1.55513 255 255 255
-1.65328 0.24101 1.53588 255 255 255
-1.67125 0.24927 1.52759 255 255 255
-1.68680 0.25795 1.51970 255 255 255
-1.70511 0.26692 1.51022 255 255 255
-1.72201 0.27544 1.50127 255 255 255
-1.73686 0.28179 1.49284 255 255 255
-1.75227 0.28745 1.48434 0 0 0
-1.76649 0.29323 1.47595 0 0 0
-1.78120 0.29931 1.46947 0 0 0
-1.79394 0.30256 1.46212 0 0 0
-1.80712 0.30320 1.45904 0 0 0
-1.82292 0.30754 1.45400 0 0 0
-1.84081 0.31397 1.44685 0 0 0
-1.85033 0.31246 1.44353 0 0 0
-1.86235 0.31441 1.44108 0 0 0
-1.87556 0.31742 1.43777 0 0 0
-1.88999 0.32018 1.43375 0 0 0
-1.90404 0.32434 1.42993 0 0 0
-1.91595 0.32609 1.42828 0 0 0
-1.92888 0.32630 1.42627 0 0 0
-1.94582 0.32892 1.42400 0 0 0
-1.96592 0.33217 1.41795 0 0 0
-1.98088 0.33024 1.41463 0 0 0
-1.99683 0.32726 1.41533 0 0 0
-2.01568 0.32616 1.41002 0 0 0
-2.02512 0.31667 1.41413 0 0 0
-2.03923 0.31064 1.41807 0 0 0
-2.05835 0.30956 1.41708 0 0 0
-2.07466 0.30392 1.41589 0 0 0
-2.08595 0.29694 1.42315 0 0 0
-2.10452 0.29605 1.42082 0 0 0
-2.11996 0.29165 1.42022 0 0 0
-2.13493 0.28270 1.42556 0 0 0
-2.14803 0.27751 1.42901 0 0 0
-2.16339 0.27440 1.43141 0 0 0
-2.17591 0.26936 1.43401 255 255 255
-2.20903 0.26350 1.43918 255 255 255
-2.23138 0.26198 1.43839 255 255 255
-2.25289 0.25981 1.43607 255 255 255
-2.27368 0.25838 1.43923 255 255 255
-2.29130 0.25785 1.43980 255 255 255
-2.31017 0.25709 1.43940 255 255 255
-2.32490 0.25480 1.44201 255 255 255
-2.34102 0.25307 1.44450 255 255 255
-2.35852 0.25111 1.44559 0 0 0
-2.37368 0.24782 1.44837 0 0 0
-2.39820 0.24487 1.44310 0 0 0
-2.41691 0.23950 1.44670 0 0 0
-2.44167 0.23769 1.44511 0 0 0
-2.46218 0.23472 1.44654 0 0 0
-2.50170 0.22952 1.44823 0 0 0
-2.51746 0.22439 1.45123 0 0 0
-2.53338 0.22068 1.45366 0 0 0
-2.55133 0.21875 1.45070 0 0 0
-2.56990 0.21454 1.44627 0 0 0
-2.58344 0.20931 1.44898 0 0 0
-2.60061 0.20536 1.44960 0 0 0
-2.61790 0.20316 1.44825 0 0 0
-2.63337 0.19865 1.44504 0 0 0
-2.64281 0.19115 1.45260 0 0 0
-2.66412 0.18976 1.44523 0 0 0
-2.67834 0.18531 1.44305 0 0 0
-2.69075 0.18435 1.44243 0 0 0
-2.70465 0.18374 1.43818 0 0 0
-2.71638 0.18246 1.43223 0 0 0
-2.72326 0.17767 1.43174 0 0 0
-2.73233 0.17548 1.42851 0 0 0
-2.73832 0.17200 1.42851 0 0 0
-2.74306 0.17230 1.42606 0 0 0
-2.75150 0.17439 1.41869 0 0 0
-2.75095 0.17026 1.42407 0 0 0
-2.75641 0.17119 1.42129 0 0 0
-2.75873 0.17345 1.41893 0 0 0
-2.76686 0.17879 1.41474 0 0 0
-2.77614 0.18478 1.40440 0 0 0
-2.77769 0.18654 1.40062 0 0 0
-2.77666 0.18657 1.40431 0 0 0
-2.78546 0.19135 1.39668 0 0 0
-2.78925 0.19170 1.39156 0 0 0
-2.79283 0.19506 1.38876 0 0 0
-2.79539 0.19902 1.38117 0 0 0
-2.79499 0.20150 1.38005 0 0 0
-2.80043 0.20625 1.37323 0 0 0
-2.80414 0.21188 1.36928 0 0 0
-2.80954 0.21951 1.35817 0 0 0
-2.80909 0.22249 1.35853 0 0 0
-2.81482 0.22723 1.35237 0 0 0
-2.82333 0.23737 1.34169 0 0 0
-2.83128 0.24880 1.32841 0 0 0
-2.83244 0.25608 1.31892 0 0 0
-2.83723 0.26039 1.31746 255 255 255
-2.84313 0.27334 1.31087 255 255 255
-2.84612 0.28458 1.29873 255 255 255
-2.85061 0.28829 1.29059 255 255 255
-2.85557 0.29332 1.28436 255 255 255
-2.85882 0.30295 1.27766 255 255 255
-2.86136 0.31351 1.27120 255 255 255
-2.86655 0.31875 1.26615 255 255 255
-2.86946 0.32608 1.26022 255 255 255
-2.87409 0.33429 1.24861 255 255 255
-2.88238 0.33359 1.24340 255 255 255
-2.88755 0.34033 1.23449 255 255 255
-2.88857 0.35544 1.22086 0 0 0
-2.89833 0.35102 1.21847 0 0 0
-2.90559 0.35239 1.21518 0 0 0
-2.91444 0.34938 1.21056 0 0 0
-2.92566 0.34365 1.21105 0 0 0
-2.93042 0.35298 1.20027 0 0 0
-2.93754 0.35363 1.19657 0 0 0
-2.95137 0.34776 1.19543 0 0 0
-2.96315 0.34890 1.19767 0 0 0
-2.97416 0.35365 1.19541 0 0 0
-2.98643 0.35132 1.19796 0 0 0
-2.99659 0.35901 1.18975 0 0 0
-3.00930 0.36094 1.18714 0 0 0
-3.02264 0.36073 1.19190 0 0 0
-3.03470 0.36935 1.18855 0 0 0
-3.05126 0.36609 1.19686 0 0 0
-3.06285 0.37697 1.19382 0 0 0
-3.07483 0.38507 1.18818 0 0 0
-3.09067 0.38273 1.18985 0 0 0
-3.10662 0.37759 1.19421 0 0 0
-3.12444 0.38057 1.18666 0 0 0
-3.14360 0.37928 1.18577 0 0 0
-3.16153 0.38081 1.18372 0 0 0
-3.17930 0.37363 1.19097 0 0 0
-3.19982 0.37500 1.18531 0 0 0
-3.21847 0.37399 1.18338 0 0 0
-3.23728 0.37095 1.18560 0 0 0
-3.25675 0.37261 1.18096 0 0 0
-3.27817 0.37049 1.17366 0 0 0
-3.29749 0.36636 1.17271 0 0 0
-3.32076 0.35566 1.17877 0 0 0
-3.33965 0.36432 1.17151 0 0 0
-3.35873 0.36938 1.16626 0 0 0
-3.37873 0.36640 1.16855 0 0 0
-3.39888 0.36885 1.16573 0 0 0
-3.41789 0.36647 1.16304 0 0 0
-3.44151 0.34965 1.16994 0 0 0
-3.46001 0.35632 1.16488 0 0 0
-3.47880 0.35671 1.16190 0 0 0
-3.49787 0.35544 1.16106 0 0 0
-3.51642 0.35333 1.15985 0 0 0
-3.53499 0.35267 1.15773 0 0 0
-3.55318 0.34775 1.15688 255 255 255
-3.57097 0.34640 1.15470 255 255 255
-3.58474 0.35115 1.14842 255 255 255
-3.60606 0.33784 1.14574 255 255 255
-3.62260 0.33952 1.14004 255 255 255
-3.63834 0.34209 1.13586 255 255 255
-3.65759 0.33352 1.13590 255 255 255
-3.67386 0.33431 1.13321 255 255 255
-3.68834 0.33569 1.12622 255 255 255
-3.70674 0.32786 1.12372 255 255 255
-3.72186 0.33293 1.11667 0 0 0
-3.74241 0.31274 1.12007 0 0 0
-3.75964 0.30708 1.11537 0 0 0
-3.77094 0.32955 1.09883 0 0 0
-3.79004 0.31352 1.10558 0 0 0
-3.80609 0.31014 1.11217 0 0 0
-3.81188 0.33816 1.10033 0 0 0
-3.82495 0.32723 1.10303 0 0 0
-3.83758 0.31501 1.10661 0 0 0
-3.83988 0.33642 1.09180 0 0 0
-3.84675 0.32964 1.08666 0 0 0
-3.85124 0.33088 1.08183 0 0 0
-3.85369 0.33877 1.07454 0 0 0
-3.85285 0.34369 1.07487 0 0 0
-3.85440 0.33716 1.07745 0 0 0
-3.85431 0.33439 1.07685 0 0 0
-3.85453 0.32896 1.07371 0 0 0
-3.85371 0.32721 1.07145 0 0 0
-3.85154 0.32826 1.07277 0 0 0
-3.84825 0.32717 1.07531 0 0 0
-3.84403 0.32362 1.08135 0 0 0
-3.83958 0.31840 1.08274 0 0 0
-3.83551 0.30853 1.08237 0 0 0
-3.82712 0.31100 1.07977 0 0 0
-3.82194 0.30334 1.08181 0 0 0
-3.81527 0.29659 1.08249 0 0 0
-3.80947 0.28848 1.08761 0 0 0
-3.80208 0.28246 1.09089 0 0 0
-3.79354 0.28158 1.09024 0 0 0
-3.78863 0.26368 1.09157 0 0 0
-3.77837 0.27246 1.08465 0 0 0
-3.77183 0.26713 1.08644 0 0 0
-3.76407 0.26901 1.08765 0 0 0
-3.75765 0.26148 1.09195 0 0 0
-3.74843 0.26275 1.09244 0 0 0
-3.73801 0.26294 1.09071 0 0 0
-3.72943 0.25779 1.08830 0 0 0
-3.72272 0.24798 1.09026 0 0 0
-3.71447 0.24102 1.09009 0 0 0
-3.70069 0.25521 1.08864 0 0 0
-3.69210 0.25118 1.09369 0 0 0
-3.68412 0.24050 1.09753 0 0 0
-3.66428 0.26942 1.09528 0 0 0
-3.65844 0.25344 1.10668 0 0 0
-3.65197 0.23743 1.11810 0 0 0
-3.64222 0.23089 1.12723 0 0 0
-3.63135 0.23139 1.13651 0 0 0
-3.61860 0.23724 1.14303 0 0 0
-3.60180 0.25883 1.14613 0 0 0
-3.59417 0.24808 1.15388 0 0 0
-3.59114 0.23261 1.16491 0 0 0
-3.57531 0.25821 1.16908 0 0 0
-3.56891 0.24961 1.17625 0 0 0
-3.56348 0.24624 1.18266 0 0 0
-3.55918 0.24163 1.18836 0 0 0
-3.55341 0.24304 1.19583 0 0 0
-3.55323 0.23039 1.20540 0 0 0
-3.54876 0.23204 1.21610 0 0 0
-3.54783 0.22348 1.22706 0 0 0
-3.54553 0.21888 1.23956 0 0 0
-3.54483 0.20865 1.24681 0 0 0
-3.54783 0.19040 1.25352 0 0 0
-3.54864 0.18110 1.25964 0 0 0
-3.55460 0.15999 1.26984 0 0 0
-3.56111 0.14306 1.28147 0 0 0
-3.56958 0.12570 1.29511 0 0 0
-3.57908 0.10453 1.30383 0 0 0
-3.58470 0.09960 1.31312 0 0 0
-3.60138 0.07800 1.33215 0 0 0
-3.61820 0.04523 1.34949 0 0 0
-3.62805 0.03732 1.36438 0 0 0
-3.63625 0.03303 1.37390 0 0 0
-3.65219 0.00391 1.38521 0 0 0
-3.66110 0.00181 1.38764 0 0 0
-3.67503 -0.01726 1.39668 0 0 0
-3.69201 -0.04205 1.41071 0 0 0
-3.70505 -0.05653 1.41880 0 0 0
-3.71947 -0.06908 1.42326 0 0 0
-3.72960 -0.06398 1.42296 0 0 0
-3.74336 -0.07247 1.42720 0 0 0
-3.75703 -0.07945 1.43231 0 0 0
-3.77098 -0.08546 1.43725 0 0 0
-3.78345 -0.08046 1.44331 0 0 0
-3.79398 -0.08377 1.44952 0 0 0
-3.80442 -0.08947 1.45224 0 0 0
-3.81126 -0.08114 1.44949 0 0 0
-3.81908 -0.08110 1.44956 0 0 0
-3.82852 -0.08905 1.45043 0 0 0
-3.83582 -0.08762 1.44663 0 0 0
-3.84287 -0.09169 1.44672 0 0 0
-3.84821 -0.08832 1.44292 0 0 0
-3.85456 -0.09260 1.43996 0 0 0
-3.86081 -0.10114 1.44143 0 0 0
-3.86550 -0.10071 1.44222 255 255 255
-3.87769 -0.09350 1.42808 255 255 255
-3.88412 -0.09436 1.42601 255 255 255
-3.88765 -0.08333 1.41811 255 255 255
-3.89040 -0.07442 1.40663 255 255 255
-3.89273 -0.07056 1.40131 255 255 255
-3.89391 -0.06352 1.39275 255 255 255
-3.89164 -0.04724 1.37860 255 255 255
-3.88904 -0.03132 1.36201 255 255 255
-3.88648 -0.02124 1.34474 255 255 255
-3.88119 -0.00787 1.32863 255 255 255
-3.87429 0.00714 1.31405 0 0 0
-3.86396 0.03211 1.29272 0 0 0
-3.85788 0.03997 1.27529 0 0 0
-3.85273 0.04370 1.26317 0 0 0
-3.84658 0.05679 1.24604 0 0 0
-3.84699 0.04813 1.23629 0 0 0
-3.84282 0.06429 1.22670 0 0 0
-3.83846 0.07588 1.21782 0 0 0
-3.83912 0.07946 1.21296 0 0 0
-3.84087 0.09228 1.20362 0 0 0
-3.84422 0.09993 1.19445 0 0 0
-3.85033 0.10518 1.18499 0 0 0
-3.85844 0.10995 1.17472 0 0 0
-3.86669 0.11482 1.16901 0 0 0
-3.87409 0.12081 1.16081 0 0 0
-3.88092 0.13428 1.14641 0 0 0
-3.89476 0.13298 1.13793 0 0 0
-3.90991 0.12890 1.13465 0 0 0
-3.92209 0.14070 1.12758 0 0 0
-3.94068 0.14153 1.11960 0 0 0
-3.96079 0.14300 1.11422 0 0 0
-3.98065 0.14551 1.11312 0 0 0
-4.00309 0.14579 1.10597 0 0 0
-4.02566 0.15091 1.09918 0 0 0
-4.04665 0.15617 1.09315 0 0 0
-4.07171 0.14834 1.09247 0 0 0
-4.09621 0.15127 1.08698 0 0 0
-4.11899 0.16018 1.07280 0 0 0
-4.14956 0.13567 1.06628 0 0 0
-4.17283 0.14111 1.06059 0 0 0
-4.19538 0.14944 1.05074 0 0 0
-4.22382 0.11168 1.05115 0 0 0
-4.24637 0.11319 1.05304 0 0 0
-4.27048 0.10732 1.04608 0 0 0
-4.29420 0.09482 1.04368 0 0 0
-4.31762 0.08446 1.04069 255 255 255
-4.36206 0.07984 1.03240 255 255 255
-4.38446 0.07315 1.02878 255 255 255
-4.40514 0.07047 1.02940 255 255 255
-4.42287 0.08053 1.02160 255 255 255
-4.44478 0.06656 1.01903 255 255 255
-4.46524 0.06511 1.01679 255 255 255
-4.48427 0.07181 1.00876 255 255 255
-4.50271 0.06894 1.00472 0 0 0
-4.52071 0.06404 1.00178 0 0 0
-4.53897 0.05414 0.99982 0 0 0
-4.55831 0.04608 0.99758 0 0 0
-4.57905 0.03500 0.99662 0 0 0
-4.59767 0.03630 0.99482 0 0 0
-4.61493 0.04462 0.99065 0 0 0
-4.63419 0.04328 0.98421 0 0 0
-4.65532 0.03393 0.98623 0 0 0
-4.67132 0.03560 0.98135 0 0 0
-4.68784 0.02630 0.98137 0 0 0
-4.70265 0.02778 0.97788 0 0 0
-4.71532 0.01988 0.97495 0 0 0
-4.72795 0.00528 0.97696 0 0 0
-4.73790 0.01223 0.97008 0 0 0
-4.74651 -0.00290 0.96874 0 0 0
-4.75528 -0.01763 0.97077 0 0 0
-4.76234 -0.02304 0.97075 0 0 0
-4.76662 -0.01995 0.97074 0 0 0
-4.77063 -0.03792 0.97238 0 0 0
-4.77007 -0.02386 0.97951 0 0 0
-4.76476 -0.03612 0.97668 0 0 0
-4.75631 -0.07589 0.99981 0 0 0
-4.74501 -0.05672 1.00250 0 0 0
-4.73321 -0.04599 0.98845 0 0 0
-4.72184 -0.07580 0.99591 0 0 0
-4.69286 -0.06573 0.98870 0 0 0
-4.68077 -0.08292 0.99091 0 0 0
-4.66856 -0.09121 0.99444 0 0 0
-4.65866 -0.10944 0.99847 0 0 0
-4.65242 -0.12686 1.01085 0 0 0
-4.64524 -0.11155 1.00220 0 0 0
-4.63892 -0.13605 1.01329 0 0 0
-4.63115 -0.13149 1.00956 0 0 0
-4.62863 -0.12410 1.00300 0 0 0
-4.62981 -0.15020 1.00424 0 0 0
-4.62837 -0.14770 1.00010 0 0 0
-4.63013 -0.15134 0.99217 0 0 0
-4.64071 -0.18019 0.98991 0 0 0
-4.64657 -0.16976 0.98042 0 0 0
-4.65693 -0.18963 0.97936 0 0 0
-4.66881 -0.20137 0.97897 0 0 0
-4.68057 -0.18238 0.96962 0 0 0
-4.69689 -0.19130 0.96050 0 0 0
-4.73291 -0.21072 0.95566 0 0 0
-4.75077 -0.22564 0.95365 0 0 0
-4.76888 -0.23373 0.94995 0 0 0
-4.79017 -0.24655 0.94784 0 0 0
-4.81131 -0.26761 0.94419 0 0 0
-4.82958 -0.28719 0.94396 0 0 0
-4.84879 -0.29576 0.94137 0 0 0
-4.86945 -0.30682 0.93313 0 0 0
-4.89013 -0.32065 0.92527 0 0 0
-4.91127 -0.34260 0.92092 0 0 0
-4.93372 -0.35259 0.91627 0 0 0
-4.95612 -0.34898 0.90416 255 255 255
-4.99588 -0.39463 0.90162 255 255 255
-5.01719 -0.39458 0.89906 255 255 255
-5.03535 -0.39396 0.89345 255 255 255
-5.05303 -0.41077 0.89123 255 255 255
-5.07213 -0.41834 0.88892 255 255 255
-5.08941 -0.42479 0.88538 255 255 255
-5.10549 -0.44269 0.87661 255 255 255
-5.12300 -0.45210 0.86725 0 0 0
-5.13746 -0.45910 0.85689 0 0 0
-5.15163 -0.46971 0.85247 0 0 0
-5.16534 -0.47829 0.84938 0 0 0
-5.17721 -0.49540 0.85049 0 0 0
-5.19318 -0.49616 0.84899 0 0 0
-5.20702 -0.49102 0.84337 0 0 0
-5.21729 -0.50842 0.84448 0 0 0
-5.22927 -0.52331 0.84767 0 0 0
-5.24527 -0.51712 0.84390 0 0 0
-5.25826 -0.52982 0.84140 0 0 0
-5.27024 -0.54571 0.84028 0 0 0
-5.28081 -0.55813 0.84348 0 0 0
-5.29270 -0.57000 0.84386 0 0 0
-5.30929 -0.57565 0.83841 0 0 0
-5.32868 -0.60933 0.84609 0 0 0
-5.34225 -0.61776 0.84682 0 0 0
-5.35967 -0.61932 0.84295 0 0 0
-5.37652 -0.61581 0.83297 0 0 0
-5.38354 -0.64182 0.83694 0 0 0
-5.41066 -0.65144 0.82967 0 0 0
-5.41487 -0.67843 0.83689 0 0 0
-5.42836 -0.67814 0.83395 0 0 0
-5.43782 -0.68907 0.82942 0 0 0
-5.44303 -0.71597 0.83632 255 255 255
-5.45339 -0.73020 0.84032 255 255 255
-5.46330 -0.73602 0.83347 255 255 255
-5.47074 -0.75486 0.83888 255 255 255
-5.48263 -0.76442 0.83857 255 255 255
-5.49084 -0.77048 0.83601 255 255 255
-5.49610 -0.79069 0.84669 255 255 255
-5.50678 -0.80478 0.85317 255 255 255
-5.51560 -0.80935 0.85064 255 255 255
-5.52322 -0.80774 0.84782 0 0 0
-5.52932 -0.81953 0.85196 0 0 0
-5.53896 -0.82217 0.85085 0 0 0
-5.54431 -0.82484 0.84515 0 0 0
-5.54322 -0.84389 0.85501 0 0 0
-5.54932 -0.84091 0.85263 0 0 0
-5.55203 -0.84740 0.84972 0 0 0
-5.54766 -0.87165 0.86273 0 0 0
-5.55462 -0.86618 0.86066 0 0 0
-5.55931 -0.85917 0.85585 0 0 0
-5.55379 -0.87508 0.86568 0 0 0
-5.55482 -0.87153 0.86873 0 0 0
-5.55599 -0.86346 0.86598 0 0 0
-5.54989 -0.86864 0.87325 0 0 0
-5.54341 -0.87124 0.88043 0 0 0
-5.53743 -0.87313 0.88822 0 0 0
-5.53100 -0.87419 0.90091 0 0 0
-5.53051 -0.86121 0.89714 0 0 0
-5.52179 -0.86139 0.90872 0 0 0
-5.51961 -0.85426 0.91515 0 0 0
-5.51827 -0.84429 0.91313 0 0 0
-5.51455 -0.83573 0.91799 0 0 0
-5.51324 -0.83217 0.92079 0 0 0
-5.51277 -0.82784 0.92184 0 0 0
-5.51033 -0.82798 0.92832 0 0 0
-5.51495 -0.82650 0.92699 0 0 0
-5.52447 -0.81983 0.92398 0 0 0
-5.53487 -0.81604 0.91882 0 0 0
-5.53931 -0.83005 0.92321 0 0 0
-5.54361 -0.84896 0.93498 0 0 0
-5.55942 -0.85043 0.93863 0 0 0
-5.57375 -0.86280 0.94240 0 0 0
-5.59179 -0.87463 0.95040 0 0 0
-5.62229 -0.85684 0.93673 0 0 0
-5.64339 -0.85187 0.93288 0 0 0
-5.65625 -0.87633 0.93896 0 0 0
-5.67443 -0.88760 0.94033 0 0 0
-5.69627 -0.88671 0.93703 0 0 0
-5.70769 -0.90484 0.94149 0 0 0
-5.71674 -0.92318 0.94954 0 0 0
-5.74226 -0.91393 0.94347 0 0 0
-5.75910 -0.91978 0.94423 0 0 0
-5.77891 -0.92296 0.94349 0 0 0
-5.78891 -0.93405 0.94732 0 0 0
-5.79571 -0.94622 0.95705 0 0 0
-5.80792 -0.95428 0.96719 0 0 0
-5.83176 -0.94164 0.95655 0 0 0
-5.84386 -0.94942 0.95851 0 0 0
-5.85565 -0.95416 0.96345 0 0 0
-5.87530 -0.94426 0.95676 0 0 0
-5.88821 -0.94556 0.95594 0 0 0
-5.89098 -0.96477 0.96420 0 0 0
-5.90449 -0.96576 0.96596 255 255 255
-5.93104 -0.96945 0.95913 255 255 255
-5.94005 -0.97301 0.95991 255 255 255
-5.95181 -0.97532 0.95927 255 255 255
-5.96455 -0.97643 0.95649 255 255 255
-5.97761 -0.97722 0.95757 255 255 255
-5.99116 -0.97613 0.95895 255 255 255
-6.00109 -0.98497 0.96186 255 255 255
-6.00325 -0.99910 0.97892 255 255 255
-6.01658 -0.98751 0.96935 255 255 255
-6.01456 -0.98453 0.97018 255 255 255
-6.01850 -0.97561 0.96478 255 255 255
-6.01252 -0.97770 0.96614 255 255 255
-6.00003 -0.98090 0.97735 255 255 255
-6.00044 -0.96952 0.96852 255 255 255
-6.00439 -0.94744 0.95269 255 255 255
-5.98292 -0.96575 0.96504 0 0 0
-5.97462 -0.95070 0.95854 0 0 0
-5.96379 -0.94103 0.95386 0 0 0
-5.95660 -0.92647 0.94898 0 0 0
-5.95170 -0.90491 0.94210 0 0 0
-5.93288 -0.90238 0.94314 0 0 0
-5.91316 -0.89405 0.94468 0 0 0
-5.90047 -0.87099 0.93370 0 0 0
-5.86891 -0.87108 0.93982 0 0 0
-5.85161 -0.85333 0.94429 0 0 0
-5.84372 -0.82538 0.92189 0 0 0
-5.81648 -0.81475 0.91922 0 0 0
-5.79178 -0.79938 0.91952 0 0 0
-5.78038 -0.76692 0.90268 0 0 0
-5.75809 -0.74592 0.89377 0 0 0
-5.72586 -0.74867 0.89651 0 0 0
-5.70625 -0.72370 0.88903 0 0 0
-5.68387 -0.69958 0.87812 0 0 0
-5.65481 -0.68919 0.87048 0 0 0
-5.62454 -0.68086 0.86932 0 0 0
-5.59965 -0.66417 0.86312 0 0 0
-5.57633 -0.64713 0.85214 0 0 0
-5.54022 -0.64367 0.85149 0 0 0
-5.50735 -0.63447 0.84937 0 0 0
-5.47320 -0.62587 0.84541 0 0 0
-5.44600 -0.61339 0.84130 0 0 0
-5.41769 -0.60112 0.83639 255 255 255
-5.39305 -0.58462 0.82695 255 255 255
-5.33175 -0.56019 0.82316 255 255 255
-5.30374 -0.54763 0.81535 255 255 255
-5.27076 -0.54580 0.82004 255 255 255
-5.24022 -0.53762 0.81854 0 0 0
-5.20490 -0.53398 0.82175 0 0 0
-5.17952 -0.52431 0.82918 0 0 0
-5.16456 -0.50806 0.81685 0 0 0
-5.13949 -0.50922 0.81852 0 0 0
-5.11627 -0.50552 0.81817 0 0 0
-5.09353 -0.50894 0.82014 0 0 0
-5.06825 -0.51402 0.82634 0 0 0
-5.05124 -0.50709 0.83070 0 0 0
-5.04738 -0.47790 0.79861 0 0 0
-5.03115 -0.49334 0.79036 0 0 0
-5.01545 -0.49661 0.78735 0 0 0
-4.99966 -0.50123 0.78228 0 0 0
-4.98309 -0.51695 0.77289 0 0 0
-4.96806 -0.52427 0.76966 0 0 0
-4.95080 -0.53287 0.76797 0 0 0
-4.94075 -0.53052 0.76369 0 0 0
-4.93142 -0.52007 0.76166 0 0 0
-4.90885 -0.52903 0.76076 0 0 0
-4.89290 -0.53833 0.75351 0 0 0
-4.86361 -0.55617 0.74411 0 0 0
-4.84266 -0.56358 0.74080 255 255 255
-4.82703 -0.56801 0.73976 255 255 255
-4.80273 -0.57543 0.74422 255 255 255
-4.78964 -0.57029 0.73797 255 255 255
-4.76168 -0.57837 0.73843 255 255 255
-4.73298 -0.58060 0.73438 255 255 255
-4.70940 -0.58035 0.73749 255 255 255
-4.69461 -0.57207 0.73403 255 255 255
-4.64945 -0.58938 0.74928 0 0 0
-4.62466 -0.58674 0.74888 0 0 0
-4.62542 -0.56188 0.72659 0 0 0
-4.59502 -0.57161 0.73004 0 0 0
-4.54825 -0.58765 0.73830 0 0 0
-4.53803 -0.56942 0.72756 0 0 0
-4.53910 -0.55221 0.72105 0 0 0
-4.50697 -0.56761 0.72703 0 0 0
-4.48676 -0.56373 0.72864 0 0 0
-4.48516 -0.54501 0.71864 0 0 0
-4.45530 -0.55949 0.72048 0 0 0
-4.43898 -0.55665 0.72388 0 0 0
-4.43032 -0.54503 0.72011 0 0 0
-4.40857 -0.54619 0.71973 0 0 0
-4.38443 -0.54773 0.72186 0 0 0
-4.37289 -0.53274 0.71651 0 0 0
-4.35569 -0.52184 0.70931 0 0 0
-4.33142 -0.52293 0.70632 0 0 0
-4.31121 -0.51291 0.70014 0 0 0
-4.28838 -0.50370 0.69287 0 0 0
-4.26517 -0.49571 0.68453 0 0 0
-4.23591 -0.49349 0.68235 0 0 0
-4.20763 -0.48485 0.67505 0 0 0
-4.18202 -0.47269 0.66580 255 255 255
-4.12265 -0.44572 0.64143 255 255 255
-4.08612 -0.43684 0.63250 255 255 255
-4.04454 -0.42926 0.63211 255 255 255
-4.01777 -0.40612 0.61570 255 255 255
-3.98963 -0.38792 0.59946 0 0 0
-3.94265 -0.38913 0.60319 0 0 0
-3.90976 -0.37761 0.60002 0 0 0
-3.88160 -0.35355 0.58277 0 0 0
-3.84972 -0.33899 0.56888 0 0 0
-3.81355 -0.33629 0.57180 0 0 0
-3.80075 -0.29928 0.55798 0 0 0
-3.76630 -0.29561 0.55521 0 0 0
-3.73348 -0.30080 0.56006 0 0 0
-3.71668 -0.27264 0.54785 0 0 0
-3.68894 -0.26421 0.53419 0 0 0
-3.67561 -0.22856 0.51669 0 0 0
-3.64236 -0.25762 0.51285 0 0 0
-3.62089 -0.23580 0.50425 0 0 0
-3.59246 -0.24607 0.50007 255 255 255
-3.54595 -0.25370 0.49028 255 255 255
-3.52711 -0.25328 0.48788 255 255 255
-3.50328 -0.25883 0.47773 255 255 255
-3.48077 -0.26753 0.46739 255 255 255
-3.45799 -0.27392 0.46989 255 255 255
-3.43383 -0.28201 0.47039 0 0 0
-3.40960 -0.29864 0.48595 0 0 0
-3.39758 -0.31202 0.49622 0 0 0
-3.37929 -0.32145 0.51060 0 0 0
-3.35994 -0.33364 0.52363 0 0 0
-3.35032 -0.33667 0.52792 0 0 0
-3.33223 -0.34398 0.52835 0 0 0
-3.30988 -0.35005 0.52327 0 0 0
-3.29564 -0.35671 0.52816 0 0 0
-3.28047 -0.36257 0.53940 0 0 0
-3.26033 -0.37085 0.54172 0 0 0
-3.24130 -0.38215 0.55527 0 0 0
-3.22527 -0.39129 0.57379 0 0 0
-3.20123 -0.39337 0.57551 0 0 0
-3.17648 -0.40192 0.58402 0 0 0
-3.15318 -0.40326 0.58022 0 0 0
-3.13149 -0.41994 0.60221 0 0 0
-3.11142 -0.42160 0.61007 0 0 0
-3.09071 -0.41996 0.60895 255 255 255
-3.04982 -0.41760 0.60358 255 255 255
-3.03853 -0.43586 0.61669 255 255 255
-3.02011 -0.44035 0.61915 255 255 255
-3.00397 -0.45189 0.62343 255 255 255
-2.98827 -0.46657 0.63361 0 0 0
-2.97834 -0.47494 0.64569 0 0 0
-2.96967 -0.48401 0.65657 0 0 0
-2.95389 -0.49468 0.66234 0 0 0
-2.93288 -0.50051 0.65152 0 0 0
-2.91233 -0.51298 0.64589 0 0 0
-2.89720 -0.52328 0.64373 0 0 0
-2.88605 -0.54008 0.65580 0 0 0
-2.87364 -0.54403 0.65854 0 0 0
-2.85481 -0.55362 0.65033 0 0 0
-2.83537 -0.56162 0.63912 0 0 0
-2.80942 -0.57758 0.62528 0 0 0
-2.80157 -0.58537 0.62144 0 0 0
-2.79583 -0.59674 0.62411 0 0 0
-2.78384 -0.59754 0.60526 0 0 0
-2.77619 -0.60441 0.59788 0 0 0
-2.76609 -0.60800 0.58485 0 0 0
-2.76028 -0.61652 0.58075 0 0 0
-2.74704 -0.62503 0.56478 0 0 0
-2.73683 -0.63360 0.55195 0 0 0
-2.72773 -0.65648 0.55120 0 0 0
-2.70954 -0.67166 0.53797 255 255 255
-2.69509 -0.68640 0.52239 255 255 255
-2.67739 -0.71043 0.51665 255 255 255
-2.66544 -0.71809 0.49918 255 255 255
-2.65123 -0.74275 0.49516 255 255 255
-2.63841 -0.75180 0.47947 0 0 0
-2.62731 -0.77216 0.47271 0 0 0
-2.61632 -0.78111 0.46496 0 0 0
-2.60647 -0.80993 0.46370 0 0 0
-2.58930 -0.82652 0.44236 0 0 0
-2.57242 -0.85275 0.42822 0 0 0
-2.56348 -0.88086 0.42373 0 0 0
-2.56061 -0.89801 0.40933 0 0 0
-2.55099 -0.91126 0.38568 0 0 0
-2.54331 -0.92694 0.36147 0 0 0
-2.54140 -0.95285 0.35352 0 0 0
-2.53350 -0.94096 0.31697 0 0 0
-2.53461 -0.98170 0.32025 0 0 0
-2.53179 -0.98154 0.30282 0 0 0
-2.52669 -0.99281 0.28157 255 255 255
-2.51209 -1.01999 0.26013 255 255 255
-2.51123 -1.02931 0.25136 255 255 255
-2.50737 -1.04572 0.25503 255 255 255
-2.49247 -1.04162 0.24269 255 255 255
-2.47466 -1.02970 0.22273 255 255 255
-2.45739 -1.03977 0.22620 0 0 0
-2.43130 -1.04815 0.22719 0 0 0
-2.40608 -1.03939 0.22226 0 0 0
-2.39072 -1.03380 0.22333 0 0 0
-2.37231 -1.04465 0.24268 0 0 0
-2.34001 -1.03332 0.23057 0 0 0
-2.31515 -1.02797 0.22595 0 0 0
-2.27046 -1.02523 0.22700 0 0 0
-2.25902 -1.03028 0.23378 0 0 0
-2.24821 -1.03512 0.24255 0 0 0
-2.21800 -1.03814 0.24018 0 0 0
-2.19778 -1.04395 0.23879 0 0 0
-2.18042 -1.04909 0.23615 0 0 0
-2.16950 -1.05534 0.23696 0 0 0
-2.15848 -1.05669 0.23664 0 0 0
-2.14938 -1.05888 0.23572 0 0 0
-2.14156 -1.06160 0.23668 0 0 0
-2.13280 -1.06439 0.23841 0 0 0
-2.11944 -1.07107 0.24049 0 0 0
-2.10376 -1.06798 0.23451 0 0 0
-2.09570 -1.07450 0.23789 0 0 0
-2.08791 -1.08065 0.24298 0 0 0
-2.08323 -1.08142 0.24537 0 0 0
-2.08029 -1.08490 0.25133 255 255 255
-2.07293 -1.08590 0.25096 255 255 255
-2.06023 -1.09053 0.25019 255 255 255
-2.04942 -1.09547 0.25132 255 255 255
-2.04403 -1.09631 0.25331 255 255 255
-2.04155 -1.10576 0.26342 255 255 255
-2.02945 -1.10574 0.25992 255 255 255
-2.01795 -1.10239 0.25433 255 255 255
-2.01678 -1.11861 0.26017 255 255 255
-2.01370 -1.12008 0.25930 0 0 0
-2.01437 -1.12493 0.26015 0 0 0
-2.01432 -1.13112 0.26287 0 0 0
-2.00754 -1.13174 0.26005 0 0 0
-2.00921 -1.13875 0.26411 0 0 0
-2.01021 -1.14040 0.26627 0 0 0
-2.00375 -1.14293 0.26834 0 0 0
-1.99677 -1.15173 0.27544 0 0 0
-1.98602 -1.14964 0.27657 0 0 0
-1.98030 -1.14907 0.27932 0 0 0
-1.97939 -1.15856 0.28815 0 0 0
-1.97596 -1.15917 0.29038 0 0 0
-1.96904 -1.15809 0.29050 0 0 0
-1.96591 -1.15916 0.29182 0 0 0
-1.96617 -1.16208 0.29331 0 0 0
-1.96091 -1.16643 0.29654 0 0 0
-1.95134 -1.16589 0.29536 0 0 0
-1.94875 -1.16952 0.29697 0 0 0
-1.94565 -1.17135 0.29788 0 0 0
-1.94447 -1.17139 0.29721 0 0 0
-1.94588 -1.17330 0.29635 0 0 0
-1.94337 -1.17555 0.29621 0 0 0
-1.94303 -1.18000 0.29692 0 0 0
-1.94541 -1.18150 0.29703 0 0 0
-1.94291 -1.17941 0.29450 0 0 0
-1.94330 -1.18216 0.29469 0 0 0
-1.94264 -1.17862 0.29086 0 0 0
-1.94230 -1.17908 0.29072 0 0 0
-1.94551 -1.18286 0.29170 0 0 0
-1.94557 -1.18184 0.28913 0 0 0
-1.94142 -1.18452 0.29001 0 0 0
-1.93729 -1.18784 0.29116 0 0 0
-1.93591 -1.18883 0.29092 0 0 0
