ply
format ascii 1.0
element face 0
property list uchar int vertex_indices
element vertex 1440
property float x
property float y
property float z
property uchar diffuse_red
property uchar diffuse_green
property uchar diffuse_blue
end_header
-0.58284 0.07938 0.44731 0 0 0
-0.59145 0.07504 0.45413 0 0 0
-0.60002 0.07104 0.45981 0 0 0
-0.60793 0.06492 0.46730 0 0 0
-0.61548 0.06010 0.47275 0 0 0
-0.62240 0.05510 0.47838 0 0 0
-0.62821 0.04819 0.48596 0 0 0
-0.63410 0.04196 0.49192 0 0 0
-0.63835 0.03560 0.49809 0 0 0
-0.64228 0.03001 0.50469 255 255 255
-0.64630 0.02404 0.51098 255 255 255
-0.64932 0.01739 0.51715 255 255 255
-0.65191 0.00953 0.52397 255 255 255
-0.65334 0.00272 0.53032 255 255 255
-0.65363 -0.00444 0.53796 0 0 0
-0.65465 -0.01051 0.54538 0 0 0
-0.65583 -0.01669 0.55324 0 0 0
-0.65675 -0.02249 0.56248 0 0 0
-0.65861 -0.03040 0.57296 0 0 0
-0.66002 -0.03691 0.58340 0 0 0
-0.66020 -0.04409 0.59597 0 0 0
-0.66231 -0.05436 0.60893 0 0 0
-0.66489 -0.06502 0.62166 0 0 0
-0.66567 -0.07701 0.63612 0 0 0
-0.66772 -0.09037 0.64973 0 0 0
-0.66963 -0.10163 0.66198 0 0 0
-0.67190 -0.11304 0.67528 255 255 255
-0.67612 -0.12407 0.68738 255 255 255
-0.68120 -0.13549 0.69914 255 255 255
-0.68580 -0.14914 0.71254 255 255 255
-0.69097 -0.16216 0.72501 255 255 255
-0.69716 -0.17559 0.73777 0 0 0
-0.70123 -0.18782 0.75002 0 0 0
-0.70611 -0.19984 0.76232 0 0 0
-0.71166 -0.21303 0.77468 0 0 0
-0.71881 -0.22446 0.78561 0 0 0
-0.72467 -0.23501 0.79563 0 0 0
-0.73057 -0.24615 0.80661 0 0 0
-0.73781 -0.25711 0.81657 0 0 0
-0.74414 -0.26620 0.82488 0 0 0
-0.74976 -0.27541 0.83353 0 0 0
-0.75524 -0.28398 0.84284 0 0 0
-0.76213 -0.29183 0.85058 0 0 0
-0.76743 -0.29923 0.85847 255 255 255
-0.77448 -0.30743 0.86602 255 255 255
-0.77992 -0.31430 0.87304 255 255 255
-0.78536 -0.32062 0.88017 255 255 255
-0.79137 -0.32638 0.88638 255 255 255
-0.79790 -0.33248 0.89307 0 0 0
-0.80382 -0.33900 0.89934 0 0 0
-0.81006 -0.34494 0.90546 0 0 0
-0.81643 -0.34927 0.91025 0 0 0
-0.82288 -0.35419 0.91625 0 0 0
-0.83068 -0.35997 0.92161 0 0 0
-0.83776 -0.36428 0.92682 0 0 0
-0.84510 -0.36959 0.93261 0 0 0
-0.85432 -0.37556 0.93842 0 0 0
-0.86360 -0.38062 0.94293 0 0 0
-0.87018 -0.38541 0.94756 0 0 0
-0.88041 -0.39277 0.95352 0 0 0
-0.89040 -0.39899 0.95825 255 255 255
-0.89912 -0.40457 0.96231 255 255 255
-0.90771 -0.40964 0.96641 255 255 255
-0.91954 -0.41561 0.97059 255 255 255
-0.93111 -0.42169 0.97518 255 255 255
-0.94331 -0.42944 0.98056 0 0 0
-0.95511 -0.43759 0.98595 0 0 0
-0.96644 -0.44107 0.98794 0 0 0
-0.97750 -0.44314 0.98997 0 0 0
-0.98919 -0.44433 0.99120 0 0 0
-1.00251 -0.44822 0.99482 0 0 0
-1.01055 -0.45339 0.99885 0 0 0
-1.01830 -0.46029 1.00402 0 0 0
-1.03389 -0.46689 1.00848 0 0 0
-1.04915 -0.47246 1.01132 0 0 0
-1.05980 -0.47645 1.01296 0 0 0
-1.07133 -0.48031 1.01527 0 0 0
-1.08239 -0.48608 1.01763 0 0 0
-1.09188 -0.49204 1.02025 255 255 255
-1.10019 -0.49837 1.02349 255 255 255
-1.10893 -0.50496 1.02727 255 255 255
-1.11724 -0.51085 1.03072 255 255 255
-1.12563 -0.51654 1.03367 255 255 255
-1.13290 -0.52265 1.03627 255 255 255
-1.13987 -0.52799 1.03842 0 0 0
-1.14653 -0.53299 1.04096 0 0 0
-1.15210 -0.53835 1.04422 0 0 0
-1.15600 -0.54222 1.04838 0 0 0
-1.16077 -0.54763 1.05449 0 0 0
-1.16597 -0.55258 1.06105 0 0 0
-1.17102 -0.55707 1.06758 0 0 0
-1.17572 -0.56459 1.07516 0 0 0
-1.17903 -0.57144 1.08334 0 0 0
-1.18151 -0.57752 1.09168 0 0 0
-1.18416 -0.58712 1.10230 0 0 0
-1.18754 -0.59619 1.11152 0 0 0
-1.18813 -0.60181 1.11917 0 0 0
-1.18936 -0.61074 1.12896 255 255 255
-1.18901 -0.61952 1.13709 255 255 255
-1.18772 -0.62853 1.14732 255 255 255
-1.18828 -0.63535 1.15457 255 255 255
-1.18669 -0.64033 1.16189 255 255 255
-1.18576 -0.64871 1.17094 255 255 255
-1.18475 -0.65405 1.17836 0 0 0
-1.18413 -0.65885 1.18535 0 0 0
-1.18362 -0.66511 1.19413 0 0 0
-1.18270 -0.66727 1.19961 0 0 0
-1.18276 -0.67074 1.20607 0 0 0
-1.18130 -0.67293 1.21085 0 0 0
-1.17674 -0.67671 1.21993 0 0 0
-1.17252 -0.67672 1.22552 0 0 0
-1.17150 -0.67401 1.22613 0 0 0
-1.16960 -0.67223 1.22828 0 0 0
-1.16368 -0.66588 1.23027 0 0 0
-1.15922 -0.65958 1.22847 0 0 0
-1.15589 -0.65144 1.22601 0 0 0
-1.15167 -0.64335 1.22227 0 0 0
-1.14595 -0.63348 1.21659 0 0 0
-1.14092 -0.62316 1.21155 0 0 0
-1.13418 -0.61183 1.20415 0 0 0
-1.12574 -0.59744 1.19664 0 0 0
-1.12067 -0.58484 1.19147 0 0 0
-1.11529 -0.57489 1.18689 255 255 255
-1.10720 -0.55899 1.17973 255 255 255
-1.10297 -0.54732 1.17620 255 255 255
-1.09747 -0.53326 1.16945 255 255 255
-1.09038 -0.51816 1.16420 255 255 255
-1.08730 -0.50690 1.16080 255 255 255
-1.08265 -0.49329 1.15402 0 0 0
-1.07672 -0.47975 1.14838 0 0 0
-1.07334 -0.46635 1.14385 0 0 0
-1.07075 -0.45380 1.13716 0 0 0
-1.06797 -0.43873 1.12890 0 0 0
-1.06559 -0.42635 1.12083 0 0 0
-1.06116 -0.41411 1.11208 0 0 0
-1.05586 -0.40069 1.10362 0 0 0
-1.05100 -0.38994 1.09530 0 0 0
-1.04566 -0.37684 1.08582 0 0 0
-1.04010 -0.36426 1.07600 255 255 255
-1.03591 -0.35320 1.06634 255 255 255
-1.03319 -0.34231 1.05501 255 255 255
-1.02751 -0.33000 1.04404 255 255 255
-1.02261 -0.32037 1.03470 255 255 255
-1.01728 -0.31090 1.02585 0 0 0
-1.01235 -0.30256 1.01741 0 0 0
-1.00660 -0.29389 1.00805 0 0 0
-1.00142 -0.28511 0.99968 0 0 0
-0.99688 -0.27823 0.99268 0 0 0
-0.99153 -0.26999 0.98411 0 0 0
-0.98736 -0.26189 0.97659 0 0 0
-0.98361 -0.25510 0.96916 0 0 0
-0.97900 -0.24688 0.96050 0 0 0
-0.97562 -0.23910 0.95272 0 0 0
-0.97212 -0.23173 0.94475 0 0 0
-0.96856 -0.22286 0.93669 0 0 0
-0.96563 -0.21678 0.93054 255 255 255
-0.96329 -0.20996 0.92335 255 255 255
-0.96000 -0.20136 0.91422 255 255 255
-0.95703 -0.19495 0.90786 255 255 255
-0.95502 -0.18965 0.90257 255 255 255
-0.95346 -0.18149 0.89389 255 255 255
-0.95281 -0.17525 0.88719 255 255 255
-0.95153 -0.16984 0.88138 255 255 255
-0.94927 -0.16260 0.87403 0 0 0
-0.94720 -0.15526 0.86794 0 0 0
-0.94573 -0.14924 0.86341 0 0 0
-0.94433 -0.14472 0.85991 0 0 0
-0.94204 -0.13794 0.85499 0 0 0
-0.94063 -0.13198 0.85082 0 0 0
-0.93913 -0.12635 0.84708 0 0 0
-0.93816 -0.12198 0.84418 0 0 0
-0.93694 -0.11725 0.84122 0 0 0
-0.93663 -0.11440 0.83909 0 0 0
-0.93651 -0.11048 0.83673 0 0 0
-0.93742 -0.10898 0.83615 0 0 0
-0.93956 -0.10725 0.83500 0 0 0
-0.94133 -0.10690 0.83437 0 0 0
-0.94417 -0.11013 0.83618 0 0 0
-0.94734 -0.11212 0.83658 0 0 0
-0.95102 -0.11616 0.83870 0 0 0
-0.95521 -0.12141 0.84194 0 0 0
-0.95923 -0.12909 0.84658 0 0 0
-0.96282 -0.13532 0.85034 0 0 0
-0.96581 -0.14336 0.85562 0 0 0
-0.96929 -0.15192 0.86254 0 0 0
-0.97322 -0.16074 0.86991 0 0 0
-0.97647 -0.16953 0.87794 0 0 0
-0.97956 -0.17901 0.88700 0 0 0
-0.98318 -0.18935 0.89715 0 0 0
-0.98635 -0.19923 0.90675 0 0 0
-0.98912 -0.20986 0.91792 0 0 0
-0.99183 -0.22212 0.93103 0 0 0
-0.99455 -0.23414 0.94339 0 0 0
-0.99697 -0.24612 0.95595 0 0 0
-0.99870 -0.25925 0.97058 0 0 0
-1.00058 -0.27253 0.98486 0 0 0
-1.00179 -0.28731 1.00118 0 0 0
-1.00387 -0.30063 1.01530 0 0 0
-1.00458 -0.31397 1.03057 0 0 0
-1.00519 -0.32829 1.04584 0 0 0
-1.00554 -0.34206 1.06085 0 0 0
-1.00481 -0.35358 1.07326 0 0 0
-1.00528 -0.36980 1.09068 0 0 0
-1.00675 -0.38436 1.10468 0 0 0
-1.00545 -0.39653 1.11701 0 0 0
-1.00599 -0.40955 1.12885 0 0 0
-1.00522 -0.42139 1.13902 0 0 0
-1.00651 -0.43306 1.14868 255 255 255
-1.00572 -0.45612 1.16555 255 255 255
-1.00526 -0.46656 1.17286 255 255 255
-1.00497 -0.47750 1.18000 255 255 255
-1.00397 -0.48726 1.18645 255 255 255
-1.00315 -0.49690 1.19350 0 0 0
-1.00124 -0.50778 1.20096 0 0 0
-0.99904 -0.51873 1.20903 0 0 0
-0.99733 -0.52848 1.21578 0 0 0
-0.99469 -0.53745 1.22156 0 0 0
-0.99122 -0.54602 1.22742 0 0 0
-0.98976 -0.55658 1.23487 0 0 0
-0.98850 -0.56500 1.23997 0 0 0
-0.98282 -0.57419 1.24833 0 0 0
-0.97854 -0.58345 1.25510 0 0 0
-0.97412 -0.59121 1.26168 0 0 0
-0.96803 -0.60115 1.27064 0 0 0
-0.96252 -0.60882 1.27765 0 0 0
-0.95567 -0.61514 1.28492 0 0 0
-0.95359 -0.62379 1.29225 0 0 0
-0.95019 -0.63102 1.29930 0 0 0
-0.94480 -0.63692 1.30524 0 0 0
-0.94078 -0.64457 1.31280 0 0 0
-0.93689 -0.65126 1.31974 255 255 255
-0.93179 -0.65745 1.32643 255 255 255
-0.92720 -0.66375 1.33320 255 255 255
-0.92241 -0.66868 1.33933 255 255 255
-0.91822 -0.67401 1.34603 255 255 255
-0.91441 -0.67974 1.35168 255 255 255
-0.90910 -0.68426 1.35694 255 255 255
-0.90380 -0.69050 1.36332 255 255 255
-0.89833 -0.69583 1.36859 0 0 0
-0.89384 -0.69845 1.37261 0 0 0
-0.88888 -0.70279 1.37687 0 0 0
-0.88297 -0.70634 1.37961 0 0 0
-0.87680 -0.71003 1.38272 0 0 0
-0.87085 -0.71399 1.38556 0 0 0
-0.86419 -0.71777 1.38763 0 0 0
-0.85824 -0.72093 1.38996 0 0 0
-0.85139 -0.72333 1.39210 0 0 0
-0.84463 -0.72559 1.39424 0 0 0
-0.83794 -0.72652 1.39492 0 0 0
-0.83088 -0.72831 1.39664 0 0 0
-0.82368 -0.72975 1.39767 0 0 0
-0.81676 -0.72886 1.39711 0 0 0
-0.80983 -0.72671 1.39551 0 0 0
-0.80292 -0.72525 1.39446 0 0 0
-0.79594 -0.72213 1.39211 0 0 0
-0.78870 -0.71812 1.38899 0 0 0
-0.78133 -0.71184 1.38409 0 0 0
-0.77338 -0.70544 1.37949 0 0 0
-0.76521 -0.70164 1.37610 0 0 0
-0.75751 -0.69555 1.37088 0 0 0
-0.74956 -0.68852 1.36559 0 0 0
-0.74223 -0.67990 1.36062 0 0 0
-0.73456 -0.67392 1.35652 0 0 0
-0.72753 -0.66596 1.35100 0 0 0
-0.71946 -0.65710 1.34515 0 0 0
-0.71303 -0.64535 1.33830 0 0 0
-0.70773 -0.63594 1.33197 0 0 0
-0.70213 -0.62178 1.32390 0 0 0
-0.69597 -0.61060 1.31686 0 0 0
-0.69051 -0.60012 1.30983 0 0 0
-0.68485 -0.59070 1.30234 0 0 0
-0.67818 -0.57995 1.29499 0 0 0
-0.67321 -0.56922 1.28694 0 0 0
-0.66672 -0.55835 1.27958 0 0 0
-0.66753 -0.54693 1.27103 0 0 0
-0.66410 -0.53435 1.26211 0 0 0
-0.66034 -0.52218 1.25349 0 0 0
-0.65470 -0.51185 1.24563 255 255 255
-0.64917 -0.49460 1.22771 255 255 255
-0.64439 -0.48586 1.21989 255 255 255
-0.64073 -0.47674 1.21113 255 255 255
-0.63760 -0.46937 1.20308 255 255 255
-0.63509 -0.45853 1.19352 0 0 0
-0.63322 -0.45036 1.18415 0 0 0
-0.62947 -0.44311 1.17649 0 0 0
-0.62622 -0.43389 1.16853 0 0 0
-0.62403 -0.42522 1.16020 0 0 0
-0.62237 -0.41762 1.15250 0 0 0
-0.61973 -0.40764 1.14523 0 0 0
-0.61704 -0.40210 1.13920 0 0 0
-0.61518 -0.39577 1.13305 0 0 0
-0.61425 -0.38733 1.12628 0 0 0
-0.61256 -0.38230 1.11954 0 0 0
-0.61152 -0.37553 1.11220 0 0 0
-0.61006 -0.36957 1.10524 0 0 0
-0.60768 -0.36419 1.09899 0 0 0
-0.60694 -0.35682 1.09176 0 0 0
-0.60508 -0.35122 1.08554 0 0 0
-0.60296 -0.34369 1.07957 0 0 0
-0.60120 -0.33673 1.07371 0 0 0
-0.60097 -0.32969 1.06691 0 0 0
-0.60001 -0.32352 1.06071 0 0 0
-0.59920 -0.31966 1.05436 0 0 0
-0.59856 -0.31263 1.04797 0 0 0
-0.59830 -0.30754 1.04156 0 0 0
-0.59854 -0.30339 1.03587 255 255 255
-0.59976 -0.29821 1.03033 255 255 255
-0.60094 -0.29453 1.02583 255 255 255
-0.60352 -0.28863 1.02104 255 255 255
-0.60624 -0.28115 1.01547 255 255 255
-0.60829 -0.27469 1.01170 255 255 255
-0.61151 -0.27097 1.00792 255 255 255
-0.61586 -0.26813 1.00410 255 255 255
-0.62096 -0.26524 1.00007 255 255 255
-0.62626 -0.26021 0.99524 0 0 0
-0.63052 -0.25355 0.99021 0 0 0
-0.63563 -0.25037 0.98610 0 0 0
-0.64100 -0.24952 0.98179 0 0 0
-0.64456 -0.24581 0.97758 0 0 0
-0.64898 -0.24620 0.97433 0 0 0
-0.65189 -0.24564 0.97172 0 0 0
-0.65540 -0.24189 0.96880 0 0 0
-0.65968 -0.24463 0.96730 0 0 0
-0.66414 -0.23847 0.96397 0 0 0
-0.66838 -0.23619 0.96192 0 0 0
-0.67284 -0.24357 0.96267 0 0 0
-0.67859 -0.24422 0.96073 0 0 0
-0.68985 -0.24070 0.95691 0 0 0
-0.69564 -0.23960 0.95553 0 0 0
-0.70085 -0.23447 0.95347 0 0 0
-0.70774 -0.23763 0.95281 0 0 0
-0.71537 -0.24158 0.95223 0 0 0
-0.72213 -0.24001 0.95091 0 0 0
-0.73000 -0.24420 0.95069 0 0 0
-0.73816 -0.24793 0.95055 0 0 0
-0.74635 -0.24601 0.94886 0 0 0
-0.75437 -0.24789 0.94895 0 0 0
-0.76285 -0.25058 0.94908 0 0 0
-0.77051 -0.25075 0.95065 0 0 0
-0.78043 -0.26017 0.95426 0 0 0
-0.78963 -0.26255 0.95649 0 0 0
-0.79800 -0.25999 0.95820 0 0 0
-0.80642 -0.27242 0.96392 255 255 255
-0.82182 -0.28130 0.97200 255 255 255
-0.83020 -0.28825 0.97606 255 255 255
-0.83795 -0.29867 0.98082 255 255 255
-0.84513 -0.30250 0.98457 255 255 255
-0.85954 -0.31486 0.99679 255 255 255
-0.86616 -0.32129 1.00405 0 0 0
-0.87206 -0.32533 1.01243 0 0 0
-0.87952 -0.33643 1.02104 0 0 0
-0.88763 -0.34093 1.02735 0 0 0
-0.89372 -0.35198 1.03607 0 0 0
-0.89970 -0.36422 1.04421 0 0 0
-0.90687 -0.37021 1.05006 0 0 0
-0.91387 -0.37601 1.05650 0 0 0
-0.92035 -0.38706 1.06479 0 0 0
-0.92698 -0.39796 1.07266 0 0 0
-0.93392 -0.40222 1.07950 0 0 0
-0.94040 -0.41249 1.08748 0 0 0
-0.94616 -0.42381 1.09578 0 0 0
-0.95107 -0.43049 1.10342 0 0 0
-0.95624 -0.43654 1.11024 255 255 255
-0.95900 -0.44572 1.11961 255 255 255
-0.96019 -0.45603 1.13092 255 255 255
-0.96109 -0.46803 1.14365 255 255 255
-0.96477 -0.47880 1.15362 255 255 255
-0.96690 -0.48886 1.16397 0 0 0
-0.97004 -0.49876 1.17355 0 0 0
-0.97246 -0.50536 1.18203 0 0 0
-0.97282 -0.51523 1.19256 0 0 0
-0.97300 -0.52289 1.20285 0 0 0
-0.97474 -0.52732 1.21132 0 0 0
-0.97578 -0.53513 1.22108 0 0 0
-0.97730 -0.54340 1.23025 0 0 0
-0.97871 -0.55187 1.24918 0 0 0
-0.97952 -0.56014 1.25889 0 0 0
-0.98161 -0.56228 1.26693 0 0 0
-0.98269 -0.56543 1.27567 0 0 0
-0.98540 -0.57906 1.29126 0 0 0
-0.98450 -0.58629 1.30009 0 0 0
-0.98324 -0.59130 1.30923 0 0 0
-0.98114 -0.59731 1.31861 0 0 0
-0.97973 -0.60644 1.32812 0 0 0
-0.97848 -0.61293 1.33623 0 0 0
-0.97700 -0.61704 1.34407 0 0 0
-0.97438 -0.62332 1.35180 255 255 255
-0.97297 -0.63035 1.35952 255 255 255
-0.96749 -0.63976 1.37280 255 255 255
-0.96499 -0.64217 1.37945 255 255 255
-0.96470 -0.64956 1.38558 255 255 255
-0.96219 -0.65435 1.39234 255 255 255
-0.95954 -0.65850 1.39857 255 255 255
-0.95791 -0.66194 1.40433 255 255 255
-0.95567 -0.66691 1.41137 255 255 255
-0.95326 -0.67131 1.41788 0 0 0
-0.95244 -0.67431 1.42315 0 0 0
-0.94936 -0.67873 1.43068 0 0 0
-0.94755 -0.68120 1.43643 0 0 0
-0.94585 -0.68662 1.44243 0 0 0
-0.94371 -0.69149 1.44867 0 0 0
-0.93970 -0.69430 1.45548 0 0 0
-0.93769 -0.70173 1.46122 0 0 0
-0.93442 -0.70435 1.46765 0 0 0
-0.93148 -0.70685 1.47436 0 0 0
-0.92947 -0.71163 1.48006 0 0 0
-0.92673 -0.71487 1.48702 0 0 0
-0.92512 -0.71501 1.49291 0 0 0
-0.92319 -0.72172 1.49904 0 0 0
-0.91789 -0.72746 1.50697 0 0 0
-0.91489 -0.72998 1.51361 0 0 0
-0.91415 -0.73476 1.51919 0 0 0
-0.90918 -0.73989 1.52655 0 0 0
-0.90528 -0.74216 1.53349 0 0 0
-0.90475 -0.74799 1.53797 0 0 0
-0.90189 -0.75100 1.54433 0 0 0
-0.89738 -0.75469 1.54998 0 0 0
-0.89432 -0.75760 1.55499 0 0 0
-0.89115 -0.76017 1.56144 0 0 0
-0.88771 -0.76446 1.56605 0 0 0
-0.88255 -0.77132 1.57190 0 0 0
-0.87658 -0.77494 1.57910 0 0 0
-0.87083 -0.77912 1.58459 255 255 255
-0.86722 -0.78627 1.59065 255 255 255
-0.86371 -0.78895 1.59635 255 255 255
-0.86113 -0.79257 1.60054 255 255 255
-0.85781 -0.79497 1.60515 255 255 255
-0.85313 -0.79756 1.61110 255 255 255
-0.84974 -0.80514 1.61666 255 255 255
-0.84448 -0.80818 1.62236 255 255 255
-0.83993 -0.80920 1.62866 255 255 255
-0.83801 -0.81466 1.63422 255 255 255
-0.83509 -0.81900 1.63996 0 0 0
-0.83153 -0.82431 1.64677 0 0 0
-0.83198 -0.83137 1.65159 0 0 0
-0.82708 -0.83644 1.65827 0 0 0
-0.82221 -0.84402 1.66603 0 0 0
-0.82132 -0.84893 1.67158 0 0 0
-0.81500 -0.85337 1.67976 0 0 0
-0.81071 -0.86025 1.68859 0 0 0
-0.80991 -0.86549 1.69467 0 0 0
-0.80389 -0.86537 1.70270 0 0 0
-0.79901 -0.87087 1.71148 0 0 0
-0.80015 -0.87956 1.71803 0 0 0
-0.79644 -0.88776 1.72649 0 0 0
-0.79331 -0.88990 1.73432 0 0 0
-0.79306 -0.89189 1.73964 0 0 0
-0.78851 -0.89539 1.74675 0 0 0
-0.78652 -0.89837 1.75277 0 0 0
-0.78612 -0.90414 1.75797 0 0 0
-0.78155 -0.91290 1.76446 0 0 0
-0.77982 -0.91704 1.77110 0 0 0
-0.77796 -0.92099 1.77539 0 0 0
-0.77463 -0.92381 1.78243 0 0 0
-0.76955 -0.92692 1.78839 0 0 0
-0.76775 -0.93046 1.79414 0 0 0
-0.76333 -0.93897 1.80171 0 0 0
-0.75954 -0.94545 1.80983 0 0 0
-0.75618 -0.94755 1.81719 0 0 0
-0.75401 -0.95239 1.82552 255 255 255
-0.75444 -0.95753 1.83095 255 255 255
-0.75091 -0.96125 1.83628 255 255 255
-0.74861 -0.96536 1.84369 255 255 255
-0.74473 -0.96831 1.84882 255 255 255
-0.74359 -0.97287 1.85357 255 255 255
-0.74140 -0.97794 1.85767 255 255 255
-0.73380 -0.97690 1.86215 255 255 255
-0.73158 -0.98143 1.86795 255 255 255
-0.73190 -0.98730 1.87278 255 255 255
-0.72580 -0.98963 1.86913 255 255 255
-0.72398 -0.99276 1.86934 0 0 0
-0.72461 -0.99650 1.87157 0 0 0
-0.72482 -0.99830 1.86903 0 0 0
-0.72334 -0.99930 1.86828 0 0 0
-0.72183 -0.99849 1.86940 0 0 0
-0.72295 -0.99801 1.87153 0 0 0
-0.72934 -1.00281 1.87408 0 0 0
-0.72908 -1.00140 1.87405 0 0 0
-0.73445 -1.00284 1.87859 0 0 0
-0.73786 -1.00529 1.88219 0 0 0
-0.73818 -1.00380 1.88491 0 0 0
-0.74508 -1.00685 1.89161 0 0 0
-0.74838 -1.00990 1.89852 0 0 0
-0.75288 -1.01069 1.90208 0 0 0
-0.75900 -1.01242 1.90660 0 0 0
-0.76643 -1.01494 1.90876 0 0 0
-0.77324 -1.01564 1.90804 0 0 0
-0.78172 -1.01549 1.89977 0 0 0
-0.78969 -1.01406 1.89232 0 0 0
-0.80011 -1.01434 1.88831 0 0 0
-0.80969 -1.01538 1.88838 0 0 0
-0.82010 -1.01525 1.88549 0 0 0
-0.82985 -1.01356 1.87997 0 0 0
-0.83879 -1.01074 1.87370 0 0 0
-0.84904 -1.00846 1.86593 0 0 0
-0.85962 -1.00543 1.85542 0 0 0
-0.86502 -1.00003 1.84424 0 0 0
-0.87299 -0.99402 1.83320 0 0 0
-0.88356 -0.98858 1.82199 0 0 0
-0.89162 -0.97972 1.81007 0 0 0
-0.90008 -0.97141 1.80043 0 0 0
-0.90906 -0.96313 1.79090 0 0 0
-0.91880 -0.95293 1.78020 0 0 0
-0.92983 -0.93999 1.76827 0 0 0
-0.94120 -0.92927 1.76050 0 0 0
-0.95489 -0.91789 1.75002 0 0 0
-0.96619 -0.90337 1.73522 0 0 0
-0.97588 -0.88793 1.72230 0 0 0
-0.99059 -0.87515 1.71177 0 0 0
-1.00559 -0.86317 1.70041 0 0 0
-1.01263 -0.84632 1.68602 0 0 0
-1.02192 -0.83031 1.67112 0 0 0
-1.02867 -0.81237 1.65428 0 0 0
-1.03313 -0.79639 1.63988 0 0 0
-1.04356 -0.78379 1.62913 0 0 0
-1.05309 -0.77082 1.61858 0 0 0
-1.05882 -0.75582 1.60337 0 0 0
-1.06434 -0.74165 1.59082 255 255 255
-1.07849 -0.71716 1.56573 255 255 255
-1.08094 -0.70198 1.55297 255 255 255
-1.08592 -0.68966 1.54232 255 255 255
-1.09323 -0.67990 1.53311 255 255 255
-1.09538 -0.66709 1.51907 0 0 0
-1.09559 -0.65254 1.50553 0 0 0
-1.10592 -0.64681 1.49993 0 0 0
-1.10827 -0.63608 1.48458 0 0 0
-1.10842 -0.62408 1.47114 0 0 0
-1.11525 -0.61831 1.46539 0 0 0
-1.11715 -0.60849 1.45303 0 0 0
-1.11660 -0.59660 1.44106 0 0 0
-1.12211 -0.58961 1.43219 0 0 0
-1.12269 -0.58046 1.42194 0 0 0
-1.12099 -0.56782 1.40777 0 0 0
-1.12723 -0.56124 1.40031 0 0 0
-1.12736 -0.55166 1.38792 0 0 0
-1.12188 -0.53636 1.37292 0 0 0
-1.12675 -0.52910 1.36601 0 0 0
-1.12784 -0.52465 1.36053 0 0 0
-1.12479 -0.51532 1.34773 0 0 0
-1.12168 -0.50494 1.33658 0 0 0
-1.12504 -0.49940 1.33175 0 0 0
-1.12294 -0.48956 1.31693 0 0 0
-1.12035 -0.47964 1.30981 255 255 255
-1.12565 -0.47379 1.30748 255 255 255
-1.12796 -0.46733 1.29966 255 255 255
-1.12543 -0.45734 1.28021 255 255 255
-1.12779 -0.45258 1.27164 255 255 255
-1.12827 -0.44631 1.26277 255 255 255
-1.12651 -0.43899 1.24882 255 255 255
-1.12556 -0.43276 1.23772 255 255 255
-1.12492 -0.42662 1.23172 0 0 0
-1.12307 -0.41969 1.22085 0 0 0
-1.12250 -0.41342 1.21067 0 0 0
-1.12194 -0.40702 1.20488 0 0 0
-1.12010 -0.39869 1.19706 0 0 0
-1.11900 -0.39099 1.18610 0 0 0
-1.11687 -0.38244 1.17352 0 0 0
-1.11574 -0.37394 1.16595 0 0 0
-1.11652 -0.36731 1.15875 0 0 0
-1.11525 -0.35974 1.14814 0 0 0
-1.11122 -0.35006 1.13478 0 0 0
-1.11084 -0.34347 1.12613 0 0 0
-1.11091 -0.33926 1.12436 0 0 0
-1.10844 -0.33191 1.11701 0 0 0
-1.10816 -0.32713 1.10932 0 0 0
-1.10903 -0.32339 1.10444 0 0 0
-1.10693 -0.31810 1.09855 0 0 0
-1.10480 -0.31323 1.08975 0 0 0
-1.10218 -0.30991 1.07900 0 0 0
-1.10179 -0.30830 1.07450 0 0 0
-1.10084 -0.30619 1.07043 0 0 0
-1.10125 -0.30518 1.06676 0 0 0
-1.10269 -0.30620 1.06686 0 0 0
-1.10430 -0.30725 1.06657 0 0 0
-1.10834 -0.30992 1.07053 0 0 0
-1.11156 -0.31359 1.07254 0 0 0
-1.11770 -0.31952 1.07874 0 0 0
-1.12346 -0.32540 1.08680 0 0 0
-1.12799 -0.33146 1.09322 0 0 0
-1.13286 -0.33855 1.10039 0 0 0
-1.13999 -0.34714 1.11462 0 0 0
-1.14336 -0.35590 1.11929 0 0 0
-1.14881 -0.36611 1.13059 0 0 0
-1.15377 -0.37583 1.14184 0 0 0
-1.15740 -0.38577 1.15040 0 0 0
-1.16260 -0.39739 1.16339 0 0 0
-1.16671 -0.40895 1.17475 0 0 0
-1.16974 -0.42088 1.18517 0 0 0
-1.17399 -0.43382 1.19842 0 0 0
-1.17810 -0.44696 1.20934 0 0 0
-1.18080 -0.45959 1.21744 0 0 0
-1.18364 -0.47311 1.22676 0 0 0
-1.18805 -0.48671 1.23919 0 0 0
-1.19119 -0.49991 1.24930 0 0 0
-1.19410 -0.51285 1.25947 0 0 0
-1.19803 -0.52596 1.27211 0 0 0
-1.20072 -0.53793 1.27747 0 0 0
-1.20250 -0.54904 1.28114 0 0 0
-1.20680 -0.56191 1.29328 0 0 0
-1.21061 -0.57398 1.30699 0 0 0
-1.21310 -0.58534 1.31725 0 0 0
-1.21840 -0.59704 1.32494 0 0 0
-1.22248 -0.60908 1.33685 0 0 0
-1.22838 -0.63236 1.35366 0 0 0
-1.23257 -0.64582 1.36733 0 0 0
-1.23445 -0.65687 1.37493 0 0 0
-1.23857 -0.66952 1.39028 0 0 0
-1.24440 -0.68361 1.40777 0 0 0
-1.25481 -0.70184 1.42670 0 0 0
-1.26080 -0.71522 1.44275 0 0 0
-1.26557 -0.72931 1.45627 0 0 0
-1.27079 -0.74200 1.46998 0 0 0
-1.27415 -0.75593 1.48258 255 255 255
-1.28272 -0.78611 1.50943 255 255 255
-1.28604 -0.80082 1.52226 255 255 255
-1.28922 -0.81694 1.53449 255 255 255
-1.29264 -0.83292 1.55058 255 255 255
-1.29574 -0.84780 1.56481 0 0 0
-1.29741 -0.86261 1.57633 0 0 0
-1.30138 -0.87988 1.59175 0 0 0
-1.30472 -0.89598 1.60338 0 0 0
-1.30784 -0.91246 1.61742 0 0 0
-1.31052 -0.92922 1.62976 0 0 0
-1.31265 -0.93776 1.63744 0 0 0
-1.31553 -0.95281 1.65079 0 0 0
-1.31811 -0.96678 1.66424 0 0 0
-1.32091 -0.98027 1.67702 0 0 0
-1.32255 -0.99358 1.68555 0 0 0
-1.32375 -1.00537 1.69512 0 0 0
-1.32400 -1.01602 1.70933 0 0 0
-1.32323 -1.02713 1.71925 0 0 0
-1.32170 -1.03734 1.72489 0 0 0
-1.32004 -1.04901 1.73437 0 0 0
-1.31645 -1.05932 1.73864 0 0 0
-1.31242 -1.07101 1.75021 0 0 0
-1.30640 -1.08134 1.76032 0 0 0
-1.30017 -1.09115 1.76714 0 0 0
-1.29218 -1.10082 1.77567 255 255 255
-1.28503 -1.11152 1.78371 255 255 255
-1.27366 -1.11818 1.77824 255 255 255
-1.26304 -1.12008 1.77570 255 255 255
-1.25612 -1.13118 1.78766 255 255 255
-1.24781 -1.13895 1.79499 255 255 255
-1.23867 -1.14404 1.80356 255 255 255
-1.23027 -1.15215 1.81484 255 255 255
-1.22004 -1.15738 1.82023 255 255 255
-1.20983 -1.16308 1.82432 0 0 0
-1.19802 -1.16804 1.82609 0 0 0
-1.18608 -1.17239 1.83008 0 0 0
-1.17421 -1.17842 1.83405 0 0 0
-1.16108 -1.18008 1.83176 0 0 0
-1.14938 -1.18502 1.84000 0 0 0
-1.13764 -1.19103 1.84814 0 0 0
-1.12616 -1.19435 1.85159 0 0 0
-1.11692 -1.19919 1.85805 0 0 0
-1.10801 -1.20361 1.86457 0 0 0
-1.09985 -1.20782 1.87615 0 0 0
-1.09453 -1.21457 1.89062 0 0 0
-1.08944 -1.22240 1.90142 0 0 0
-1.08450 -1.22905 1.90557 0 0 0
-1.07953 -1.23738 1.91441 0 0 0
-1.07445 -1.24807 1.92522 0 0 0
-1.07003 -1.25844 1.93226 0 0 0
-1.06539 -1.26828 1.93728 0 0 0
-1.06039 -1.27776 1.94542 0 0 0
-1.05621 -1.28918 1.95484 0 0 0
-1.05275 -1.30042 1.96548 0 0 0
-1.04903 -1.31291 1.98376 0 0 0
-1.04723 -1.32470 1.99950 0 0 0
-1.04795 -1.33735 2.01316 0 0 0
-1.04786 -1.35225 2.03089 0 0 0
-1.04808 -1.36440 2.04143 0 0 0
-1.04859 -1.37630 2.05091 0 0 0
-1.04812 -1.38875 2.06606 0 0 0
-1.04935 -1.40151 2.08442 255 255 255
-1.05170 -1.42817 2.11622 255 255 255
-1.05343 -1.44255 2.13266 255 255 255
-1.05630 -1.45550 2.14871 255 255 255
-1.05981 -1.47113 2.16860 255 255 255
-1.06379 -1.48574 2.18577 0 0 0
-1.06727 -1.50120 2.19623 0 0 0
-1.06917 -1.51642 2.21084 0 0 0
-1.07170 -1.53086 2.22705 0 0 0
-1.07444 -1.54536 2.23766 0 0 0
-1.07625 -1.56007 2.25183 0 0 0
-1.07753 -1.57434 2.26649 0 0 0
-1.07892 -1.58745 2.27819 0 0 0
-1.08047 -1.59848 2.29223 0 0 0
-1.08423 -1.61157 2.30909 0 0 0
-1.08636 -1.62633 2.31697 0 0 0
-1.08739 -1.63902 2.32664 0 0 0
-1.08768 -1.65085 2.33728 0 0 0
-1.08849 -1.66191 2.34971 0 0 0
-1.08951 -1.67280 2.36086 0 0 0
-1.08991 -1.68134 2.37078 0 0 0
-1.09263 -1.69266 2.38249 0 0 0
-1.09481 -1.70403 2.39036 0 0 0
-1.09619 -1.71495 2.39986 0 0 0
-1.09849 -1.72699 2.41135 0 0 0
-1.10019 -1.73537 2.42492 0 0 0
-1.10221 -1.74045 2.43119 0 0 0
-1.10366 -1.74404 2.43322 0 0 0
-1.10276 -1.74080 2.43080 0 0 0
-1.10540 -1.75238 2.44389 0 0 0
-1.10928 -1.76257 2.45262 255 255 255
-1.11239 -1.77091 2.46307 255 255 255
-1.11811 -1.78029 2.47352 255 255 255
-1.11907 -1.78957 2.48197 255 255 255
-1.11966 -1.79932 2.49068 255 255 255
-1.11906 -1.80790 2.49944 255 255 255
-1.12082 -1.81773 2.50800 255 255 255
-1.12265 -1.82748 2.51737 255 255 255
-1.12078 -1.83686 2.52548 255 255 255
-1.12095 -1.84556 2.53496 0 0 0
-1.12672 -1.85565 2.54413 0 0 0
-1.12327 -1.86413 2.55106 0 0 0
-1.12424 -1.87179 2.56053 0 0 0
-1.13275 -1.88029 2.56975 0 0 0
-1.12642 -1.88763 2.57498 0 0 0
-1.12451 -1.89553 2.58205 0 0 0
-1.12272 -1.90233 2.58801 0 0 0
-1.11559 -1.91008 2.59388 0 0 0
-1.11725 -1.91546 2.60051 0 0 0
-1.12457 -1.92125 2.60625 0 0 0
-1.12234 -1.92740 2.61138 0 0 0
-1.12072 -1.93295 2.61736 0 0 0
-1.12284 -1.93811 2.62362 0 0 0
-1.12364 -1.94287 2.62862 0 0 0
-1.12121 -1.94716 2.63266 0 0 0
-1.12370 -1.95172 2.63712 0 0 0
-1.12620 -1.95435 2.64061 0 0 0
-1.12410 -1.95756 2.64290 0 0 0
-1.12602 -1.95958 2.64479 0 0 0
-1.13842 -1.95944 2.64763 0 0 0
-1.14100 -1.96146 2.64751 0 0 0
-1.13456 -1.96180 2.64560 0 0 0
-1.13921 -1.96183 2.64552 0 0 0
-1.14737 -1.96140 2.64358 0 0 0
-1.14679 -1.96056 2.63930 0 0 0
-1.15108 -1.95657 2.63428 0 0 0
-1.16827 -1.95212 2.63073 0 0 0
-1.17289 -1.94797 2.62144 0 0 0
-1.17021 -1.93934 2.61032 0 0 0
-1.18295 -1.93014 2.60167 0 0 0
-1.18634 -1.92270 2.58922 0 0 0
-1.18752 -1.91068 2.57618 0 0 0
-1.19524 -1.89828 2.56307 0 0 0
-1.20872 -1.88453 2.54997 0 0 0
-1.21725 -1.86837 2.53476 0 0 0
-1.21738 -1.85179 2.51673 0 0 0
-1.22748 -1.83333 2.49970 0 0 0
-1.24042 -1.81413 2.48155 0 0 0
-1.25384 -1.79333 2.46153 0 0 0
-1.25934 -1.77386 2.44048 0 0 0
-1.27262 -1.75393 2.42121 0 0 0
-1.28606 -1.73164 2.40099 0 0 0
-1.29605 -1.71069 2.38065 0 0 0
-1.31425 -1.68918 2.36270 0 0 0
-1.32082 -1.66885 2.34243 0 0 0
-1.32831 -1.64816 2.32436 0 0 0
-1.34150 -1.62865 2.30533 0 0 0
-1.35847 -1.60999 2.28775 0 0 0
-1.37350 -1.59190 2.27141 0 0 0
-1.38669 -1.57512 2.25469 0 0 0
-1.39443 -1.55905 2.23675 0 0 0
-1.40207 -1.54284 2.21958 0 0 0
-1.41199 -1.52823 2.20352 0 0 0
-1.41631 -1.51229 2.18729 0 0 0
-1.43157 -1.49634 2.17398 0 0 0
-1.43440 -1.48475 2.16156 255 255 255
-1.43674 -1.47133 2.14930 255 255 255
-1.44644 -1.45779 2.13756 255 255 255
-1.45972 -1.44355 2.12595 255 255 255
-1.45378 -1.43413 2.11624 255 255 255
-1.45382 -1.42284 2.10672 255 255 255
-1.46161 -1.41011 2.09554 255 255 255
-1.45756 -1.40067 2.08561 255 255 255
-1.44654 -1.39173 2.07686 0 0 0
-1.44728 -1.37902 2.06460 0 0 0
-1.44678 -1.36763 2.05329 0 0 0
-1.43670 -1.36011 2.04469 0 0 0
-1.43169 -1.34839 2.03285 0 0 0
-1.42759 -1.33702 2.01900 0 0 0
-1.41250 -1.32768 2.00783 0 0 0
-1.40254 -1.31780 1.99440 0 0 0
-1.39356 -1.30516 1.97826 0 0 0
-1.38183 -1.29328 1.96302 0 0 0
-1.37124 -1.28192 1.94745 0 0 0
-1.36864 -1.26489 1.92846 0 0 0
-1.35359 -1.25190 1.91389 0 0 0
-1.33593 -1.23716 1.90032 0 0 0
-1.32593 -1.22050 1.88509 0 0 0
-1.31546 -1.20198 1.87016 0 0 0
-1.30264 -1.18628 1.85738 0 0 0
-1.29305 -1.16789 1.84491 0 0 0
-1.28602 -1.15040 1.83183 0 0 0
-1.28342 -1.13151 1.81986 0 0 0
-1.27827 -1.11704 1.80746 255 255 255
-1.26148 -1.10279 1.80002 255 255 255
-1.25541 -1.08698 1.78957 255 255 255
-1.24772 -1.07424 1.78083 255 255 255
-1.23741 -1.06107 1.77218 255 255 255
-1.23101 -1.04806 1.76426 255 255 255
-1.23284 -1.03373 1.75236 255 255 255
-1.23171 -1.02156 1.74161 0 0 0
-1.23106 -1.01205 1.73296 0 0 0
-1.23197 -1.00194 1.72414 0 0 0
-1.22732 -0.99245 1.71695 0 0 0
-1.22004 -0.98355 1.71008 0 0 0
-1.21060 -0.97443 1.70362 0 0 0
-1.20822 -0.96433 1.69504 0 0 0
-1.20527 -0.95263 1.68712 0 0 0
-1.19895 -0.94223 1.67931 0 0 0
-1.19482 -0.93167 1.67026 0 0 0
-1.19318 -0.92032 1.66134 0 0 0
-1.19082 -0.90840 1.65172 0 0 0
-1.18739 -0.89642 1.64154 0 0 0
-1.18331 -0.88425 1.63279 0 0 0
-1.18484 -0.86883 1.62027 0 0 0
-1.18382 -0.85439 1.60849 0 0 0
-1.18369 -0.83910 1.59598 0 0 0
-1.18629 -0.82316 1.58250 0 0 0
-1.18359 -0.80720 1.57111 0 0 0
-1.18293 -0.78967 1.55872 0 0 0
-1.18052 -0.77276 1.54740 0 0 0
-1.17991 -0.75674 1.53678 0 0 0
-1.18696 -0.73296 1.52017 0 0 0
-1.18601 -0.71556 1.50624 0 0 0
-1.18081 -0.69850 1.49602 0 0 0
-1.18479 -0.67658 1.47966 0 0 0
-1.17960 -0.65830 1.46321 255 255 255
-1.17576 -0.61956 1.42933 255 255 255
-1.17379 -0.60158 1.41129 255 255 255
-1.16193 -0.58452 1.39890 255 255 255
-1.15442 -0.56655 1.38573 255 255 255
-1.15809 -0.54743 1.36647 0 0 0
-1.14949 -0.53235 1.35387 0 0 0
-1.13750 -0.51655 1.34158 0 0 0
-1.13626 -0.50112 1.32705 0 0 0
-1.12935 -0.48871 1.31674 0 0 0
-1.11519 -0.47767 1.30577 0 0 0
-1.10426 -0.46620 1.29395 0 0 0
-1.09625 -0.45492 1.28189 0 0 0
-1.08280 -0.44571 1.27205 0 0 0
-1.06881 -0.43645 1.26393 0 0 0
-1.05099 -0.42846 1.25664 0 0 0
-1.03391 -0.41978 1.25068 0 0 0
-1.01773 -0.41108 1.24487 0 0 0
-0.99918 -0.40422 1.23917 0 0 0
-0.97585 -0.39821 1.23773 0 0 0
-0.95413 -0.39146 1.23593 0 0 0
-0.93396 -0.38473 1.22999 0 0 0
-0.91130 -0.37714 1.22664 0 0 0
-0.88970 -0.36997 1.22317 0 0 0
-0.86534 -0.36342 1.22156 0 0 0
-0.84077 -0.35558 1.22021 255 255 255
-0.81581 -0.34864 1.22016 255 255 255
-0.79413 -0.34097 1.21868 255 255 255
-0.77004 -0.33403 1.21898 255 255 255
-0.75039 -0.33178 1.21876 255 255 255
-0.73046 -0.32841 1.21655 255 255 255
-0.71204 -0.32444 1.21433 255 255 255
-0.68984 -0.32050 1.21168 255 255 255
-0.66295 -0.31600 1.20773 0 0 0
-0.64025 -0.31221 1.20621 0 0 0
-0.62253 -0.30873 1.20534 0 0 0
-0.60137 -0.30485 1.20130 0 0 0
-0.58299 -0.29999 1.20180 0 0 0
-0.57132 -0.29449 1.20179 0 0 0
-0.56006 -0.28808 1.20074 0 0 0
-0.54655 -0.28259 1.19979 0 0 0
-0.53138 -0.27701 1.19998 0 0 0
-0.51596 -0.27044 1.19851 0 0 0
-0.49791 -0.26435 1.19839 0 0 0
-0.48350 -0.25870 1.19834 0 0 0
-0.47184 -0.25311 1.19650 0 0 0
-0.45837 -0.24783 1.19690 0 0 0
-0.44792 -0.24114 1.19574 0 0 0
-0.43432 -0.23493 1.19245 0 0 0
-0.41929 -0.22899 1.19048 0 0 0
-0.40767 -0.22170 1.18800 0 0 0
-0.39383 -0.21403 1.18440 0 0 0
-0.38174 -0.20494 1.18321 0 0 0
-0.36841 -0.19516 1.18126 0 0 0
-0.35680 -0.18571 1.17809 0 0 0
-0.34345 -0.17574 1.17707 0 0 0
-0.32981 -0.16499 1.17409 0 0 0
-0.31534 -0.15489 1.17231 0 0 0
-0.30251 -0.14498 1.17045 255 255 255
-0.28363 -0.12747 1.16637 255 255 255
-0.27136 -0.11853 1.16183 255 255 255
-0.25971 -0.10991 1.15693 255 255 255
-0.24850 -0.10247 1.15109 255 255 255
-0.23824 -0.09397 1.14839 255 255 255
-0.22850 -0.08572 1.14231 255 255 255
-0.22078 -0.07782 1.14037 255 255 255
-0.21101 -0.07045 1.13624 0 0 0
-0.20404 -0.06310 1.13347 0 0 0
-0.19612 -0.05667 1.12997 0 0 0
-0.19069 -0.04933 1.12828 0 0 0
-0.18560 -0.04299 1.12602 0 0 0
-0.18259 -0.03729 1.12528 0 0 0
-0.17981 -0.03199 1.12367 0 0 0
-0.17823 -0.02748 1.12082 0 0 0
-0.17787 -0.02377 1.12019 0 0 0
-0.17994 -0.02116 1.12000 0 0 0
-0.18251 -0.01930 1.11820 0 0 0
-0.18598 -0.01710 1.11784 0 0 0
-0.19201 -0.01462 1.11867 0 0 0
-0.19620 -0.01186 1.11746 0 0 0
-0.20004 -0.01052 1.11507 0 0 0
-0.20646 -0.00833 1.11510 0 0 0
-0.21449 -0.00767 1.11447 0 0 0
-0.22267 -0.00669 1.11442 0 0 0
-0.23054 -0.00862 1.11136 0 0 0
-0.23915 -0.01081 1.10911 0 0 0
-0.25068 -0.01306 1.11142 0 0 0
-0.26292 -0.01788 1.11144 0 0 0
-0.27392 -0.02411 1.10867 0 0 0
-0.28829 -0.03151 1.10964 0 0 0
-0.30244 -0.03924 1.11181 0 0 0
-0.31665 -0.04720 1.11398 0 0 0
-0.33142 -0.05512 1.11963 0 0 0
-0.34448 -0.06418 1.12185 0 0 0
-0.35753 -0.07273 1.12273 0 0 0
-0.37288 -0.07991 1.12795 0 0 0
-0.39042 -0.08661 1.13622 0 0 0
-0.40328 -0.09370 1.13658 0 0 0
-0.41721 -0.10001 1.14051 0 0 0
-0.43195 -0.10615 1.14588 0 0 0
-0.44405 -0.11204 1.14718 0 0 0
-0.45658 -0.11765 1.14913 0 0 0
-0.46977 -0.12342 1.15200 0 0 0
-0.48121 -0.12895 1.15099 0 0 0
-0.49418 -0.13408 1.15388 0 0 0
-0.50790 -0.13861 1.15741 0 0 0
-0.51984 -0.14279 1.15673 0 0 0
-0.53200 -0.14702 1.15831 0 0 0
-0.54352 -0.15210 1.15995 0 0 0
-0.55557 -0.15691 1.16168 0 0 0
-0.56779 -0.16226 1.16222 0 0 0
-0.58059 -0.16776 1.16416 0 0 0
-0.60539 -0.17791 1.16384 0 0 0
-0.61894 -0.18269 1.16606 0 0 0
-0.63168 -0.18682 1.16602 0 0 0
-0.64395 -0.19015 1.16708 0 0 0
-0.65656 -0.19352 1.16958 0 0 0
-0.66875 -0.19653 1.16978 0 0 0
-0.68285 -0.19905 1.17362 0 0 0
-0.70601 -0.20336 1.17521 0 0 0
-0.71726 -0.20439 1.17600 0 0 0
-0.72914 -0.20549 1.17648 0 0 0
-0.74070 -0.20654 1.17710 0 0 0
-0.75229 -0.20726 1.17830 0 0 0
-0.76413 -0.20843 1.18048 0 0 0
-0.77838 -0.20923 1.18277 0 0 0
-0.79159 -0.20925 1.18319 0 0 0
-0.80384 -0.20882 1.18361 0 0 0
-0.81928 -0.20784 1.18730 0 0 0
-0.84912 -0.20420 1.19130 0 0 0
-0.86521 -0.20084 1.19098 0 0 0
-0.88411 -0.19718 1.19551 0 0 0
-0.90499 -0.19394 1.20091 0 0 0
-0.92437 -0.18923 1.20159 255 255 255
-0.98706 -0.17411 1.20917 255 255 255
-1.00480 -0.16867 1.21185 255 255 255
-1.02422 -0.16348 1.21631 255 255 255
-1.04389 -0.15850 1.21660 255 255 255
-1.06542 -0.15334 1.21462 255 255 255
-1.08794 -0.14879 1.21224 255 255 255
-1.11006 -0.14385 1.21298 255 255 255
-1.13530 -0.13757 1.21199 0 0 0
-1.15835 -0.13207 1.21147 0 0 0
-1.18087 -0.12575 1.21268 0 0 0
-1.19657 -0.12114 1.21788 0 0 0
-1.21104 -0.11757 1.22503 0 0 0
-1.23340 -0.11047 1.23280 0 0 0
-1.25289 -0.10091 1.24349 0 0 0
-1.26834 -0.09253 1.25523 0 0 0
-1.28338 -0.08435 1.26717 0 0 0
-1.29890 -0.07355 1.28018 0 0 0
-1.31302 -0.06662 1.28729 0 0 0
-1.32898 -0.05839 1.29391 0 0 0
-1.34369 -0.05206 1.29367 0 0 0
-1.35643 -0.04661 1.30530 0 0 0
-1.38891 -0.03722 1.32282 0 0 0
-1.40162 -0.03541 1.32688 0 0 0
-1.41718 -0.03341 1.33181 0 0 0
-1.43423 -0.03180 1.33888 0 0 0
-1.44456 -0.03356 1.34684 0 0 0
-1.45859 -0.03458 1.35366 255 255 255
-1.47145 -0.03549 1.35495 255 255 255
-1.48587 -0.03742 1.36407 255 255 255
-1.49740 -0.03978 1.37360 255 255 255
-1.50830 -0.04509 1.38257 255 255 255
-1.52079 -0.05095 1.39009 255 255 255
-1.53730 -0.05275 1.39860 255 255 255
-1.55061 -0.06071 1.40938 255 255 255
-1.56279 -0.07016 1.41656 255 255 255
-1.57626 -0.07706 1.42781 0 0 0
-1.58864 -0.08422 1.43818 0 0 0
-1.60014 -0.09883 1.44326 0 0 0
-1.61614 -0.10299 1.45238 0 0 0
-1.63251 -0.10738 1.46004 0 0 0
-1.64461 -0.11814 1.46249 0 0 0
-1.66041 -0.12415 1.46904 0 0 0
-1.67421 -0.12892 1.48156 0 0 0
-1.68398 -0.14314 1.49503 0 0 0
-1.69694 -0.15055 1.50535 0 0 0
-1.71629 -0.14950 1.51746 0 0 0
-1.73003 -0.15684 1.52402 0 0 0
-1.74396 -0.16521 1.52968 0 0 0
-1.75715 -0.17129 1.54028 0 0 0
-1.77010 -0.18000 1.54829 0 0 0
-1.78301 -0.18870 1.55369 0 0 0
-1.80131 -0.18694 1.56540 0 0 0
-1.81222 -0.18907 1.57471 0 0 0
-1.82517 -0.19779 1.58047 0 0 0
-1.83985 -0.20308 1.58855 0 0 0
-1.85071 -0.21540 1.59480 0 0 0
-1.86302 -0.22426 1.59961 0 0 0
-1.87589 -0.23303 1.60527 0 0 0
-1.89068 -0.23836 1.61272 0 0 0
-1.90020 -0.25158 1.61529 0 0 0
-1.91268 -0.25855 1.62407 0 0 0
-1.92784 -0.26503 1.63299 255 255 255
-1.95516 -0.28137 1.64442 255 255 255
-1.96912 -0.28623 1.65592 255 255 255
-1.98155 -0.29323 1.66442 255 255 255
-1.99166 -0.29988 1.67146 255 255 255
-2.00611 -0.30590 1.68285 255 255 255
-2.01901 -0.31012 1.69669 255 255 255
-2.03071 -0.31618 1.70230 255 255 255
-2.04612 -0.32181 1.70966 0 0 0
-2.05861 -0.32666 1.71397 0 0 0
-2.07223 -0.33213 1.71803 0 0 0
-2.08658 -0.33824 1.72595 0 0 0
-2.09897 -0.34418 1.73120 0 0 0
-2.11240 -0.35011 1.74113 0 0 0
-2.12465 -0.35202 1.74421 0 0 0
-2.13685 -0.35892 1.75394 0 0 0
-2.16058 -0.37242 1.76458 0 0 0
-2.17383 -0.37648 1.77397 0 0 0
-2.19297 -0.38705 1.78195 0 0 0
-2.20272 -0.39145 1.78504 0 0 0
-2.22275 -0.40410 1.80558 0 0 0
-2.23164 -0.40895 1.81150 0 0 0
-2.24112 -0.41396 1.81342 0 0 0
-2.25912 -0.42265 1.83038 0 0 0
-2.26598 -0.42936 1.83355 0 0 0
-2.27596 -0.43408 1.83785 0 0 0
-2.28303 -0.43860 1.84657 0 0 0
-2.29127 -0.44572 1.84765 0 0 0
-2.29937 -0.45089 1.85100 0 0 0
-2.30709 -0.45266 1.85919 0 0 0
-2.31461 -0.45894 1.86922 0 0 0
-2.32147 -0.46341 1.87305 0 0 0
-2.32869 -0.46719 1.88151 0 0 0
-2.33485 -0.47147 1.88216 0 0 0
-2.34059 -0.47425 1.88911 0 0 0
-2.34732 -0.47767 1.90128 0 0 0
-2.35174 -0.48181 1.91236 0 0 0
-2.35542 -0.48456 1.91318 0 0 0
-2.35532 -0.48219 1.92447 255 255 255
-2.35658 -0.48705 1.92771 255 255 255
-2.35490 -0.48648 1.92521 255 255 255
-2.35222 -0.48492 1.92667 255 255 255
-2.34967 -0.48259 1.92336 255 255 255
-2.34780 -0.48083 1.92253 255 255 255
-2.34300 -0.47847 1.92731 255 255 255
-2.34364 -0.48325 1.91373 255 255 255
-2.33491 -0.47461 1.92378 255 255 255
-2.32557 -0.46889 1.92492 255 255 255
-2.31980 -0.46859 1.91781 255 255 255
-2.31140 -0.46622 1.91376 255 255 255
-2.29642 -0.45532 1.91946 255 255 255
-2.28426 -0.44951 1.91570 255 255 255
-2.27372 -0.44862 1.90409 255 255 255
-2.25943 -0.44107 1.90521 255 255 255
-2.24328 -0.43292 1.90179 255 255 255
-2.22736 -0.42730 1.89483 0 0 0
-2.20899 -0.41735 1.89648 0 0 0
-2.19095 -0.41060 1.88980 0 0 0
-2.16865 -0.39962 1.89045 0 0 0
-2.14754 -0.39345 1.88144 0 0 0
-2.12581 -0.38631 1.87852 0 0 0
-2.10122 -0.37713 1.87478 0 0 0
-2.07847 -0.37030 1.86757 0 0 0
-2.05575 -0.36556 1.85817 0 0 0
-2.02768 -0.35399 1.85908 0 0 0
-2.00156 -0.34452 1.85372 0 0 0
-1.97556 -0.33638 1.84683 0 0 0
-1.94578 -0.32275 1.84957 0 0 0
-1.91869 -0.31242 1.84524 0 0 0
-1.89734 -0.30907 1.83141 0 0 0
-1.87054 -0.29722 1.83032 0 0 0
-1.84557 -0.28831 1.82367 0 0 0
-1.82019 -0.27633 1.82525 0 0 0
-1.79817 -0.27053 1.81653 0 0 0
-1.77912 -0.26564 1.80625 0 0 0
-1.75126 -0.24927 1.81844 0 0 0
-1.73091 -0.24433 1.80877 0 0 0
-1.70972 -0.23693 1.80567 0 0 0
-1.68585 -0.22625 1.80446 0 0 0
-1.66399 -0.21736 1.80119 255 255 255
-1.62491 -0.20007 1.79573 255 255 255
-1.60666 -0.19172 1.79281 255 255 255
-1.58801 -0.18386 1.78952 255 255 255
-1.57176 -0.17676 1.78658 255 255 255
-1.55646 -0.16856 1.78564 255 255 255
-1.53791 -0.16168 1.78152 255 255 255
-1.52062 -0.15669 1.77777 255 255 255
-1.50625 -0.15119 1.77658 0 0 0
-1.49197 -0.14606 1.77661 0 0 0
-1.47828 -0.14335 1.77528 0 0 0
-1.46184 -0.14275 1.77426 0 0 0
-1.44795 -0.14182 1.77505 0 0 0
-1.43346 -0.14128 1.77600 0 0 0
-1.41801 -0.14099 1.77897 0 0 0
-1.40373 -0.14214 1.78229 0 0 0
-1.38638 -0.13953 1.78802 0 0 0
-1.36903 -0.14057 1.79089 0 0 0
-1.35529 -0.14454 1.79568 0 0 0
-1.34466 -0.14966 1.80246 0 0 0
-1.33215 -0.15530 1.80992 0 0 0
-1.31810 -0.16256 1.81733 0 0 0
-1.30447 -0.17252 1.82475 0 0 0
-1.28855 -0.18321 1.83581 0 0 0
-1.26771 -0.18854 1.84432 0 0 0
-1.25202 -0.20026 1.85304 0 0 0
-1.23694 -0.21406 1.86325 0 0 0
-1.22031 -0.22333 1.87444 0 0 0
-1.20228 -0.23830 1.88284 0 0 0
-1.18603 -0.25157 1.89558 0 0 0
-1.16973 -0.25693 1.90726 0 0 0
-1.15447 -0.26784 1.91835 0 0 0
-1.14142 -0.27659 1.93112 0 0 0
-1.12808 -0.28405 1.94078 0 0 0
-1.11676 -0.29306 1.95083 0 0 0
-1.10810 -0.30103 1.96052 0 0 0
-1.09709 -0.30795 1.96897 0 0 0
-1.08534 -0.31370 1.97762 0 0 0
-1.06995 -0.32750 1.98983 0 0 0
-1.06089 -0.33184 2.00094 0 0 0
-1.05281 -0.33871 2.00565 0 0 0
-1.04444 -0.34624 2.00923 0 0 0
-1.03416 -0.35109 2.01364 255 255 255
-1.00203 -0.36842 2.02568 255 255 255
-0.99578 -0.37066 2.02672 255 255 255
-0.99215 -0.37211 2.02904 255 255 255
-0.98995 -0.37198 2.03353 255 255 255
-0.98498 -0.37378 2.02918 255 255 255
-0.97768 -0.37422 2.02830 255 255 255
-0.97445 -0.37200 2.03135 255 255 255
-0.96498 -0.37212 2.02421 255 255 255
-0.95429 -0.36882 2.02510 255 255 255
-0.94795 -0.36335 2.03151 255 255 255
-0.93799 -0.35974 2.02749 255 255 255
-0.92891 -0.35684 2.01872 255 255 255
-0.92233 -0.34899 2.02348 0 0 0
-0.91170 -0.34003 2.02515 0 0 0
-0.89989 -0.33360 2.01785 0 0 0
-0.88955 -0.32595 2.01361 0 0 0
-0.87951 -0.31773 2.00652 0 0 0
-0.87040 -0.30829 2.00435 0 0 0
-0.86015 -0.29662 2.00393 0 0 0
-0.84636 -0.28874 1.99126 0 0 0
-0.83443 -0.27958 1.98533 0 0 0
-0.82544 -0.26858 1.98439 0 0 0
-0.81427 -0.25854 1.97515 0 0 0
-0.80407 -0.24632 1.96976 0 0 0
-0.79247 -0.23170 1.95980 0 0 0
-0.77943 -0.22185 1.95091 0 0 0
-0.76301 -0.20910 1.94497 0 0 0
-0.74678 -0.19491 1.94150 0 0 0
-0.73083 -0.18604 1.92874 0 0 0
-0.71541 -0.17811 1.91555 0 0 0
-0.70559 -0.16223 1.91104 0 0 0
-0.69098 -0.14959 1.90138 0 0 0
-0.67636 -0.13704 1.89476 0 0 0
-0.66067 -0.12605 1.88360 0 0 0
-0.64554 -0.11828 1.87335 0 0 0
-0.62874 -0.10737 1.86563 0 0 0
-0.61476 -0.09410 1.86290 0 0 0
-0.60228 -0.08492 1.84959 255 255 255
-0.57078 -0.06922 1.83485 255 255 255
-0.56277 -0.05539 1.82602 255 255 255
-0.54838 -0.04812 1.81583 255 255 255
-0.53769 -0.03775 1.80993 255 255 255
-0.52617 -0.02787 1.80135 255 255 255
-0.51645 -0.01969 1.79187 255 255 255
-0.50637 -0.01109 1.78466 255 255 255
-0.49823 0.00066 1.77919 0 0 0
-0.49035 0.01000 1.77257 0 0 0
-0.48241 0.01859 1.76658 0 0 0
-0.47297 0.02559 1.75992 0 0 0
-0.46568 0.03245 1.75260 0 0 0
-0.46077 0.03994 1.74898 0 0 0
-0.45568 0.04785 1.74411 0 0 0
-0.44691 0.04997 1.74062 0 0 0
-0.44454 0.05461 1.73793 0 0 0
-0.44579 0.05937 1.73366 0 0 0
-0.44732 0.06173 1.73013 0 0 0
-0.45290 0.06439 1.72688 0 0 0
-0.46136 0.06801 1.72419 0 0 0
-0.47864 0.07050 1.72035 0 0 0
-0.48876 0.07019 1.71852 0 0 0
-0.49962 0.06875 1.71729 0 0 0
-0.51383 0.06702 1.71793 0 0 0
-0.53086 0.06570 1.71868 0 0 0
-0.54908 0.06318 1.71847 0 0 0
-0.56923 0.05978 1.72061 0 0 0
-0.59336 0.05850 1.72270 0 0 0
-0.61832 0.05671 1.72557 0 0 0
-0.64386 0.05409 1.72562 0 0 0
-0.66950 0.04990 1.72983 0 0 0
-0.69972 0.04878 1.73464 0 0 0
-0.72961 0.04642 1.73605 0 0 0
-0.75466 0.03861 1.73847 0 0 0
-0.78577 0.03487 1.74131 0 0 0
-0.81604 0.03233 1.74337 0 0 0
-0.84649 0.02920 1.74559 0 0 0
-0.87301 0.02590 1.74711 0 0 0
-0.90429 0.02457 1.74922 0 0 0
-0.93734 0.02277 1.74864 0 0 0
-0.97283 0.02196 1.74832 0 0 0
-1.00454 0.01933 1.74662 0 0 0
-1.03161 0.01578 1.74553 0 0 0
-1.06008 0.01428 1.74635 0 0 0
-1.08320 0.01081 1.74626 0 0 0
-1.10752 0.00767 1.74668 0 0 0
-1.12992 0.01150 1.74731 255 255 255
-1.18355 0.00623 1.74275 255 255 255
-1.21182 0.00104 1.74055 255 255 255
-1.23783 -0.00175 1.73900 255 255 255
-1.26138 -0.00451 1.73726 255 255 255
-1.28338 -0.00710 1.73573 255 255 255
-1.30267 -0.00728 1.73363 255 255 255
-1.32325 -0.01021 1.73279 0 0 0
-1.34114 -0.01262 1.73144 0 0 0
-1.35876 -0.01513 1.72831 0 0 0
-1.37353 -0.01822 1.72500 0 0 0
-1.39067 -0.01882 1.72184 0 0 0
-1.40655 -0.01962 1.71796 0 0 0
-1.43406 -0.02277 1.71029 0 0 0
-1.45037 -0.01942 1.70695 0 0 0
-1.46259 -0.01714 1.70169 0 0 0
-1.47501 -0.01466 1.69707 0 0 0
-1.48770 -0.01204 1.69356 0 0 0
-1.49914 -0.00684 1.69060 0 0 0
-1.51402 0.00024 1.68688 0 0 0
-1.52290 0.00361 1.68169 0 0 0
-1.53369 0.01000 1.67950 0 0 0
-1.54803 0.01925 1.67600 0 0 0
-1.56188 0.02502 1.66899 0 0 0
-1.59448 0.04351 1.65724 0 0 0
-1.61005 0.05331 1.64974 0 0 0
-1.62451 0.06156 1.64197 0 0 0
-1.64060 0.07241 1.63601 0 0 0
-1.65760 0.08598 1.63064 0 0 0
-1.67065 0.09435 1.62064 0 0 0
-1.68685 0.10465 1.61373 0 0 0
-1.70705 0.11648 1.60391 0 0 0
-1.72400 0.12311 1.59301 0 0 0
-1.74427 0.13180 1.58371 0 0 0
-1.76324 0.14107 1.57559 0 0 0
-1.77906 0.14983 1.56601 0 0 0
-1.79613 0.15807 1.55855 255 255 255
-1.82923 0.17573 1.54131 255 255 255
-1.84715 0.18347 1.53139 255 255 255
-1.86188 0.18914 1.52286 255 255 255
-1.87631 0.19516 1.51435 255 255 255
-1.89056 0.20037 1.50589 255 255 255
-1.90557 0.20573 1.49893 255 255 255
-1.91808 0.20901 1.49160 0 0 0
-1.93185 0.20852 1.48900 0 0 0
-1.94760 0.21251 1.48410 0 0 0
-1.96525 0.21916 1.47594 0 0 0
-1.97523 0.21631 1.47479 0 0 0
-1.98705 0.21809 1.47229 0 0 0
-1.99992 0.22103 1.46923 0 0 0
-2.01417 0.22351 1.46442 0 0 0
-2.02781 0.22729 1.45919 0 0 0
-2.03979 0.22850 1.45749 0 0 0
-2.05312 0.22726 1.45652 0 0 0
-2.06898 0.23013 1.45311 0 0 0
-2.08792 0.23462 1.44684 0 0 0
-2.10252 0.23190 1.44472 0 0 0
-2.11837 0.22762 1.44465 0 0 0
-2.13682 0.22589 1.43969 0 0 0
-2.14665 0.21452 1.44473 0 0 0
-2.15982 0.20882 1.44843 0 0 0
-2.17826 0.20736 1.44582 0 0 0
-2.19466 0.20046 1.44559 0 0 0
-2.20552 0.19224 1.45251 0 0 0
-2.22259 0.19308 1.44909 0 0 0
-2.23807 0.18703 1.44918 0 0 0
-2.25199 0.17767 1.45455 0 0 0
-2.26591 0.17165 1.45778 0 0 0
-2.28104 0.16719 1.45989 0 0 0
-2.29330 0.16142 1.46318 0 0 0
-2.30789 0.15820 1.46676 0 0 0
-2.32487 0.15513 1.46923 0 0 0
-2.34196 0.15729 1.46870 0 0 0
-2.36252 0.15465 1.46893 0 0 0
-2.38565 0.15043 1.47006 0 0 0
-2.40564 0.14655 1.47505 0 0 0
-2.42716 0.14338 1.47594 0 0 0
-2.44139 0.13960 1.47813 255 255 255
-2.47526 0.13317 1.48083 255 255 255
-2.49178 0.12737 1.48337 255 255 255
-2.51500 0.12456 1.47795 255 255 255
-2.53344 0.11847 1.48145 255 255 255
-2.55759 0.11576 1.48021 255 255 255
-2.57783 0.11164 1.48094 255 255 255
-2.59745 0.10650 1.48337 255 255 255
-2.61774 0.10446 1.48330 0 0 0
-2.63397 0.09766 1.48673 0 0 0
-2.64951 0.09372 1.48924 0 0 0
-2.66773 0.09071 1.48589 0 0 0
-2.68523 0.08630 1.48227 0 0 0
-2.69959 0.07924 1.48384 0 0 0
-2.71619 0.07481 1.48498 0 0 0
-2.73370 0.07135 1.48306 0 0 0
-2.74843 0.06662 1.47874 0 0 0
-2.75758 0.05771 1.48620 0 0 0
-2.77558 0.05769 1.47831 0 0 0
-2.78872 0.05285 1.47530 0 0 0
-2.79984 0.05185 1.47385 0 0 0
-2.81270 0.05196 1.46905 0 0 0
-2.82346 0.05126 1.46312 0 0 0
-2.83145 0.04580 1.46220 0 0 0
-2.83932 0.04534 1.45830 0 0 0
-2.84503 0.04185 1.45889 0 0 0
-2.84920 0.04257 1.45612 0 0 0
-2.85751 0.04473 1.44939 0 0 0
-2.85781 0.03987 1.45455 0 0 0
-2.86380 0.04011 1.45202 0 0 0
-2.86669 0.04139 1.44951 0 0 0
-2.87489 0.04598 1.44594 0 0 0
-2.88289 0.05292 1.43594 0 0 0
-2.88583 0.05383 1.43303 0 0 0
-2.88592 0.05266 1.43692 0 0 0
-2.89226 0.05951 1.42897 0 0 0
-2.89587 0.06025 1.42381 0 0 0
-2.89935 0.06360 1.42000 0 0 0
-2.90122 0.06880 1.41254 0 0 0
-2.90248 0.07024 1.41166 0 0 0
-2.90756 0.07547 1.40473 0 0 0
-2.91006 0.08197 1.40038 0 0 0
-2.91562 0.08913 1.38989 0 0 0
-2.91612 0.09071 1.38996 0 0 0
-2.92058 0.09736 1.38272 0 0 0
-2.92512 0.10439 1.37313 0 0 0
-2.92843 0.10860 1.37079 0 0 0
-2.93455 0.12164 1.35717 0 0 0
-2.93804 0.12736 1.34640 0 0 0
-2.94059 0.13179 1.34450 0 0 0
-2.94268 0.14046 1.33791 0 0 0
-2.94389 0.14664 1.33468 0 0 0
-2.94924 0.15812 1.32431 0 0 0
-2.94860 0.16430 1.31587 0 0 0
-2.95086 0.17177 1.30865 0 0 0
-2.95307 0.18192 1.30307 0 0 0
-2.95916 0.19119 1.29539 0 0 0
-2.96344 0.19677 1.28819 0 0 0
-2.96778 0.20300 1.28199 0 0 0
-2.97151 0.21356 1.27276 0 0 0
-2.97934 0.21401 1.26795 255 255 255
-2.98568 0.23447 1.24601 255 255 255
-2.99570 0.22925 1.24476 255 255 255
-3.00155 0.23218 1.24196 255 255 255
-3.00894 0.23047 1.23638 255 255 255
-3.02026 0.22365 1.23575 255 255 255
-3.02523 0.23350 1.22568 255 255 255
-3.03250 0.23335 1.22072 255 255 255
-3.04588 0.22762 1.21989 255 255 255
-3.05876 0.22702 1.22244 255 255 255
-3.06972 0.23093 1.22090 255 255 255
-3.08407 0.22566 1.22401 255 255 255
-3.09350 0.23425 1.21621 0 0 0
-3.10545 0.23582 1.21250 0 0 0
-3.12043 0.23396 1.21676 0 0 0
-3.13034 0.24335 1.21316 0 0 0
-3.14866 0.23708 1.22023 0 0 0
-3.16017 0.24857 1.21736 0 0 0
-3.17068 0.25765 1.21302 0 0 0
-3.18728 0.25342 1.21352 0 0 0
-3.20521 0.24543 1.21716 0 0 0
-3.22084 0.24939 1.21038 0 0 0
-3.23976 0.24684 1.20956 0 0 0
-3.25641 0.24885 1.20842 0 0 0
-3.27652 0.23857 1.21495 0 0 0
-3.29413 0.24128 1.21054 0 0 0
-3.31351 0.23817 1.20857 0 0 0
-3.33171 0.23464 1.21057 0 0 0
-3.35005 0.23660 1.20536 0 0 0
-3.36965 0.23461 1.19938 0 0 0
-3.38835 0.22994 1.19832 0 0 0
-3.41282 0.21689 1.20315 0 0 0
-3.43086 0.22587 1.19763 0 0 0
-3.44820 0.23128 1.19359 0 0 0
-3.46843 0.22700 1.19485 0 0 0
-3.48710 0.22948 1.19219 0 0 0
-3.50474 0.22749 1.18797 0 0 0
-3.52851 0.20884 1.19347 0 0 0
-3.54481 0.21661 1.18862 0 0 0
-3.56214 0.21712 1.18628 0 0 0
-3.58072 0.21567 1.18469 0 0 0
-3.59808 0.21395 1.18416 0 0 0
-3.61453 0.21418 1.18150 0 0 0
-3.63199 0.20799 1.18057 0 0 0
-3.64938 0.20509 1.17982 0 0 0
-3.66296 0.21046 1.17244 0 0 0
-3.67984 0.19855 1.16882 0 0 0
-3.69655 0.20089 1.16316 0 0 0
-3.71118 0.20463 1.15940 0 0 0
-3.72876 0.19578 1.15791 0 0 0
-3.74696 0.19479 1.15537 0 0 0
-3.76133 0.19518 1.14954 0 0 0
-3.77711 0.18736 1.14601 0 0 0
-3.79256 0.19154 1.14027 0 0 0
-3.81414 0.17206 1.14223 255 255 255
-3.83998 0.18944 1.12275 255 255 255
-3.86130 0.17137 1.12784 255 255 255
-3.87542 0.16897 1.13295 255 255 255
-3.88070 0.19396 1.12357 255 255 255
-3.89362 0.18339 1.12456 255 255 255
-3.90500 0.17429 1.12655 255 255 255
-3.90728 0.19297 1.11368 255 255 255
-3.91422 0.18631 1.10935 255 255 255
-3.91811 0.18845 1.10517 255 255 255
-3.92011 0.19536 1.09893 255 255 255
-3.92041 0.19707 1.09924 255 255 255
-3.92239 0.19162 1.10163 255 255 255
-3.92171 0.18948 1.10069 255 255 255
-3.92181 0.18477 1.09756 255 255 255
-3.92070 0.18343 1.09598 255 255 255
-3.91849 0.18418 1.09678 255 255 255
-3.91570 0.18333 1.09940 255 255 255
